# .PCD v0.7 - Point Cloud Data file format
VERSION 0.7
FIELDS x y z
SIZE 4 4 4
TYPE F F F
COUNT 1 1 1
WIDTH 2632
HEIGHT 1
VIEWPOINT 0 0 0 1 0 0 0
POINTS 2632
DATA ascii
-0.238 0.626 2.496
-0.228 0.64 2.557
-0.213 0.638 2.548
-0.199 0.642 2.564
-0.184 0.641 2.563
-0.169 0.642 2.568
-0.154 0.641 2.565
-0.139 0.642 2.571
-0.124 0.642 2.569
-0.11 0.646 2.587
-0.094 0.639 2.561
-0.08 0.647 2.592
-0.064 0.64 2.563
-0.049 0.64 2.566
-0.034 0.642 2.571
-0.019 0.647 2.592
-0.004 0.644 2.582
0.01 0.646 2.59
0.025 0.646 2.589
0.04 0.645 2.585
0.055 0.643 2.577
0.07 0.643 2.576
0.085 0.647 2.591
0.097 0.629 2.519
0.11 0.618 2.473
0.125 0.619 2.476
0.139 0.618 2.472
0.153 0.617 2.47
0.168 0.62 2.478
0.182 0.617 2.466
0.198 0.621 2.481
0.211 0.619 2.473
0.228 0.625 2.494
0.25 0.645 2.574
0.267 0.648 2.585
0.282 0.648 2.584
0.296 0.647 2.578
0.316 0.655 2.609
0.331 0.656 2.61
0.345 0.654 2.601
0.364 0.66 2.625
0.377 0.655 2.602
0.391 0.653 2.592
0.411 0.662 2.625
0.423 0.656 2.6
0.437 0.653 2.586
0.454 0.657 2.597
0.468 0.655 2.588
0.488 0.662 2.612
0.499 0.656 2.586
0.515 0.657 2.587
0.527 0.652 2.565
0.546 0.656 2.58
0.562 0.657 2.581
0.567 0.646 2.533
0.571 0.633 2.48
0.587 0.635 2.484
0.602 0.636 2.483
0.616 0.634 2.474
0.63 0.634 2.47
0.654 0.642 2.499
0.7 0.672 2.614
0.726 0.682 2.647
0.75 0.69 2.673
0.77 0.693 2.683
0.791 0.697 2.694
0.818 0.706 2.724
0.845 0.715 2.756
0.858 0.712 2.74
0.862 0.702 2.694
0.891 0.712 2.728
0.908 0.713 2.726
0.922 0.71 2.712
0.967 0.731 2.789
0.955 0.711 2.703
0.978 0.715 2.714
1.02 0.733 2.779
1.029 0.727 2.75
1.049 0.729 2.753
1.036 0.709 2.67
1.095 0.738 2.773
1.106 0.733 2.75
1.137 0.743 2.779
1.158 0.745 2.782
1.141 0.723 2.694
1.197 0.748 2.779
1.21 0.745 2.763
1.218 0.739 2.733
1.24 0.742 2.737
1.292 0.762 2.806
1.291 0.751 2.758
1.297 0.745 2.727
1.307 0.741 2.706
1.338 0.749 2.727
1.367 0.755 2.742
1.409 0.768 2.782
1.424 0.767 2.769
1.433 0.762 2.743
1.473 0.774 2.778
1.502 0.779 2.79
1.47 0.754 2.69
1.506 0.763 2.714
1.52 0.761 2.7
1.602 0.793 2.804
-0.613 0.308 1.047
-0.606 0.308 1.052
-0.606 0.312 1.067
-0.601 0.313 1.074
-0.59 0.311 1.072
-0.586 0.312 1.079
-0.578 0.312 1.082
-0.581 0.317 1.104
-0.574 0.317 1.107
-0.569 0.319 1.116
-0.57 0.324 1.135
-0.569 0.327 1.15
-0.574 0.334 1.18
-0.648 0.383 1.357
-1.135 0.679 2.428
-1.143 0.693 2.487
-1.138 0.7 2.516
-1.125 0.701 2.529
-1.081 0.684 2.471
-1.05 0.674 2.44
-1.02 0.664 2.412
-1.005 0.665 2.418
-0.992 0.666 2.428
-0.96 0.654 2.391
-0.959 0.664 2.432
-0.959 0.675 2.477
-0.928 0.664 2.443
-0.921 0.669 2.468
-0.895 0.661 2.443
-0.828 0.623 2.303
-0.786 0.602 2.23
-0.716 0.557 2.068
-0.698 0.553 2.056
-0.625 0.514 1.916
-0.634 0.531 1.985
-0.613 0.524 1.959
-0.626 0.546 2.046
-0.609 0.542 2.036
-0.589 0.535 2.011
-0.557 0.517 1.945
-0.567 0.537 2.027
-0.576 0.558 2.109
-0.59 0.584 2.212
-0.56 0.567 2.149
-0.553 0.573 2.176
-0.56 0.595 2.261
-0.557 0.607 2.31
-0.578 0.646 2.463
-0.552 0.633 2.417
-0.55 0.647 2.474
-0.549 0.664 2.542
-0.536 0.665 2.552
-0.521 0.666 2.558
-0.509 0.671 2.577
-0.495 0.672 2.584
-0.478 0.67 2.581
-0.45 0.651 2.509
-0.441 0.66 2.548
-0.432 0.669 2.583
-0.413 0.663 2.562
-0.4 0.667 2.579
-0.381 0.66 2.556
-0.362 0.654 2.534
-0.343 0.646 2.505
-0.321 0.631 2.449
-0.308 0.634 2.462
-0.292 0.631 2.453
-0.277 0.631 2.451
-0.264 0.632 2.46
-0.25 0.635 2.469
-0.237 0.637 2.482
-0.224 0.642 2.502
-0.209 0.642 2.504
-0.196 0.648 2.525
-0.181 0.647 2.522
-0.166 0.644 2.512
-0.151 0.642 2.508
-0.137 0.645 2.517
-0.123 0.649 2.533
-0.107 0.646 2.524
-0.092 0.645 2.52
-0.078 0.644 2.518
-0.063 0.647 2.528
-0.048 0.646 2.525
-0.034 0.649 2.537
-0.019 0.642 2.508
-0.004 0.651 2.547
0.009 0.645 2.523
0.024 0.651 2.547
0.039 0.649 2.54
0.054 0.65 2.541
0.069 0.648 2.534
0.083 0.643 2.515
0.096 0.635 2.48
0.11 0.632 2.47
0.125 0.635 2.481
0.139 0.633 2.47
0.153 0.632 2.468
0.169 0.635 2.479
0.183 0.635 2.477
0.196 0.63 2.456
0.211 0.633 2.467
0.228 0.638 2.487
0.247 0.652 2.54
0.264 0.657 2.559
0.278 0.653 2.541
0.296 0.66 2.568
0.309 0.656 2.551
0.322 0.652 2.531
0.342 0.662 2.568
0.357 0.663 2.571
0.372 0.662 2.567
0.389 0.665 2.574
0.401 0.661 2.556
0.42 0.666 2.574
0.437 0.669 2.586
0.45 0.667 2.573
0.463 0.663 2.557
0.475 0.659 2.538
0.5 0.672 2.585
0.501 0.654 2.513
0.52 0.658 2.528
0.533 0.656 2.517
0.552 0.66 2.53
0.56 0.653 2.499
0.576 0.654 2.498
0.585 0.648 2.473
0.6 0.648 2.47
0.617 0.651 2.477
0.627 0.645 2.454
0.646 0.65 2.466
0.68 0.669 2.535
0.732 0.704 2.665
0.745 0.7 2.649
0.755 0.695 2.624
0.793 0.715 2.697
0.799 0.706 2.658
0.819 0.71 2.667
0.831 0.706 2.649
0.866 0.722 2.703
0.863 0.706 2.638
0.904 0.726 2.71
0.922 0.727 2.708
0.942 0.73 2.713
0.962 0.732 2.718
0.965 0.722 2.675
0.994 0.731 2.703
1.014 0.733 2.706
1.015 0.723 2.66
1.031 0.722 2.653
1.042 0.718 2.633
1.063 0.722 2.64
1.062 0.71 2.59
1.116 0.735 2.676
1.104 0.716 2.601
1.139 0.728 2.64
1.179 0.743 2.687
1.194 0.742 2.676
1.217 0.745 2.682
1.24 0.749 2.69
1.25 0.745 2.667
1.303 0.766 2.735
1.32 0.766 2.729
1.346 0.77 2.737
1.347 0.761 2.696
1.342 0.749 2.644
1.365 0.752 2.649
1.43 0.778 2.733
1.378 0.741 2.594
1.421 0.755 2.636
1.466 0.769 2.677
1.452 0.753 2.613
1.498 0.768 2.656
1.52 0.77 2.656
1.56 0.781 2.686
-0.609 0.313 1.039
-0.606 0.315 1.049
-0.599 0.315 1.054
-0.597 0.318 1.065
-0.59 0.318 1.07
-0.587 0.32 1.08
-0.583 0.322 1.089
-0.577 0.323 1.095
-0.573 0.324 1.104
-0.569 0.326 1.113
-0.566 0.328 1.125
-0.563 0.331 1.137
-0.563 0.335 1.155
-0.577 0.349 1.205
-0.996 0.609 2.124
-1.147 0.711 2.491
-1.093 0.688 2.413
-1.072 0.684 2.405
-1.075 0.695 2.453
-1.054 0.692 2.446
-1.01 0.673 2.383
-1.011 0.684 2.429
-0.977 0.671 2.389
-0.974 0.679 2.423
-0.945 0.669 2.393
-0.929 0.669 2.396
-0.92 0.673 2.417
-0.886 0.659 2.37
-0.867 0.656 2.364
-0.852 0.655 2.367
-0.77 0.603 2.181
-0.689 0.549 1.987
-0.666 0.54 1.958
-0.646 0.534 1.94
-0.636 0.535 1.946
-0.632 0.542 1.976
-0.605 0.529 1.932
-0.611 0.545 1.993
-0.597 0.543 1.99
-0.586 0.545 1.999
-0.567 0.538 1.977
-0.56 0.543 1.999
-0.559 0.553 2.041
-0.578 0.585 2.163
-0.567 0.588 2.176
-0.557 0.591 2.189
-0.573 0.623 2.313
-0.576 0.641 2.385
-0.565 0.645 2.402
-0.547 0.641 2.388
-0.549 0.661 2.468
-0.534 0.66 2.467
-0.521 0.662 2.478
-0.508 0.664 2.489
-0.497 0.67 2.513
-0.481 0.668 2.507
-0.47 0.673 2.532
-0.454 0.672 2.528
-0.445 0.681 2.564
-0.419 0.665 2.505
-0.408 0.67 2.529
-0.388 0.661 2.497
-0.375 0.664 2.511
-0.355 0.655 2.478
-0.336 0.647 2.448
-0.321 0.645 2.444
-0.302 0.636 2.409
-0.29 0.641 2.43
-0.276 0.641 2.434
-0.262 0.642 2.439
-0.246 0.639 2.428
-0.233 0.643 2.443
-0.221 0.649 2.47
-0.206 0.648 2.465
-0.192 0.649 2.47
-0.179 0.653 2.485
-0.164 0.652 2.486
-0.148 0.644 2.454
-0.134 0.649 2.473
-0.12 0.647 2.468
-0.106 0.65 2.48
-0.091 0.651 2.485
-0.077 0.65 2.478
-0.062 0.65 2.48
-0.048 0.659 2.516
-0.033 0.65 2.481
-0.019 0.65 2.483
-0.004 0.656 2.506
0.009 0.651 2.487
0.024 0.646 2.464
0.038 0.653 2.492
0.053 0.649 2.475
0.067 0.652 2.488
0.082 0.649 2.475
0.096 0.646 2.466
0.11 0.646 2.464
0.123 0.64 2.439
0.139 0.646 2.463
0.153 0.643 2.452
0.167 0.646 2.459
0.181 0.643 2.447
0.198 0.65 2.475
0.21 0.643 2.445
0.228 0.653 2.483
0.242 0.654 2.485
0.26 0.663 2.518
0.276 0.663 2.519
0.287 0.656 2.489
0.304 0.661 2.506
0.317 0.658 2.495
0.334 0.663 2.511
0.35 0.664 2.515
0.366 0.667 2.523
0.378 0.662 2.502
0.391 0.658 2.486
0.41 0.666 2.515
0.421 0.659 2.485
0.433 0.655 2.467
0.454 0.664 2.5
0.466 0.66 2.483
0.483 0.664 2.495
0.498 0.665 2.495
0.513 0.665 2.492
0.524 0.66 2.471
0.545 0.668 2.498
0.557 0.664 2.479
0.569 0.661 2.464
0.585 0.662 2.468
0.599 0.662 2.462
0.613 0.66 2.454
0.625 0.658 2.441
0.648 0.666 2.47
0.687 0.69 2.556
0.708 0.696 2.572
0.725 0.698 2.575
0.755 0.711 2.62
0.758 0.7 2.575
0.782 0.707 2.597
0.797 0.706 2.59
0.835 0.725 2.657
0.845 0.72 2.633
0.855 0.716 2.611
0.865 0.71 2.587
0.9 0.726 2.64
0.914 0.725 2.63
0.933 0.727 2.633
0.969 0.741 2.681
0.953 0.717 2.589
0.979 0.725 2.61
1.015 0.739 2.657
1.009 0.723 2.592
1.033 0.729 2.608
1.039 0.721 2.576
1.069 0.731 2.605
1.091 0.735 2.612
1.088 0.722 2.561
1.125 0.735 2.602
1.174 0.757 2.671
1.148 0.73 2.569
1.204 0.755 2.65
1.222 0.755 2.646
1.22 0.744 2.599
1.266 0.762 2.655
1.254 0.744 2.586
1.309 0.766 2.658
1.3 0.752 2.599
1.33 0.759 2.617
1.361 0.767 2.637
1.365 0.76 2.605
1.371 0.754 2.576
1.38 0.75 2.554
1.456 0.781 2.655
1.465 0.777 2.632
1.528 0.801 2.705
1.508 0.781 2.63
1.485 0.761 2.552
-0.608 0.32 1.036
-0.602 0.32 1.04
-0.6 0.322 1.052
-0.59 0.321 1.05
-0.587 0.323 1.062
-0.584 0.325 1.072
-0.577 0.326 1.076
-0.572 0.327 1.084
-0.57 0.33 1.097
-0.564 0.33 1.102
-0.564 0.335 1.119
-0.562 0.338 1.132
-0.561 0.342 1.151
-0.57 0.352 1.188
-0.656 0.41 1.391
-1.086 0.689 2.354
-1.086 0.698 2.392
-1.067 0.695 2.389
-1.041 0.688 2.371
-1.051 0.706 2.437
-1.004 0.684 2.367
-1.013 0.7 2.43
-0.989 0.694 2.413
-0.957 0.682 2.376
-0.943 0.683 2.385
-0.929 0.683 2.392
-0.919 0.687 2.41
-0.889 0.676 2.375
-0.863 0.668 2.35
-0.835 0.656 2.315
-0.774 0.619 2.187
-0.72 0.586 2.074
-0.663 0.549 1.946
-0.649 0.548 1.944
-0.641 0.551 1.96
-0.623 0.546 1.944
-0.617 0.551 1.967
-0.603 0.55 1.964
-0.594 0.553 1.979
-0.571 0.542 1.943
-0.566 0.548 1.969
-0.557 0.552 1.986
-0.54 0.546 1.968
-0.551 0.57 2.056
-0.563 0.596 2.156
-0.56 0.607 2.196
-0.569 0.632 2.29
-0.581 0.661 2.401
-0.564 0.659 2.396
-0.557 0.667 2.431
-0.544 0.669 2.44
-0.535 0.675 2.466
-0.515 0.669 2.445
-0.499 0.667 2.442
-0.493 0.679 2.488
-0.476 0.676 2.481
-0.457 0.67 2.461
-0.452 0.685 2.517
-0.433 0.678 2.492
-0.419 0.679 2.499
-0.402 0.676 2.491
-0.386 0.673 2.482
-0.37 0.671 2.475
-0.354 0.668 2.469
-0.335 0.659 2.437
-0.315 0.649 2.4
-0.302 0.651 2.411
-0.287 0.649 2.404
-0.274 0.652 2.416
-0.26 0.651 2.415
-0.245 0.65 2.413
-0.231 0.65 2.413
-0.217 0.65 2.413
-0.204 0.655 2.433
-0.189 0.653 2.429
-0.176 0.656 2.441
-0.162 0.659 2.451
-0.149 0.664 2.473
-0.132 0.654 2.433
-0.118 0.655 2.44
-0.104 0.654 2.436
-0.09 0.657 2.448
-0.076 0.657 2.448
-0.061 0.65 2.421
-0.047 0.65 2.423
-0.033 0.663 2.471
-0.018 0.656 2.444
-0.004 0.654 2.439
0.009 0.654 2.438
0.023 0.651 2.428
0.038 0.656 2.445
0.052 0.653 2.433
0.066 0.65 2.421
0.081 0.661 2.462
0.094 0.65 2.421
0.108 0.652 2.427
0.123 0.653 2.432
0.138 0.655 2.439
0.151 0.652 2.428
0.165 0.649 2.415
0.18 0.653 2.429
0.195 0.655 2.435
0.21 0.659 2.449
0.225 0.659 2.448
0.239 0.66 2.451
0.256 0.665 2.468
0.267 0.658 2.442
0.285 0.666 2.469
0.3 0.667 2.471
0.315 0.669 2.476
0.329 0.668 2.471
0.341 0.662 2.446
0.359 0.669 2.47
0.372 0.666 2.459
0.381 0.656 2.418
0.402 0.668 2.462
0.417 0.668 2.46
0.43 0.665 2.446
0.446 0.668 2.456
0.461 0.669 2.456
0.475 0.667 2.448
0.489 0.668 2.447
0.509 0.674 2.466
0.522 0.672 2.456
0.534 0.669 2.442
0.544 0.663 2.419
0.566 0.673 2.451
0.574 0.665 2.42
0.594 0.671 2.439
0.613 0.675 2.45
0.623 0.67 2.43
0.648 0.682 2.468
0.665 0.684 2.473
0.69 0.694 2.504
0.716 0.704 2.538
0.737 0.71 2.554
0.746 0.704 2.529
0.765 0.707 2.536
0.773 0.701 2.509
0.801 0.712 2.547
0.83 0.723 2.583
0.83 0.711 2.532
0.859 0.722 2.567
0.884 0.729 2.588
0.892 0.723 2.561
0.899 0.716 2.532
0.932 0.729 2.576
0.955 0.735 2.59
0.97 0.734 2.58
0.974 0.726 2.546
0.995 0.729 2.554
1.048 0.755 2.64
1.014 0.72 2.511
1.064 0.744 2.589
1.062 0.732 2.539
1.088 0.738 2.557
1.075 0.719 2.483
1.134 0.747 2.575
1.128 0.733 2.519
1.177 0.754 2.586
1.165 0.736 2.518
1.213 0.756 2.579
1.237 0.761 2.589
1.237 0.75 2.546
1.221 0.732 2.476
1.295 0.765 2.583
1.297 0.757 2.548
1.33 0.766 2.572
1.385 0.788 2.639
1.409 0.792 2.643
1.391 0.772 2.57
1.393 0.765 2.536
1.447 0.785 2.596
1.405 0.753 2.483
1.444 0.765 2.513
1.443 0.756 2.476
-0.604 0.324 1.027
-0.598 0.325 1.031
-0.596 0.328 1.044
-0.591 0.328 1.05
-0.585 0.329 1.056
-0.58 0.33 1.063
-0.573 0.33 1.066
-0.567 0.331 1.072
-0.567 0.335 1.089
-0.563 0.337 1.098
-0.558 0.338 1.104
-0.557 0.342 1.12
-0.558 0.347 1.141
-0.554 0.35 1.152
-0.58 0.371 1.227
-1.02 0.661 2.206
-1.047 0.688 2.303
-1.031 0.687 2.305
-1.046 0.707 2.379
-1.018 0.698 2.355
-0.982 0.684 2.31
-0.958 0.677 2.292
-0.986 0.707 2.402
-0.939 0.684 2.329
-0.934 0.691 2.358
-0.922 0.694 2.371
-0.901 0.688 2.358
-0.873 0.678 2.328
-0.861 0.68 2.339
-0.83 0.667 2.299
-0.775 0.634 2.188
-0.719 0.598 2.068
-0.659 0.558 1.932
-0.633 0.546 1.892
-0.62 0.545 1.893
-0.614 0.55 1.915
-0.599 0.547 1.906
-0.592 0.551 1.925
-0.581 0.552 1.931
-0.572 0.555 1.945
-0.558 0.553 1.941
-0.535 0.542 1.903
-0.534 0.552 1.942
-0.528 0.558 1.967
-0.531 0.574 2.028
-0.544 0.603 2.133
-0.575 0.652 2.311
-0.579 0.673 2.39
-0.566 0.675 2.4
-0.556 0.681 2.422
-0.539 0.677 2.413
-0.523 0.675 2.408
-0.507 0.673 2.403
-0.491 0.671 2.401
-0.476 0.67 2.396
-0.467 0.678 2.43
-0.457 0.684 2.454
-0.435 0.674 2.418
-0.423 0.677 2.435
-0.407 0.673 2.422
-0.394 0.676 2.434
-0.375 0.668 2.407
-0.361 0.669 2.413
-0.349 0.672 2.427
-0.334 0.672 2.427
-0.314 0.66 2.387
-0.302 0.665 2.404
-0.287 0.662 2.397
-0.273 0.664 2.405
-0.258 0.661 2.393
-0.242 0.656 2.379
-0.229 0.657 2.384
-0.216 0.662 2.403
-0.202 0.663 2.407
-0.184 0.65 2.36
-0.174 0.662 2.407
-0.159 0.658 2.393
-0.145 0.66 2.402
-0.131 0.661 2.404
-0.117 0.661 2.406
-0.102 0.655 2.385
-0.088 0.658 2.396
-0.074 0.657 2.391
-0.06 0.659 2.398
-0.046 0.66 2.402
-0.032 0.664 2.417
-0.018 0.663 2.414
-0.004 0.659 2.402
0.009 0.662 2.412
0.023 0.667 2.43
0.037 0.663 2.415
0.051 0.662 2.412
0.065 0.662 2.413
0.079 0.66 2.401
0.094 0.665 2.421
0.107 0.66 2.401
0.122 0.66 2.402
0.137 0.666 2.423
0.149 0.656 2.387
0.165 0.664 2.415
0.179 0.665 2.418
0.193 0.664 2.411
0.207 0.665 2.414
0.22 0.659 2.392
0.237 0.667 2.42
0.25 0.665 2.412
0.265 0.666 2.414
0.279 0.665 2.41
0.291 0.66 2.39
0.307 0.666 2.411
0.323 0.669 2.419
0.336 0.667 2.407
0.351 0.667 2.409
0.365 0.668 2.41
0.379 0.668 2.407
0.395 0.67 2.413
0.411 0.674 2.424
0.421 0.666 2.395
0.442 0.676 2.428
0.453 0.672 2.409
0.468 0.672 2.41
0.481 0.67 2.4
0.497 0.673 2.407
0.511 0.673 2.404
0.525 0.672 2.398
0.538 0.671 2.391
0.551 0.668 2.379
0.571 0.676 2.403
0.589 0.679 2.412
0.602 0.679 2.406
0.621 0.683 2.418
0.635 0.683 2.414
0.668 0.701 2.477
0.68 0.699 2.465
0.706 0.71 2.499
0.726 0.714 2.512
0.74 0.713 2.504
0.759 0.717 2.512
0.778 0.72 2.521
0.792 0.719 2.513
0.81 0.721 2.516
0.828 0.724 2.522
0.841 0.722 2.51
0.858 0.723 2.507
0.873 0.723 2.502
0.902 0.734 2.536
0.918 0.734 2.533
0.926 0.728 2.505
0.937 0.725 2.49
0.948 0.721 2.471
1.002 0.75 2.567
1.005 0.741 2.529
1.022 0.741 2.525
1.051 0.751 2.552
1.046 0.736 2.497
1.086 0.753 2.548
1.083 0.74 2.497
1.125 0.757 2.55
1.121 0.744 2.499
1.148 0.752 2.519
1.153 0.745 2.488
1.192 0.759 2.53
1.223 0.768 2.555
1.221 0.757 2.511
1.245 0.762 2.52
1.268 0.766 2.526
1.284 0.766 2.518
1.333 0.785 2.575
1.322 0.769 2.514
1.325 0.761 2.482
1.332 0.756 2.457
1.413 0.792 2.568
1.389 0.77 2.486
1.419 0.777 2.502
1.387 0.751 2.409
1.414 0.757 2.422
-0.605 0.332 1.027
-0.597 0.331 1.028
-0.593 0.333 1.037
-0.59 0.335 1.048
-0.583 0.335 1.051
-0.579 0.337 1.06
-0.575 0.339 1.068
-0.569 0.339 1.073
-0.561 0.339 1.076
-0.56 0.342 1.09
-0.554 0.343 1.095
-0.55 0.345 1.104
-0.55 0.35 1.123
-0.55 0.354 1.142
-0.569 0.372 1.201
-0.854 0.565 1.841
-1.027 0.689 2.255
-1.018 0.693 2.273
-0.984 0.679 2.233
-1.003 0.703 2.316
-0.965 0.686 2.266
-0.977 0.705 2.334
-0.945 0.692 2.297
-0.92 0.684 2.276
-0.922 0.697 2.323
-0.888 0.682 2.278
-0.864 0.674 2.257
-0.859 0.682 2.288
-0.845 0.682 2.291
-0.82 0.673 2.266
-0.779 0.65 2.194
-0.719 0.611 2.064
-0.677 0.585 1.981
-0.635 0.559 1.895
-0.604 0.542 1.84
-0.602 0.551 1.874
-0.596 0.556 1.894
-0.583 0.555 1.894
-0.574 0.557 1.903
-0.555 0.55 1.883
-0.549 0.555 1.904
-0.532 0.549 1.887
-0.528 0.558 1.918
-0.512 0.553 1.903
-0.509 0.562 1.94
-0.505 0.572 1.975
-0.528 0.612 2.118
-0.563 0.668 2.319
-0.557 0.678 2.357
-0.547 0.683 2.376
-0.535 0.686 2.39
-0.52 0.685 2.39
-0.507 0.687 2.399
-0.484 0.675 2.36
-0.471 0.677 2.368
-0.459 0.68 2.382
-0.444 0.68 2.383
-0.439 0.693 2.433
-0.416 0.68 2.387
-0.401 0.679 2.386
-0.389 0.682 2.4
-0.372 0.677 2.385
-0.36 0.681 2.401
-0.344 0.677 2.388
-0.328 0.674 2.379
-0.314 0.673 2.378
-0.297 0.667 2.358
-0.285 0.671 2.374
-0.268 0.666 2.357
-0.254 0.666 2.357
-0.241 0.668 2.368
-0.226 0.663 2.349
-0.213 0.667 2.368
-0.199 0.667 2.369
-0.186 0.668 2.372
-0.169 0.659 2.342
-0.16 0.677 2.407
-0.144 0.67 2.381
-0.129 0.665 2.365
-0.116 0.667 2.372
-0.102 0.669 2.379
-0.088 0.669 2.381
-0.074 0.666 2.371
-0.06 0.668 2.378
-0.046 0.664 2.364
-0.032 0.665 2.368
-0.018 0.666 2.371
-0.004 0.665 2.368
0.009 0.666 2.37
0.023 0.671 2.388
0.036 0.664 2.364
0.051 0.668 2.378
0.065 0.669 2.381
0.078 0.666 2.37
0.093 0.671 2.389
0.107 0.672 2.392
0.121 0.67 2.385
0.134 0.667 2.371
0.148 0.669 2.377
0.164 0.674 2.394
0.177 0.671 2.385
0.191 0.672 2.388
0.205 0.671 2.383
0.219 0.67 2.378
0.234 0.673 2.386
0.248 0.672 2.383
0.261 0.671 2.377
0.276 0.674 2.386
0.289 0.671 2.375
0.303 0.672 2.375
0.32 0.677 2.39
0.331 0.67 2.365
0.348 0.676 2.387
0.362 0.677 2.388
0.374 0.673 2.371
0.391 0.677 2.383
0.406 0.679 2.389
0.423 0.683 2.401
0.433 0.677 2.377
0.449 0.68 2.386
0.463 0.68 2.382
0.483 0.688 2.407
0.492 0.68 2.378
0.5 0.672 2.348
0.524 0.685 2.387
0.538 0.685 2.387
0.55 0.682 2.373
0.563 0.681 2.366
0.584 0.689 2.39
0.594 0.684 2.37
0.611 0.687 2.377
0.638 0.701 2.423
0.649 0.696 2.402
0.669 0.703 2.422
0.693 0.712 2.449
0.707 0.711 2.443
0.728 0.717 2.462
0.743 0.717 2.456
0.758 0.717 2.454
0.765 0.71 2.423
0.804 0.732 2.494
0.815 0.728 2.477
0.822 0.721 2.448
0.827 0.712 2.415
0.857 0.725 2.453
0.865 0.719 2.427
0.906 0.74 2.495
0.903 0.726 2.441
0.929 0.734 2.465
0.951 0.739 2.476
0.968 0.74 2.474
1.004 0.755 2.52
1.002 0.743 2.472
1.007 0.735 2.44
1.062 0.764 2.531
1.066 0.755 2.496
1.077 0.752 2.479
1.094 0.753 2.476
1.132 0.768 2.521
1.114 0.745 2.439
1.152 0.759 2.48
1.157 0.753 2.452
1.199 0.77 2.501
1.2 0.76 2.462
1.224 0.765 2.472
1.237 0.763 2.459
1.284 0.782 2.513
1.258 0.757 2.425
1.272 0.756 2.415
1.256 0.737 2.347
1.302 0.755 2.397
1.313 0.752 2.382
1.367 0.774 2.442
1.393 0.779 2.452
1.336 0.739 2.318
1.395 0.763 2.385
-0.6 0.336 1.017
-0.591 0.335 1.016
-0.594 0.34 1.036
-0.588 0.341 1.042
-0.58 0.34 1.044
-0.576 0.342 1.051
-0.569 0.342 1.055
-0.567 0.345 1.067
-0.559 0.345 1.07
-0.553 0.346 1.075
-0.553 0.35 1.092
-0.552 0.354 1.107
-0.55 0.357 1.121
-0.55 0.362 1.139
-0.546 0.364 1.149
-0.608 0.411 1.303
-1.013 0.694 2.22
-1 0.695 2.227
-0.979 0.69 2.217
-0.976 0.698 2.25
-0.957 0.695 2.244
-0.952 0.702 2.271
-0.913 0.683 2.217
-0.919 0.698 2.27
-0.903 0.697 2.272
-0.895 0.702 2.294
-0.875 0.697 2.282
-0.847 0.686 2.252
-0.833 0.686 2.256
-0.809 0.678 2.232
-0.757 0.646 2.13
-0.703 0.61 2.015
-0.664 0.587 1.941
-0.643 0.578 1.916
-0.616 0.564 1.873
-0.591 0.552 1.834
-0.573 0.546 1.818
-0.569 0.553 1.845
-0.565 0.56 1.871
-0.551 0.557 1.864
-0.539 0.557 1.866
-0.522 0.551 1.85
-0.511 0.552 1.855
-0.499 0.55 1.853
-0.485 0.548 1.847
-0.477 0.55 1.859
-0.47 0.556 1.879
-0.473 0.574 1.943
-0.517 0.643 2.182
-0.537 0.686 2.332
-0.525 0.688 2.343
-0.514 0.692 2.359
-0.496 0.686 2.343
-0.48 0.684 2.339
-0.468 0.686 2.348
-0.454 0.687 2.352
-0.442 0.69 2.366
-0.426 0.687 2.359
-0.412 0.687 2.361
-0.394 0.681 2.342
-0.38 0.68 2.338
-0.367 0.683 2.352
-0.352 0.68 2.345
-0.338 0.68 2.347
-0.324 0.679 2.345
-0.309 0.677 2.339
-0.298 0.684 2.366
-0.282 0.68 2.351
-0.266 0.674 2.334
-0.252 0.673 2.332
-0.238 0.674 2.335
-0.228 0.683 2.368
-0.21 0.672 2.333
-0.196 0.668 2.32
-0.183 0.671 2.329
-0.17 0.674 2.34
-0.156 0.673 2.339
-0.141 0.671 2.333
-0.127 0.667 2.319
-0.114 0.67 2.33
-0.1 0.673 2.341
-0.087 0.673 2.341
-0.073 0.673 2.341
-0.059 0.677 2.355
-0.045 0.671 2.336
-0.032 0.672 2.339
-0.018 0.672 2.341
-0.004 0.672 2.339
0.009 0.675 2.349
0.023 0.676 2.355
0.036 0.676 2.352
0.05 0.676 2.353
0.064 0.671 2.337
0.078 0.679 2.362
0.091 0.671 2.334
0.105 0.675 2.347
0.12 0.678 2.359
0.133 0.673 2.34
0.147 0.676 2.35
0.161 0.676 2.35
0.175 0.679 2.36
0.19 0.682 2.369
0.203 0.678 2.355
0.219 0.685 2.377
0.233 0.684 2.372
0.246 0.681 2.362
0.26 0.683 2.367
0.273 0.679 2.351
0.288 0.683 2.365
0.299 0.675 2.335
0.315 0.681 2.352
0.332 0.686 2.37
0.346 0.687 2.372
0.358 0.682 2.353
0.372 0.683 2.353
0.389 0.688 2.37
0.403 0.689 2.369
0.413 0.682 2.343
0.43 0.686 2.355
0.444 0.686 2.352
0.457 0.684 2.344
0.468 0.681 2.329
0.489 0.69 2.36
0.505 0.693 2.367
0.517 0.69 2.352
0.538 0.699 2.38
0.549 0.694 2.363
0.563 0.695 2.363
0.582 0.701 2.379
0.595 0.699 2.368
0.607 0.696 2.357
0.627 0.702 2.374
0.644 0.705 2.381
0.672 0.72 2.429
0.678 0.711 2.393
0.705 0.724 2.434
0.717 0.721 2.421
0.719 0.708 2.372
0.753 0.728 2.433
0.742 0.703 2.345
0.774 0.719 2.396
0.785 0.716 2.382
0.811 0.726 2.41
0.822 0.723 2.396
0.85 0.734 2.428
0.86 0.73 2.409
0.882 0.736 2.424
0.884 0.725 2.385
0.911 0.735 2.412
0.927 0.736 2.41
0.946 0.738 2.414
0.958 0.736 2.401
0.989 0.749 2.437
0.998 0.743 2.414
1.009 0.741 2.4
1.046 0.756 2.445
1.063 0.757 2.442
1.047 0.735 2.364
1.098 0.76 2.44
1.108 0.756 2.421
1.116 0.752 2.399
1.149 0.763 2.431
1.136 0.745 2.365
1.165 0.753 2.387
1.171 0.747 2.36
1.18 0.743 2.341
1.187 0.738 2.319
1.223 0.751 2.354
1.256 0.762 2.38
1.261 0.755 2.352
1.276 0.755 2.344
1.31 0.766 2.372
1.295 0.749 2.31
1.307 0.747 2.296
1.336 0.754 2.313
1.353 0.755 2.308
-0.596 0.34 1.007
-0.592 0.342 1.016
-0.588 0.344 1.024
-0.582 0.345 1.03
-0.579 0.347 1.039
-0.577 0.35 1.051
-0.567 0.348 1.05
-0.563 0.349 1.057
-0.558 0.351 1.064
-0.558 0.356 1.082
-0.551 0.356 1.086
-0.549 0.359 1.1
-0.537 0.356 1.093
-0.542 0.364 1.121
-0.541 0.368 1.137
-0.551 0.38 1.178
-0.601 0.42 1.307
-0.948 0.672 2.107
-0.958 0.689 2.165
-0.97 0.708 2.231
-0.95 0.704 2.222
-0.936 0.704 2.228
-0.917 0.7 2.222
-0.894 0.693 2.204
-0.882 0.695 2.215
-0.894 0.715 2.286
-0.859 0.699 2.236
-0.86 0.711 2.283
-0.832 0.7 2.25
-0.757 0.647 2.084
-0.697 0.607 1.956
-0.669 0.592 1.912
-0.656 0.591 1.913
-0.642 0.59 1.912
-0.616 0.576 1.871
-0.586 0.558 1.816
-0.57 0.554 1.805
-0.557 0.552 1.801
-0.55 0.557 1.819
-0.536 0.553 1.811
-0.526 0.555 1.818
-0.514 0.553 1.817
-0.502 0.553 1.817
-0.493 0.555 1.828
-0.488 0.562 1.853
-0.477 0.562 1.858
-0.467 0.564 1.865
-0.476 0.589 1.952
-0.506 0.642 2.132
-0.525 0.683 2.273
-0.512 0.685 2.28
-0.504 0.692 2.309
-0.483 0.683 2.281
-0.478 0.695 2.325
-0.463 0.693 2.321
-0.443 0.683 2.289
-0.434 0.691 2.317
-0.42 0.691 2.319
-0.406 0.692 2.324
-0.392 0.692 2.326
-0.377 0.69 2.321
-0.361 0.685 2.309
-0.351 0.691 2.332
-0.338 0.695 2.344
-0.323 0.691 2.333
-0.306 0.684 2.312
-0.293 0.686 2.321
-0.279 0.686 2.323
-0.265 0.684 2.315
-0.251 0.684 2.319
-0.237 0.685 2.321
-0.223 0.681 2.311
-0.209 0.683 2.317
-0.196 0.684 2.322
-0.181 0.681 2.312
-0.168 0.683 2.322
-0.155 0.683 2.323
-0.141 0.683 2.324
-0.127 0.681 2.316
-0.114 0.684 2.328
-0.1 0.685 2.33
-0.086 0.681 2.318
-0.072 0.675 2.299
-0.058 0.675 2.297
-0.045 0.68 2.315
-0.031 0.682 2.324
-0.018 0.679 2.312
-0.004 0.676 2.303
0.009 0.678 2.308
0.022 0.681 2.319
0.036 0.68 2.316
0.05 0.685 2.334
0.063 0.678 2.31
0.077 0.681 2.318
0.09 0.678 2.309
0.104 0.679 2.311
0.119 0.686 2.334
0.131 0.681 2.317
0.146 0.684 2.325
0.159 0.683 2.322
0.173 0.685 2.327
0.187 0.685 2.328
0.203 0.691 2.348
0.213 0.681 2.312
0.229 0.686 2.328
0.244 0.69 2.34
0.257 0.688 2.331
0.27 0.686 2.325
0.284 0.686 2.323
0.299 0.689 2.331
0.314 0.693 2.343
0.326 0.688 2.324
0.342 0.694 2.342
0.355 0.692 2.334
0.366 0.686 2.312
0.381 0.689 2.319
0.395 0.688 2.315
0.407 0.686 2.305
0.424 0.692 2.322
0.44 0.695 2.331
0.453 0.693 2.322
0.467 0.693 2.319
0.479 0.69 2.308
0.498 0.697 2.329
0.509 0.693 2.313
0.527 0.699 2.33
0.544 0.703 2.341
0.555 0.698 2.322
0.573 0.703 2.335
0.585 0.701 2.325
0.607 0.711 2.354
0.619 0.709 2.343
0.633 0.708 2.337
0.648 0.709 2.336
0.669 0.716 2.358
0.699 0.732 2.408
0.704 0.722 2.371
0.71 0.715 2.341
0.734 0.723 2.366
0.746 0.721 2.354
0.767 0.727 2.371
0.779 0.725 2.36
0.794 0.725 2.355
0.808 0.725 2.35
0.837 0.738 2.389
0.848 0.735 2.373
0.852 0.725 2.337
0.878 0.735 2.364
0.906 0.746 2.395
0.915 0.741 2.373
0.917 0.731 2.336
0.936 0.734 2.342
0.967 0.747 2.378
0.971 0.739 2.346
0.997 0.747 2.366
1.022 0.754 2.385
1.013 0.737 2.323
1.023 0.734 2.307
1.061 0.75 2.352
1.091 0.76 2.38
1.07 0.736 2.297
1.108 0.751 2.34
1.101 0.737 2.288
1.138 0.751 2.327
1.161 0.756 2.336
1.188 0.764 2.354
1.201 0.762 2.342
1.214 0.761 2.331
1.189 0.736 2.249
1.217 0.744 2.266
1.277 0.772 2.343
1.257 0.75 2.271
1.291 0.761 2.298
1.291 0.753 2.264
1.359 0.783 2.349
1.362 0.776 2.319
-0.593 0.346 1.001
-0.589 0.347 1.009
-0.584 0.348 1.015
-0.582 0.351 1.027
-0.581 0.355 1.041
-0.572 0.354 1.041
-0.568 0.355 1.048
-0.56 0.355 1.051
-0.557 0.357 1.062
-0.549 0.357 1.063
-0.547 0.36 1.076
-0.546 0.364 1.091
-0.541 0.365 1.097
-0.542 0.371 1.119
-0.537 0.373 1.126
-0.542 0.381 1.155
-0.597 0.426 1.296
-0.945 0.684 2.097
-0.952 0.698 2.148
-0.949 0.707 2.179
-0.929 0.702 2.169
-0.917 0.703 2.179
-0.908 0.707 2.195
-0.892 0.706 2.196
-0.883 0.71 2.214
-0.857 0.699 2.186
-0.846 0.702 2.199
-0.829 0.699 2.196
-0.811 0.696 2.188
-0.748 0.653 2.056
-0.731 0.649 2.049
-0.684 0.618 1.955
-0.666 0.613 1.941
-0.651 0.61 1.935
-0.612 0.584 1.855
-0.597 0.58 1.847
-0.566 0.561 1.789
-0.557 0.563 1.797
-0.545 0.562 1.798
-0.535 0.563 1.804
-0.527 0.566 1.818
-0.514 0.565 1.816
-0.509 0.572 1.841
-0.496 0.57 1.838
-0.488 0.574 1.852
-0.479 0.576 1.863
-0.466 0.574 1.857
-0.477 0.602 1.953
-0.519 0.672 2.184
-0.511 0.679 2.211
-0.512 0.698 2.276
-0.496 0.695 2.269
-0.484 0.698 2.281
-0.471 0.699 2.286
-0.454 0.693 2.27
-0.447 0.705 2.311
-0.434 0.705 2.314
-0.416 0.699 2.296
-0.403 0.699 2.299
-0.387 0.696 2.291
-0.374 0.697 2.298
-0.36 0.696 2.296
-0.345 0.693 2.288
-0.331 0.693 2.289
-0.316 0.691 2.283
-0.302 0.688 2.275
-0.29 0.692 2.291
-0.275 0.69 2.286
-0.261 0.688 2.279
-0.249 0.694 2.3
-0.235 0.692 2.297
-0.222 0.692 2.299
-0.207 0.688 2.285
-0.194 0.689 2.291
-0.18 0.688 2.287
-0.167 0.692 2.3
-0.152 0.686 2.283
-0.139 0.685 2.28
-0.126 0.688 2.291
-0.112 0.689 2.294
-0.097 0.677 2.256
-0.085 0.688 2.292
-0.071 0.681 2.269
-0.058 0.685 2.283
-0.045 0.687 2.291
-0.031 0.681 2.271
-0.018 0.684 2.281
-0.004 0.689 2.296
0.008 0.691 2.303
0.022 0.686 2.287
0.036 0.688 2.295
0.049 0.692 2.305
0.062 0.686 2.288
0.076 0.689 2.297
0.09 0.694 2.312
0.103 0.69 2.298
0.117 0.69 2.298
0.131 0.693 2.307
0.145 0.694 2.311
0.159 0.694 2.31
0.171 0.688 2.29
0.185 0.692 2.3
0.199 0.694 2.307
0.213 0.695 2.309
0.227 0.694 2.304
0.241 0.696 2.31
0.255 0.697 2.313
0.269 0.697 2.31
0.283 0.697 2.31
0.295 0.694 2.296
0.31 0.698 2.308
0.324 0.699 2.311
0.337 0.697 2.302
0.351 0.697 2.3
0.363 0.695 2.292
0.382 0.703 2.318
0.392 0.697 2.296
0.405 0.696 2.288
0.421 0.7 2.301
0.433 0.698 2.29
0.448 0.7 2.294
0.463 0.701 2.295
0.476 0.7 2.289
0.494 0.706 2.306
0.505 0.702 2.293
0.52 0.703 2.294
0.542 0.715 2.329
0.551 0.707 2.301
0.568 0.712 2.313
0.579 0.709 2.299
0.589 0.704 2.281
0.607 0.708 2.291
0.623 0.711 2.295
0.642 0.716 2.311
0.659 0.719 2.317
0.676 0.723 2.326
0.688 0.72 2.312
0.7 0.718 2.301
0.722 0.727 2.325
0.735 0.725 2.315
0.748 0.724 2.309
0.759 0.72 2.294
0.776 0.723 2.298
0.784 0.718 2.278
0.809 0.728 2.304
0.838 0.74 2.34
0.83 0.721 2.273
0.849 0.725 2.282
0.884 0.742 2.332
0.892 0.737 2.311
0.897 0.73 2.282
0.935 0.748 2.334
0.941 0.741 2.308
0.958 0.743 2.309
0.971 0.742 2.301
0.994 0.748 2.314
0.992 0.736 2.271
1.019 0.745 2.293
1.035 0.746 2.292
1.04 0.74 2.265
1.052 0.738 2.254
1.084 0.75 2.285
1.097 0.749 2.275
1.134 0.763 2.314
1.159 0.77 2.327
1.164 0.764 2.302
1.194 0.773 2.324
1.192 0.762 2.284
1.2 0.758 2.266
1.24 0.774 2.305
1.242 0.766 2.274
1.261 0.768 2.273
1.294 0.778 2.298
1.279 0.761 2.239
1.333 0.784 2.3
1.341 0.779 2.279
-0.592 0.352 0.997
-0.591 0.355 1.01
-0.582 0.354 1.01
-0.58 0.357 1.021
-0.575 0.358 1.028
-0.569 0.359 1.033
-0.568 0.363 1.048
-0.564 0.364 1.056
-0.558 0.365 1.062
-0.549 0.364 1.06
-0.545 0.366 1.07
-0.542 0.368 1.08
-0.539 0.371 1.092
-0.533 0.373 1.099
-0.534 0.378 1.119
-0.536 0.384 1.14
-0.548 0.399 1.186
-0.702 0.518 1.55
-0.936 0.7 2.109
-0.939 0.713 2.152
-0.897 0.691 2.09
-0.862 0.674 2.044
-0.854 0.678 2.061
-0.843 0.68 2.071
-0.864 0.708 2.162
-0.842 0.701 2.145
-0.837 0.708 2.17
-0.805 0.692 2.126
-0.796 0.696 2.142
-0.738 0.657 2.025
-0.738 0.668 2.065
-0.697 0.642 1.987
-0.667 0.626 1.94
-0.635 0.606 1.883
-0.619 0.603 1.874
-0.596 0.591 1.842
-0.572 0.578 1.805
-0.559 0.576 1.801
-0.548 0.576 1.805
-0.538 0.578 1.811
-0.526 0.577 1.813
-0.517 0.579 1.822
-0.507 0.581 1.83
-0.498 0.583 1.84
-0.489 0.585 1.85
-0.478 0.586 1.855
-0.468 0.587 1.861
-0.475 0.611 1.939
-0.521 0.687 2.187
-0.503 0.681 2.172
-0.503 0.7 2.233
-0.489 0.699 2.233
-0.483 0.71 2.27
-0.459 0.694 2.222
-0.445 0.693 2.222
-0.434 0.697 2.237
-0.419 0.694 2.231
-0.407 0.698 2.243
-0.396 0.702 2.26
-0.381 0.698 2.247
-0.366 0.695 2.241
-0.351 0.693 2.235
-0.345 0.708 2.287
-0.327 0.699 2.26
-0.314 0.7 2.264
-0.298 0.692 2.242
-0.286 0.696 2.256
-0.272 0.694 2.251
-0.259 0.697 2.261
-0.247 0.702 2.278
-0.231 0.692 2.248
-0.219 0.696 2.263
-0.207 0.701 2.28
-0.192 0.698 2.27
-0.179 0.697 2.268
-0.165 0.694 2.26
-0.151 0.694 2.26
-0.138 0.694 2.261
-0.124 0.692 2.257
-0.111 0.695 2.264
-0.097 0.688 2.244
-0.085 0.697 2.273
-0.071 0.699 2.282
-0.058 0.697 2.274
-0.044 0.689 2.247
-0.031 0.697 2.276
-0.017 0.695 2.27
-0.004 0.695 2.267
0.008 0.699 2.281
0.022 0.694 2.265
0.035 0.696 2.272
0.048 0.695 2.267
0.062 0.693 2.261
0.076 0.697 2.274
0.089 0.697 2.274
0.102 0.698 2.276
0.117 0.703 2.292
0.13 0.701 2.286
0.144 0.704 2.293
0.157 0.702 2.288
0.171 0.703 2.288
0.186 0.709 2.308
0.198 0.702 2.285
0.211 0.702 2.283
0.225 0.702 2.283
0.238 0.7 2.274
0.253 0.704 2.286
0.268 0.708 2.297
0.281 0.706 2.29
0.293 0.703 2.278
0.305 0.7 2.268
0.321 0.706 2.284
0.335 0.706 2.282
0.346 0.702 2.268
0.363 0.707 2.283
0.376 0.706 2.278
0.391 0.709 2.286
0.407 0.713 2.297
0.421 0.713 2.295
0.43 0.707 2.271
0.443 0.705 2.262
0.458 0.708 2.27
0.47 0.705 2.259
0.49 0.714 2.284
0.501 0.71 2.27
0.516 0.712 2.272
0.532 0.715 2.28
0.546 0.715 2.277
0.554 0.708 2.252
0.571 0.713 2.263
0.592 0.721 2.288
0.607 0.722 2.288
0.614 0.714 2.259
0.627 0.714 2.254
0.647 0.721 2.272
0.663 0.723 2.277
0.685 0.732 2.3
0.687 0.719 2.257
0.712 0.73 2.287
0.718 0.722 2.259
0.741 0.731 2.282
0.751 0.727 2.266
0.762 0.724 2.252
0.791 0.739 2.294
0.803 0.737 2.283
0.808 0.728 2.252
0.824 0.729 2.252
0.854 0.743 2.29
0.868 0.744 2.286
0.881 0.742 2.277
0.894 0.741 2.269
0.914 0.746 2.28
0.927 0.745 2.271
0.939 0.743 2.261
0.945 0.737 2.236
0.972 0.747 2.26
0.989 0.749 2.261
0.999 0.745 2.245
1.006 0.74 2.223
1.027 0.744 2.231
1.051 0.752 2.248
1.059 0.747 2.227
1.048 0.73 2.169
1.115 0.766 2.271
1.102 0.747 2.21
1.144 0.765 2.257
1.15 0.76 2.235
1.162 0.758 2.223
1.185 0.763 2.232
1.212 0.771 2.248
1.246 0.783 2.278
1.222 0.759 2.2
1.242 0.762 2.202
1.277 0.775 2.231
1.31 0.785 2.255
1.302 0.772 2.208
-0.592 0.359 0.995
-0.584 0.358 0.997
-0.583 0.361 1.01
-0.578 0.363 1.016
-0.573 0.364 1.022
-0.569 0.366 1.032
-0.566 0.368 1.042
-0.561 0.37 1.048
-0.556 0.371 1.055
-0.552 0.373 1.064
-0.542 0.371 1.061
-0.542 0.376 1.079
-0.536 0.376 1.083
-0.534 0.38 1.097
-0.533 0.384 1.113
-0.535 0.391 1.137
-0.535 0.397 1.155
-0.588 0.442 1.293
-0.869 0.663 1.953
-0.883 0.683 2.018
-0.86 0.676 2
-0.889 0.709 2.104
-0.88 0.712 2.119
-0.824 0.677 2.019
-0.814 0.679 2.03
-0.813 0.69 2.067
-0.792 0.683 2.051
-0.784 0.687 2.066
-0.783 0.698 2.104
-0.717 0.65 1.962
-0.746 0.688 2.083
-0.692 0.65 1.968
-0.661 0.632 1.917
-0.647 0.63 1.917
-0.606 0.601 1.83
-0.589 0.595 1.815
-0.568 0.586 1.79
-0.558 0.587 1.796
-0.548 0.588 1.802
-0.538 0.589 1.809
-0.526 0.588 1.809
-0.519 0.593 1.826
-0.51 0.595 1.837
-0.499 0.595 1.84
-0.488 0.595 1.843
-0.478 0.597 1.851
-0.466 0.596 1.851
-0.463 0.608 1.889
-0.503 0.677 2.11
-0.482 0.666 2.078
-0.494 0.701 2.189
-0.484 0.705 2.204
-0.469 0.703 2.202
-0.456 0.704 2.206
-0.442 0.702 2.203
-0.429 0.702 2.205
-0.419 0.708 2.229
-0.405 0.706 2.224
-0.389 0.702 2.214
-0.378 0.707 2.23
-0.361 0.699 2.206
-0.347 0.698 2.207
-0.334 0.697 2.205
-0.319 0.695 2.2
-0.311 0.705 2.235
-0.295 0.7 2.221
-0.281 0.697 2.211
-0.268 0.698 2.215
-0.255 0.699 2.22
-0.242 0.698 2.22
-0.229 0.701 2.231
-0.216 0.701 2.231
-0.203 0.703 2.238
-0.189 0.7 2.231
-0.177 0.702 2.237
-0.161 0.693 2.21
-0.149 0.698 2.225
-0.136 0.697 2.225
-0.123 0.697 2.226
-0.11 0.7 2.235
-0.096 0.697 2.224
-0.083 0.696 2.222
-0.07 0.696 2.223
-0.057 0.699 2.235
-0.043 0.695 2.223
-0.03 0.698 2.229
-0.017 0.695 2.22
-0.004 0.698 2.232
0.008 0.702 2.243
0.021 0.696 2.225
0.034 0.696 2.226
0.048 0.702 2.242
0.061 0.7 2.238
0.075 0.705 2.252
0.088 0.701 2.239
0.101 0.704 2.249
0.115 0.706 2.253
0.128 0.705 2.25
0.141 0.704 2.247
0.154 0.703 2.242
0.169 0.709 2.26
0.182 0.709 2.26
0.194 0.703 2.239
0.209 0.709 2.259
0.222 0.708 2.254
0.234 0.704 2.239
0.249 0.709 2.253
0.262 0.706 2.244
0.276 0.708 2.249
0.29 0.71 2.253
0.301 0.703 2.23
0.316 0.708 2.244
0.33 0.709 2.246
0.342 0.705 2.232
0.358 0.711 2.247
0.369 0.708 2.235
0.39 0.721 2.277
0.399 0.712 2.246
0.416 0.718 2.263
0.428 0.716 2.253
0.44 0.714 2.244
0.455 0.716 2.248
0.473 0.723 2.267
0.484 0.719 2.252
0.497 0.718 2.247
0.517 0.727 2.272
0.524 0.718 2.242
0.538 0.718 2.24
0.552 0.72 2.241
0.569 0.724 2.252
0.575 0.714 2.217
0.597 0.725 2.248
0.609 0.723 2.238
0.634 0.735 2.275
0.643 0.73 2.255
0.651 0.723 2.23
0.672 0.731 2.251
0.682 0.728 2.236
0.695 0.727 2.23
0.713 0.731 2.238
0.723 0.727 2.222
0.733 0.723 2.208
0.757 0.734 2.234
0.765 0.728 2.212
0.801 0.749 2.272
0.799 0.734 2.222
0.828 0.747 2.26
0.836 0.742 2.239
0.842 0.735 2.213
0.858 0.737 2.213
0.869 0.735 2.202
0.882 0.734 2.194
0.903 0.74 2.208
0.93 0.751 2.235
0.937 0.744 2.211
0.948 0.742 2.2
0.964 0.744 2.199
0.97 0.737 2.175
1.012 0.758 2.231
1.005 0.743 2.18
1.017 0.742 2.171
1.037 0.746 2.177
1.04 0.738 2.147
1.081 0.757 2.197
1.08 0.746 2.161
1.116 0.761 2.197
1.119 0.753 2.169
1.135 0.755 2.167
1.183 0.776 2.223
1.216 0.789 2.251
1.188 0.761 2.166
1.177 0.745 2.113
1.221 0.764 2.161
1.254 0.776 2.187
1.232 0.753 2.116
1.263 0.763 2.137
-0.588 0.363 0.986
-0.587 0.367 0.999
-0.58 0.367 1.003
-0.575 0.368 1.009
-0.571 0.37 1.018
-0.567 0.372 1.026
-0.564 0.374 1.037
-0.56 0.376 1.044
-0.552 0.375 1.045
-0.549 0.378 1.056
-0.543 0.379 1.062
-0.539 0.381 1.07
-0.536 0.384 1.082
-0.536 0.389 1.1
-0.534 0.392 1.113
-0.53 0.395 1.124
-0.536 0.405 1.156
-0.537 0.412 1.178
-0.733 0.57 1.642
-0.834 0.658 1.901
-0.862 0.69 2.001
-0.834 0.678 1.97
-0.831 0.685 1.997
-0.813 0.681 1.99
-0.79 0.672 1.967
-0.786 0.679 1.992
-0.772 0.679 1.995
-0.742 0.663 1.952
-0.746 0.677 1.999
-0.729 0.673 1.991
-0.728 0.684 2.027
-0.674 0.645 1.913
-0.658 0.641 1.905
-0.612 0.607 1.807
-0.609 0.615 1.836
-0.596 0.613 1.833
-0.57 0.599 1.793
-0.558 0.597 1.791
-0.549 0.599 1.8
-0.54 0.603 1.813
-0.531 0.605 1.822
-0.518 0.603 1.82
-0.508 0.604 1.826
-0.499 0.607 1.837
-0.489 0.608 1.844
-0.477 0.608 1.846
-0.471 0.615 1.869
-0.465 0.622 1.893
-0.468 0.642 1.959
-0.469 0.66 2.018
-0.482 0.696 2.13
-0.477 0.707 2.168
-0.465 0.71 2.178
-0.447 0.703 2.158
-0.437 0.707 2.173
-0.419 0.699 2.153
-0.408 0.703 2.166
-0.397 0.706 2.178
-0.385 0.707 2.185
-0.371 0.706 2.181
-0.361 0.713 2.205
-0.344 0.706 2.185
-0.333 0.709 2.196
-0.319 0.707 2.193
-0.307 0.709 2.201
-0.294 0.711 2.209
-0.279 0.705 2.192
-0.266 0.705 2.192
-0.251 0.701 2.181
-0.239 0.704 2.193
-0.228 0.709 2.208
-0.214 0.706 2.201
-0.202 0.712 2.22
-0.189 0.712 2.222
-0.174 0.704 2.198
-0.161 0.705 2.204
-0.147 0.701 2.189
-0.135 0.705 2.203
-0.12 0.694 2.17
-0.109 0.704 2.203
-0.095 0.702 2.195
-0.082 0.702 2.198
-0.069 0.699 2.189
-0.056 0.706 2.21
-0.043 0.701 2.193
-0.03 0.7 2.19
-0.017 0.703 2.203
-0.004 0.705 2.208
0.008 0.7 2.191
0.021 0.703 2.202
0.034 0.7 2.192
0.047 0.701 2.195
0.06 0.699 2.187
0.073 0.703 2.201
0.086 0.702 2.196
0.1 0.706 2.208
0.112 0.7 2.191
0.125 0.7 2.189
0.14 0.709 2.217
0.154 0.716 2.239
0.166 0.708 2.211
0.179 0.708 2.211
0.191 0.704 2.197
0.205 0.707 2.205
0.218 0.707 2.205
0.232 0.71 2.214
0.247 0.714 2.224
0.259 0.712 2.215
0.273 0.714 2.22
0.283 0.707 2.198
0.299 0.714 2.218
0.313 0.715 2.22
0.327 0.715 2.219
0.34 0.715 2.216
0.355 0.718 2.225
0.366 0.715 2.211
0.378 0.713 2.203
0.393 0.715 2.209
0.406 0.715 2.207
0.421 0.718 2.214
0.435 0.719 2.213
0.446 0.715 2.201
0.46 0.717 2.204
0.476 0.72 2.211
0.494 0.728 2.232
0.501 0.718 2.199
0.516 0.72 2.203
0.535 0.728 2.225
0.545 0.723 2.206
0.553 0.717 2.183
0.575 0.728 2.214
0.589 0.728 2.211
0.602 0.728 2.207
0.62 0.733 2.221
0.63 0.729 2.204
0.644 0.729 2.202
0.662 0.734 2.213
0.675 0.734 2.209
0.695 0.74 2.224
0.702 0.734 2.202
0.716 0.734 2.198
0.746 0.75 2.244
0.742 0.733 2.187
0.764 0.741 2.207
0.789 0.751 2.233
0.798 0.747 2.215
0.816 0.751 2.224
0.82 0.742 2.192
0.835 0.743 2.189
0.852 0.746 2.194
0.879 0.757 2.224
0.881 0.747 2.187
0.902 0.753 2.201
0.916 0.753 2.196
0.921 0.746 2.17
0.965 0.77 2.236
0.975 0.767 2.22
0.976 0.756 2.185
1.001 0.765 2.203
0.992 0.747 2.147
1.001 0.744 2.132
1.035 0.759 2.169
1.045 0.755 2.154
1.072 0.765 2.175
1.069 0.753 2.134
1.096 0.762 2.154
1.097 0.753 2.123
1.124 0.762 2.142
1.132 0.758 2.124
1.162 0.768 2.146
1.191 0.778 2.168
1.194 0.77 2.14
1.201 0.766 2.121
1.226 0.773 2.133
1.19 0.741 2.04
1.244 0.766 2.101
-0.588 0.37 0.985
-0.586 0.373 0.996
-0.574 0.37 0.99
-0.575 0.375 1.007
-0.572 0.377 1.016
-0.565 0.377 1.021
-0.563 0.38 1.032
-0.556 0.38 1.035
-0.554 0.384 1.048
-0.548 0.384 1.052
-0.542 0.385 1.058
-0.538 0.387 1.067
-0.535 0.39 1.078
-0.529 0.391 1.082
-0.531 0.398 1.105
-0.531 0.403 1.123
-0.528 0.407 1.137
-0.531 0.415 1.162
-0.567 0.449 1.263
-0.785 0.631 1.786
-0.846 0.69 1.959
-0.855 0.707 2.015
-0.827 0.695 1.983
-0.826 0.705 2.016
-0.8 0.693 1.988
-0.781 0.688 1.977
-0.776 0.695 2
-0.768 0.698 2.016
-0.739 0.684 1.979
-0.703 0.661 1.916
-0.686 0.657 1.906
-0.624 0.608 1.768
-0.641 0.636 1.853
-0.6 0.606 1.769
-0.598 0.616 1.801
-0.596 0.625 1.831
-0.576 0.616 1.807
-0.561 0.612 1.797
-0.551 0.614 1.806
-0.537 0.61 1.798
-0.531 0.616 1.818
-0.518 0.614 1.817
-0.514 0.622 1.843
-0.498 0.617 1.83
-0.495 0.627 1.864
-0.485 0.629 1.872
-0.472 0.627 1.869
-0.464 0.632 1.886
-0.452 0.631 1.887
-0.448 0.642 1.923
-0.471 0.693 2.078
-0.475 0.718 2.156
-0.465 0.723 2.174
-0.445 0.712 2.144
-0.43 0.709 2.138
-0.422 0.717 2.162
-0.401 0.703 2.123
-0.392 0.709 2.144
-0.38 0.712 2.155
-0.364 0.707 2.14
-0.352 0.708 2.146
-0.34 0.709 2.151
-0.333 0.722 2.193
-0.317 0.716 2.175
-0.303 0.713 2.17
-0.29 0.713 2.169
-0.276 0.712 2.168
-0.262 0.707 2.156
-0.252 0.717 2.188
-0.237 0.712 2.173
-0.225 0.715 2.183
-0.213 0.716 2.188
-0.198 0.71 2.172
-0.184 0.705 2.156
-0.172 0.709 2.169
-0.159 0.71 2.174
-0.146 0.71 2.173
-0.133 0.707 2.166
-0.12 0.71 2.177
-0.107 0.704 2.159
-0.094 0.707 2.169
-0.081 0.704 2.16
-0.068 0.704 2.158
-0.055 0.703 2.157
-0.043 0.709 2.176
-0.03 0.706 2.166
-0.017 0.71 2.177
-0.004 0.712 2.185
0.008 0.71 2.178
0.021 0.708 2.172
0.034 0.708 2.172
0.047 0.712 2.185
0.06 0.709 2.174
0.073 0.712 2.183
0.086 0.711 2.181
0.099 0.713 2.186
0.111 0.71 2.177
0.125 0.713 2.185
0.138 0.712 2.18
0.151 0.713 2.184
0.164 0.713 2.184
0.176 0.71 2.173
0.189 0.71 2.171
0.203 0.714 2.183
0.216 0.713 2.178
0.229 0.713 2.176
0.241 0.711 2.169
0.255 0.714 2.178
0.268 0.714 2.177
0.284 0.721 2.196
0.293 0.712 2.167
0.306 0.712 2.165
0.321 0.717 2.178
0.337 0.723 2.196
0.348 0.718 2.178
0.364 0.725 2.198
0.372 0.715 2.165
0.387 0.718 2.172
0.402 0.722 2.183
0.413 0.717 2.165
0.428 0.72 2.174
0.441 0.721 2.174
0.455 0.722 2.175
0.469 0.723 2.175
0.486 0.729 2.191
0.495 0.724 2.171
0.509 0.724 2.17
0.525 0.728 2.179
0.538 0.727 2.174
0.547 0.723 2.157
0.562 0.725 2.161
0.576 0.726 2.16
0.602 0.742 2.204
0.61 0.735 2.18
0.626 0.738 2.186
0.63 0.727 2.151
0.654 0.739 2.183
0.667 0.739 2.178
0.673 0.731 2.151
0.69 0.734 2.158
0.707 0.739 2.167
0.716 0.734 2.149
0.74 0.745 2.177
0.75 0.74 2.161
0.757 0.734 2.139
0.787 0.75 2.181
0.785 0.736 2.136
0.809 0.745 2.157
0.811 0.736 2.124
0.836 0.746 2.149
0.844 0.741 2.13
0.851 0.735 2.109
0.884 0.752 2.153
0.903 0.756 2.159
0.923 0.761 2.17
0.906 0.737 2.094
0.934 0.748 2.122
0.941 0.742 2.101
0.968 0.753 2.127
0.986 0.757 2.131
0.991 0.75 2.105
1.004 0.749 2.099
1.039 0.765 2.137
1.03 0.749 2.086
1.067 0.765 2.126
1.061 0.751 2.08
1.085 0.758 2.095
1.105 0.763 2.101
1.137 0.775 2.129
1.139 0.767 2.1
1.17 0.778 2.124
1.185 0.779 2.12
1.182 0.768 2.083
1.193 0.766 2.071
1.189 0.754 2.033
1.236 0.775 2.084
-0.588 0.376 0.982
-0.583 0.378 0.989
-0.577 0.378 0.993
-0.577 0.382 1.007
-0.567 0.381 1.006
-0.566 0.384 1.019
-0.56 0.385 1.024
-0.555 0.386 1.03
-0.551 0.388 1.039
-0.546 0.39 1.046
-0.539 0.39 1.049
-0.538 0.394 1.064
-0.53 0.394 1.066
-0.529 0.398 1.081
-0.529 0.403 1.098
-0.522 0.404 1.102
-0.523 0.41 1.122
-0.526 0.418 1.148
-0.539 0.434 1.197
-0.702 0.574 1.592
-0.817 0.678 1.887
-0.813 0.685 1.911
-0.816 0.698 1.954
-0.803 0.697 1.956
-0.794 0.701 1.969
-0.772 0.692 1.95
-0.771 0.703 1.985
-0.77 0.714 2.019
-0.749 0.705 2
-0.74 0.71 2.016
-0.655 0.639 1.817
-0.643 0.638 1.818
-0.644 0.651 1.858
-0.614 0.632 1.808
-0.611 0.641 1.837
-0.592 0.632 1.814
-0.577 0.628 1.806
-0.559 0.621 1.788
-0.561 0.636 1.835
-0.543 0.629 1.817
-0.532 0.629 1.82
-0.533 0.643 1.865
-0.519 0.641 1.861
-0.508 0.641 1.864
-0.498 0.643 1.872
-0.488 0.645 1.882
-0.475 0.642 1.877
-0.464 0.643 1.881
-0.459 0.653 1.914
-0.459 0.669 1.963
-0.46 0.689 2.024
-0.424 0.653 1.921
-0.434 0.687 2.023
-0.434 0.708 2.088
-0.423 0.71 2.097
-0.414 0.717 2.119
-0.405 0.723 2.139
-0.39 0.719 2.132
-0.377 0.719 2.134
-0.365 0.721 2.142
-0.349 0.714 2.121
-0.337 0.717 2.132
-0.325 0.717 2.134
-0.31 0.714 2.127
-0.297 0.712 2.124
-0.285 0.714 2.131
-0.274 0.718 2.144
-0.262 0.722 2.157
-0.248 0.717 2.143
-0.234 0.713 2.134
-0.223 0.72 2.154
-0.208 0.714 2.137
-0.195 0.712 2.134
-0.183 0.715 2.144
-0.17 0.714 2.141
-0.156 0.709 2.128
-0.144 0.713 2.141
-0.131 0.71 2.131
-0.119 0.715 2.146
-0.107 0.718 2.157
-0.093 0.712 2.141
-0.08 0.709 2.131
-0.068 0.713 2.142
-0.055 0.711 2.139
-0.042 0.707 2.125
-0.03 0.718 2.159
-0.017 0.712 2.14
-0.004 0.714 2.148
0.008 0.715 2.15
0.021 0.715 2.152
0.033 0.716 2.152
0.046 0.711 2.139
0.059 0.716 2.153
0.072 0.718 2.158
0.085 0.717 2.155
0.099 0.725 2.178
0.11 0.716 2.153
0.123 0.716 2.151
0.136 0.717 2.153
0.15 0.722 2.166
0.162 0.716 2.15
0.175 0.719 2.156
0.188 0.718 2.153
0.203 0.726 2.176
0.213 0.718 2.151
0.229 0.729 2.181
0.241 0.723 2.164
0.254 0.723 2.163
0.266 0.721 2.154
0.279 0.722 2.155
0.293 0.726 2.165
0.306 0.724 2.159
0.317 0.719 2.143
0.332 0.725 2.159
0.346 0.727 2.163
0.357 0.723 2.149
0.368 0.72 2.139
0.383 0.724 2.147
0.395 0.722 2.141
0.409 0.724 2.144
0.423 0.726 2.146
0.44 0.732 2.164
0.451 0.73 2.153
0.461 0.724 2.134
0.475 0.726 2.139
0.49 0.728 2.141
0.502 0.727 2.134
0.516 0.729 2.138
0.531 0.732 2.144
0.548 0.736 2.155
0.56 0.735 2.148
0.568 0.729 2.126
0.585 0.734 2.137
0.602 0.739 2.148
0.608 0.73 2.12
0.622 0.731 2.118
0.636 0.732 2.12
0.656 0.739 2.137
0.661 0.731 2.109
0.68 0.737 2.124
0.699 0.743 2.136
0.712 0.743 2.131
0.72 0.738 2.114
0.74 0.744 2.128
0.75 0.741 2.114
0.772 0.75 2.136
0.782 0.746 2.122
0.804 0.755 2.141
0.803 0.742 2.099
0.82 0.744 2.103
0.843 0.753 2.122
0.845 0.744 2.091
0.876 0.759 2.13
0.891 0.76 2.127
0.897 0.753 2.105
0.902 0.747 2.08
0.927 0.756 2.101
0.936 0.752 2.085
0.971 0.769 2.128
0.977 0.763 2.107
0.985 0.759 2.088
0.99 0.752 2.065
1.016 0.762 2.086
1.026 0.759 2.072
1.048 0.766 2.085
1.055 0.761 2.065
1.077 0.766 2.075
1.099 0.772 2.085
1.121 0.778 2.094
1.137 0.78 2.093
1.145 0.776 2.076
1.162 0.777 2.073
1.156 0.764 2.032
1.184 0.774 2.051
1.18 0.762 2.013
1.211 0.773 2.036
-0.586 0.382 0.976
-0.582 0.384 0.984
-0.576 0.384 0.988
-0.572 0.386 0.997
-0.567 0.387 1.003
-0.563 0.389 1.011
-0.559 0.391 1.02
-0.552 0.391 1.024
-0.551 0.395 1.037
-0.546 0.397 1.045
-0.539 0.397 1.047
-0.536 0.399 1.057
-0.531 0.401 1.064
-0.527 0.404 1.075
-0.525 0.408 1.089
-0.519 0.408 1.093
-0.519 0.414 1.112
-0.521 0.422 1.136
-0.527 0.433 1.169
-0.625 0.521 1.414
-0.792 0.669 1.825
-0.798 0.685 1.873
-0.796 0.694 1.902
-0.781 0.69 1.898
-0.784 0.704 1.94
-0.772 0.705 1.947
-0.777 0.721 1.996
-0.752 0.709 1.967
-0.738 0.708 1.968
-0.707 0.69 1.92
-0.656 0.651 1.815
-0.643 0.649 1.813
-0.633 0.651 1.821
-0.62 0.649 1.821
-0.613 0.654 1.837
-0.601 0.654 1.84
-0.587 0.65 1.834
-0.574 0.65 1.835
-0.571 0.659 1.865
-0.553 0.651 1.846
-0.541 0.65 1.846
-0.527 0.648 1.841
-0.521 0.654 1.862
-0.509 0.653 1.863
-0.498 0.654 1.868
-0.49 0.659 1.884
-0.481 0.662 1.897
-0.467 0.659 1.89
-0.444 0.643 1.847
-0.394 0.585 1.68
-0.376 0.573 1.647
-0.367 0.575 1.656
-0.374 0.603 1.74
-0.391 0.648 1.874
-0.421 0.719 2.081
-0.404 0.712 2.063
-0.392 0.713 2.068
-0.382 0.718 2.086
-0.37 0.718 2.087
-0.356 0.715 2.08
-0.349 0.728 2.122
-0.334 0.723 2.107
-0.32 0.719 2.1
-0.305 0.715 2.087
-0.293 0.715 2.089
-0.282 0.719 2.103
-0.268 0.716 2.096
-0.258 0.724 2.121
-0.245 0.722 2.116
-0.232 0.722 2.119
-0.219 0.719 2.11
-0.208 0.727 2.134
-0.193 0.717 2.107
-0.181 0.72 2.116
-0.169 0.721 2.121
-0.155 0.714 2.102
-0.142 0.714 2.101
-0.13 0.72 2.12
-0.117 0.714 2.104
-0.104 0.713 2.1
-0.092 0.718 2.114
-0.08 0.721 2.125
-0.067 0.716 2.112
-0.055 0.724 2.135
-0.042 0.717 2.113
-0.029 0.722 2.129
-0.017 0.719 2.121
-0.004 0.712 2.1
0.008 0.722 2.13
0.02 0.725 2.138
0.033 0.721 2.127
0.046 0.721 2.127
0.058 0.719 2.121
0.071 0.725 2.138
0.084 0.723 2.13
0.097 0.723 2.13
0.109 0.723 2.13
0.122 0.721 2.123
0.136 0.728 2.143
0.148 0.727 2.14
0.16 0.724 2.129
0.173 0.722 2.124
0.184 0.718 2.109
0.2 0.728 2.139
0.213 0.729 2.141
0.224 0.726 2.13
0.239 0.731 2.145
0.249 0.724 2.122
0.261 0.721 2.113
0.276 0.727 2.127
0.287 0.724 2.118
0.301 0.727 2.124
0.311 0.719 2.1
0.329 0.731 2.135
0.343 0.733 2.138
0.353 0.728 2.123
0.367 0.731 2.128
0.379 0.729 2.121
0.387 0.72 2.091
0.41 0.739 2.146
0.419 0.731 2.12
0.431 0.731 2.118
0.443 0.728 2.107
0.463 0.74 2.14
0.475 0.738 2.131
0.487 0.738 2.128
0.497 0.733 2.112
0.51 0.733 2.109
0.526 0.737 2.117
0.533 0.729 2.092
0.553 0.74 2.118
0.568 0.742 2.122
0.585 0.747 2.134
0.588 0.735 2.095
0.611 0.746 2.124
0.606 0.726 2.062
0.633 0.741 2.104
0.648 0.744 2.107
0.657 0.739 2.091
0.678 0.748 2.112
0.677 0.733 2.065
0.705 0.749 2.107
0.712 0.743 2.087
0.737 0.755 2.116
0.745 0.749 2.096
0.763 0.755 2.108
0.772 0.75 2.09
0.789 0.754 2.097
0.796 0.748 2.075
0.808 0.747 2.067
0.824 0.75 2.072
0.838 0.75 2.068
0.864 0.762 2.097
0.874 0.758 2.082
0.867 0.742 2.031
0.901 0.759 2.073
0.916 0.761 2.073
0.94 0.769 2.091
0.929 0.75 2.032
0.947 0.753 2.036
0.968 0.759 2.048
0.995 0.77 2.071
0.987 0.753 2.021
1.026 0.773 2.068
1.03 0.766 2.044
1.051 0.772 2.054
1.049 0.76 2.016
1.072 0.767 2.03
1.074 0.759 2.001
1.09 0.761 2.001
1.14 0.786 2.062
1.149 0.783 2.047
1.174 0.79 2.059
1.161 0.772 2.006
1.178 0.775 2.006
1.229 0.799 2.063
-0.585 0.388 0.973
-0.579 0.389 0.978
-0.575 0.391 0.986
-0.57 0.391 0.991
-0.57 0.396 1.006
-0.56 0.394 1.005
-0.555 0.395 1.011
-0.55 0.397 1.017
-0.548 0.4 1.028
-0.542 0.401 1.035
-0.541 0.405 1.049
-0.535 0.406 1.053
-0.531 0.409 1.064
-0.527 0.41 1.071
-0.525 0.414 1.085
-0.518 0.415 1.089
-0.517 0.42 1.105
-0.517 0.426 1.125
-0.521 0.435 1.152
-0.557 0.472 1.255
-0.752 0.647 1.73
-0.786 0.687 1.841
-0.772 0.684 1.84
-0.756 0.68 1.833
-0.766 0.7 1.891
-0.773 0.718 1.945
-0.746 0.704 1.91
-0.743 0.713 1.94
-0.739 0.721 1.965
-0.678 0.674 1.838
-0.663 0.669 1.83
-0.637 0.655 1.795
-0.626 0.656 1.8
-0.621 0.662 1.822
-0.603 0.655 1.805
-0.599 0.663 1.829
-0.586 0.661 1.829
-0.579 0.667 1.847
-0.565 0.663 1.841
-0.557 0.667 1.856
-0.532 0.651 1.811
-0.538 0.673 1.876
-0.519 0.663 1.852
-0.509 0.665 1.859
-0.464 0.621 1.737
-0.481 0.658 1.845
-0.479 0.671 1.884
-0.467 0.67 1.886
-0.433 0.638 1.797
-0.385 0.582 1.64
-0.37 0.574 1.618
-0.383 0.61 1.723
-0.363 0.595 1.683
-0.38 0.641 1.816
-0.408 0.71 2.015
-0.394 0.706 2.006
-0.39 0.722 2.054
-0.377 0.719 2.05
-0.366 0.723 2.062
-0.352 0.719 2.053
-0.342 0.724 2.069
-0.329 0.724 2.069
-0.315 0.721 2.063
-0.303 0.723 2.071
-0.291 0.723 2.071
