# .PCD v0.7 - Point Cloud Data file format
VERSION 0.7
FIELDS x y z
SIZE 4 4 4
TYPE F F F
COUNT 1 1 1
WIDTH 1986
HEIGHT 1
VIEWPOINT 0 0 0 1 0 0 0
POINTS 1986
DATA ascii
899.11658 150 1161.1794
192.56921 125 160.75967
109.48685 150 709.93768
548.54657 125 974.7345
937.45605 125 311.3606
474.88342 150 375.21307
981.83911 150 14.776039
1000 30.573063 847.81714
62.093666 35.000004 785.12634
21.553396 125 315.83438
0 134.35834 758.7428
1000 32.263287 1087.2211
943.20886 35.000004 820.82983
56.87838 35.000004 276.13486
580.66949 125 78.141571
894.591 150 564.79889
882.96808 150 142.60478
620.36108 125 210.8024
99.999992 29.616165 917.67188
990.66382 150 541.09735
723.22461 125 27.740795
875.401 150 997.32837
900 14.260738 223.23772
821.47437 125 835.53467
117.53267 150 722.56482
1000 149.98549 950.75195
440 106.53634 1107.9407
926.87665 150 1155.1271
57.937084 150 755.65063
183.75427 125 41.190067
340.1745 150 228.38631
446.65662 150 358.28369
624.03113 125 85.570511
921.20599 0 81.025482
0 34.144573 942.01239
456.20599 0 487.2312
959.08887 33.414631 0
296.02939 150 265.85754
768.11218 150 360.37424
440 82.389389 677.09717
385.96228 125 319.2561
539.34778 150 525.42328
529.24207 150 563.5694
198.13533 125 591.73627
452.75656 51.607609 1020
890.22412 150 58.13427
426.10599 125 719.38892
931.5282 35.000004 376.96921
1000 13.68853 247.59476
946.16736 0 530.5061
277.37863 150 177.69505
425.40479 150 1189.4065
47.609058 77.169403 500
440 13.479257 358.16217
51.013527 35.000004 967.82947
900 121.40355 514.00287
444.33542 150 123.87414
553.59711 0 366.25342
647.26508 125 1002.9773
99.999985 11.649496 351.55853
554.83301 125 741.5459
866.06061 150 777.25623
592.06396 125 266.73087
540.79193 0 367.65015
677.23224 150 380.3172
487.04532 150 771.39777
822.37463 125 902.52545
245.56392 150 729.98608
936.474 150 963.12646
487.84293 0 1052.1943
341.34256 125 175.164
274.38953 150 336.91428
601.72711 150 18.787193
355.00299 125 1145.6112
986.01135 96.889366 0
165.0824 150 1154.6648
876.41138 150 298.06229
986.15601 150 498.59174
0 132.1299 256.8804
591.58734 150 1058.4436
725.94116 150 230.55975
37.26329 116.62859 700
157.32054 150 1056.5448
668.70026 125 361.94531
433.10748 125 19.113176
560 106.47593 1140.8594
500.86295 0 1132.8811
736.20325 125 776.93622
798.68591 125 575.2229
26.392366 150 407.18866
715.23853 150 1173.3881
681.81689 150 1017.2028
977.54858 0 1142.4324
296.65781 150 27.750063
337.09671 125 524.72876
936.60236 35.000004 894.7049
99.999992 34.134972 739.04462
40.743114 125 231.52112
1000 15.995604 585.07349
357.35519 150 192.19836
560 19.801384 1057.0181
62.016518 52.944271 1020
639.3219 125 796.23425
381.97443 125 332.10315
0 140.43185 638.81836
700.6322 129.29485 1200
482.35468 150 1195.16
166.10495 125 507.01929
503.27875 118.76109 700
100 20.648542 271.76935
863.44916 150 185.45778
977.71033 0 556.48376
674.27802 150 1199.2098
350.84729 125.00001 162.56274
510.11304 35.000004 800.86816
990.7793 0 844.43665
441.5889 0 628.76996
32.811539 150 331.76166
481.21527 0 1165.7021
1000 131.27443 180.51891
99.999992 39.202522 157.52596
239.92424 125 631.51776
507.0043 66.724167 700
440 34.859116 79.337654
0 134.34143 989.27832
474.0307 0 361.16138
543.26471 150 170.00784
602.52557 150 1041.4619
560 10.740223 825.63098
179.88036 125 1173.3926
379.7652 124.99999 2.485116
596.85309 150 256.28622
834.66553 125 292.40137
497.88123 0 684.41345
5.8310146 125 790.48151
166.3461 150 867.68304
862.74683 125 472.03906
45.468784 0 1034.6113
813.47797 124.99999 244.58337
560 14.913043 749.776
728.11505 125 145.75876
519.16394 150 1038.0908
667.04297 150 1121.147
488.71017 150 236.26549
192.44453 125 184.4935
1000 51.041416 627.43372
900 44.557549 568.2395
592.07721 150 1022.0299
424.42957 150 298.41449
742.88782 125 896.21826
23.05739 150 292.43896
99.999992 103.29339 122.6257
112.80882 150 1065.373
518.93781 150 433.53998
381.48648 125 625.92505
917.38318 35.000004 425.9389
4.0251508 150 344.45743
559.79865 150 65.702461
62.806423 0 239.76506
15.297826 35.000004 798.72168
485.67358 125 999.90784
992.25549 125 353.8566
35.153893 0 266.51654
815.19092 150 68.767258
991.22791 0 961.12445
560 32.774643 111.46426
650.48151 150 1149.2844
440 5.124177 194.73112
0 24.381195 666.15747
462.91034 125 979.16638
752.37848 125 511.06665
381.21359 150 384.88699
1000 136.24606 1073.9849
936.97412 139.80753 1200
99.999992 11.820628 483.88986
150.10956 150 528.03418
781.89136 125 863.4978
67.261932 150 809.44379
973.71863 0 708.58093
973.7146 150 360.77734
967.82617 0 52.891258
560 8.3528185 704.27515
447.48047 0 197.44485
99.999992 32.547844 1198.5494
925.2323 0 722.33167
878.42871 150 1119.3523
553.74463 35.000004 427.88904
345.53851 150 14.386797
793.28619 150 907.04968
557.68176 99.32132 180.00003
388.70547 125 1076.9963
454.57813 150 332.67316
54.657463 35.000004 185.61075
518.17358 125 213.94691
551.46527 0 998.83386
255.95044 125 756.16217
308.58899 150 730.50055
560 79.116043 684.71838
440 111.46229 621.39734
0 7.1592064 801.33667
822.18909 150 313.9086
227.83855 150 969.3385
472.52313 0 458.3671
670.96594 150 435.72784
632.41663 125 1033.0474
194.70866 150 796.65698
694.87451 125 906.66138
632.1004 125 928.9021
80.733345 83.33725 500.00006
512.12317 0 105.72402
283.76599 125 1052.8143
781.91376 150 343.56964
850.50226 125 258.17996
363.26587 150 65.973686
943.64972 0 285.87173
396.93811 150 306.51776
291.34567 125 33.121849
778.40289 125 585.79675
48.354065 150 146.03148
482.23206 35.000004 909.42462
440 63.710068 622.99237
536.81561 150 239.78305
612.3974 150 987.28308
91.375748 35.000004 704.79669
900 20.344727 68.302681
803.99445 125 1078.9501
844.00311 150 680.92566
700.94604 125 712.48315
138.31656 150 831.7403
248.1501 150 56.21159
99.999992 19.297539 287.53726
129.14616 150 751.07544
789.58313 125 827.85803
900 47.819992 102.09579
144.08766 125 11.28588
34.853397 125 450.03308
560 19.607216 106.8703
175.49963 125 686.08307
241.90262 150 339.02985
993.46436 35.000004 718.63336
769.22388 150 331.29913
0 32.790199 1116.7968
656.11365 125 1194.9133
888.44653 150 947.26129
215.94666 125 258.61938
900 55.431469 659.01251
931.46118 125 969.70691
42.428619 125 828.91595
667.05072 150 107.92315
900.00006 109.27851 654.44141
67.546494 35.000004 840.91382
463.21603 150 1033.9446
542.53296 150 778.15942
545.67761 28.480738 0
0 36.1329 19.256344
440 103.2326 94.060486
732.25262 150 540.57043
863.69653 150 804.59949
0 81.497665 588.79871
486.19067 138.26167 1200
993.15588 150 942.93365
599.26257 125 807.92206
65.867424 35.000004 228.09702
767.84021 125 597.97937
555.23743 150 887.61792
928.45911 0 755.92163
586.24988 150 674.2644
255.65356 125 816.16956
862.66779 150 155.26572
533.42365 150 171.0537
842.63361 125 260.5426
83.300201 0 387.02972
929.49725 35.000004 293.63174
277.62686 150 364.94058
0 138.4733 593.16235
210.48434 150 187.3264
305.7608 125 685.70508
365.16675 125.00001 520.21423
100 47.880131 25.422487
900.49255 0 639.78967
791.70734 150 808.88184
463.61288 125 491.54419
63.187225 150 499.31674
560 47.893799 11.169304
54.93399 0 497.23889
454.62305 150 308.31479
950.8681 125 997.80908
232.47742 125 568.27094
797.54492 150 1120.0605
170.62991 150 848.09387
962.41315 150 171.63243
894.96613 150 978.83673
899.8031 125 211.00548
990.94043 62.589981 1020
537.97827 150 157.66611
737.56873 125 134.07886
440 101.69485 614.51135
849.99109 125 110.39128
26.060305 150 671.78723
91.169884 0 266.70966
454.04587 120.0704 1200
440 1.1491878 103.41453
443.12228 125 195.18394
326.16644 125 1081.8927
714.08557 150 1080.5441
502.02664 35.779381 0
100.07664 150 717.98456
625.56128 150 1073.2917
142.64825 125 160.20703
24.272318 106.74538 500.00006
439.86682 150 327.94861
560 16.732389 192.44431
957.00037 5.4265289 0
482.97644 150 496.71878
821.98486 150 1034.8003
94.451195 150 534.77124
957.2146 150 1091.9629
629.94287 125 1104.1213
664.88849 142.28694 0
398.20767 150 873.53485
493.34515 125 737.89478
513.85907 0 961.88757
893.73773 150 1182.686
986.76172 0 913.02942
900 36.848473 561.66357
409.8154 125 555.63196
539.78107 114.89079 700
60.769886 125 378.6817
582.96899 150 84.94635
452.83551 0 883.40063
845.9696 150 113.40959
514.79572 150 1029.9893
900 95.241058 501.62717
583.1037 125 741.36865
1000 137.66475 50.669479
0 15.41855 13.334165
234.75676 150 544.62109
462.20297 0 130.90141
5.5381832 0 999.11359
787.1651 150 384.25787
201.56549 125 1048.6221
270.51318 150 241.01952
878.39862 125 980.02844
732.29425 150 584.05762
495.59164 0 347.83032
184.82019 125 773.54303
900 30.722908 907.40088
560 28.878876 343.87067
250.58096 150 458.4855
697.50354 150 1189.3995
406.80081 150 280.5806
822.68616 125 606.86707
483.98538 35.000004 892.84351
972.94641 150 522.09674
563.93585 150 1183.9121
523.12439 35.000008 352.12976
878.16809 150 694.29224
97.074852 150 435.80811
433.41772 125 45.734032
631.81738 125 420.306
486.49979 150 166.45145
609.52521 150 1012.0308
378.2662 125 640.05133
167.03851 150 834.91632
445.99527 150 303.59601
0 127.35948 347.14639
463.51239 150 1083.0298
885.59088 150 186.65137
204.04933 125 493.57538
994.82593 35.000004 715.88239
513.63403 125 810.60596
104.97536 125 227.87912
298.92386 150 979.20068
900 110.51459 102.31812
911.99963 125 711.92261
77.806442 0 116.32108
18.517458 0 660.95154
1000 6.9503245 789.46509
519.5177 0 913.96112
183.38585 150 1000.8567
155.58357 150 391.40961
519.32098 125 951.966
341.64392 150 514.66248
452.0495 150 156.29675
947.36029 150 375.99777
231.26877 125 641.38123
839.48645 125 235.78249
661.50635 125 1067.2094
0 121.45918 1104.3593
697.63483 150 1101.1031
985.08606 142.36823 0
819.72058 125 137.5303
141.82484 125 408.43039
1000 140.1169 443.47211
140.00835 125 706.71222
724.11499 125 333.85904
906.14587 125 449.0882
524.82245 150 163.64902
652.09247 150 82.682487
440 15.398397 580.79681
545.59924 150 196.54648
953.88635 0 534.8548
310.57684 150 303.54703
132.98 150 126.28619
99.999992 76.193771 144.34268
969.63965 0 494.6907
399.52271 125 309.1517
291.53485 125 814.17181
201.20995 150 420.04172
0 62.847389 643.24866
346.33188 125 149.51085
964.4798 35.000004 908.99774
872.23486 125 976.3371
1000 40.386059 159.0209
373.43756 125 121.84305
186.88153 125 643.7879
336.42328 124.99999 736.73792
73.647163 0 1079.667
284.87662 150 237.31485
53.16082 32.359169 1200
415.2551 125 1034.9805
0 27.935474 361.24442
909.20459 125 709.79822
719.87427 150 867.27783
440.00003 116.15724 1191.1075
384.87961 150 748.70142
830.9577 150 678.51117
900 94.476837 100.88617
959.26624 23.548904 1200
218.33107 150 1178.6439
360.47668 125 560.54041
11.186157 15.542625 0
0.15270709 125 975.58551
608.70697 140.21529 0
555.33954 43.085178 180.00003
900 69.07177 90.905441
933.79395 125 965.26367
513.56201 0 489.2468
422.38474 125 140.91289
120.72963 150 714.94
942.47583 125 701.38672
515.00024 125 360.96799
924.93933 0 916.43091
256.86755 150 215.64731
99.999992 108.86019 1096.7207
503.24445 0 423.53613
211.28467 125 498.12781
965.11829 0 294.77457
949.47363 0 1030.1707
456.36066 94.304802 1200
117.44763 150 1190.6281
934.98236 0 722.73407
559.4765 0 1016.1016
528.50342 35.000004 271.82794
609.16797 125 1085.9615
45.359085 150 488.27139
440 18.458105 1116.0582
388.66696 150 866.49695
349.30112 150 319.99756
840.28876 150 692.10327
730.16577 150 1117.8296
140.08232 150 822.25616
177.26485 150 474.75421
494.39548 35.000004 409.07266
184.00348 150 109.0303
319.2453 125 1195.7803
339.28204 150 1132.7566
87.799355 150 634.77222
502.90479 125 431.62793
426.80209 150 474.2999
170.40833 150 555.57532
392.36328 150 393.66824
923.66504 125 315.59152
141.29037 150 74.668053
792.49713 150 980.4187
908.94513 35.000004 432.56119
961.85315 125 408.15552
593.51868 150 1079.8254
862.19873 125 58.896118
560 12.01848 228.8663
498.61835 0 940.9845
11.580585 125 475.31339
5.4711804 150 721.9209
508.90784 0 565.94275
0 56.617466 655.77252
701.06036 150 594.25714
240.75233 150 505.39536
1000 19.184971 1076.0642
478.01831 0 569.75366
903.33246 150 894.99298
575.30798 150 350.82471
443.31232 125 734.55621
95.884148 125 196.46249
47.527618 150 399.63083
463.80682 0 739.76678
1000 4.6355081 190.8504
214.95026 150 1071.3132
973.12939 116.57042 0
440 38.460121 82.055931
655.90112 150 855.79602
62.289146 70.835648 700
974.08301 0 211.45213
514.18719 35.000004 917.46295
29.259485 125 763.47406
827.08441 150 162.44116
363.57559 150 444.33774
900 29.251259 546.82489
552.07275 0 12.884737
173.75813 125 299.97452
215.43848 150 354.29913
322.38782 125 710.26605
602.58337 150 298.2439
70.497253 35.000004 276.86191
802.92896 150 103.125
500.94516 150 817.44843
997.96277 0 598.6001
521.86115 0 1161.9163
233.24716 125 641.37268
238.31732 125 353.42441
35.676025 0 294.54602
918.22638 150 373.12549
0 0.24077761 258.98541
196.91379 125 1156.4084
96.332512 150 364.54596
331.40894 150 330.82574
401.03323 150 851.11285
549.22339 125 332.24927
75.949135 0 677.25293
638.94617 125 145.52519
580.4809 150 18.192101
916.67682 0 531.18518
488.98169 69.630867 700
99.999985 16.843414 67.254852
0 61.388504 1153.8453
99.999985 25.611336 123.26197
562.79834 150 925.65643
560 52.54018 1183.1492
900 20.689249 338.46008
628.09296 150 639.84564
982.93231 150 974.08875
439.38123 125 1110.1245
933.33405 0 1152.7074
704.10089 150 928.17511
366.17801 125 532.18323
0 1.6667985 188.93828
657.95142 150 323.34973
632.42316 125 823.49829
63.123043 150 75.351624
460.8064 47.487049 500.00006
561.25781 125 1045.8153
20.634638 150 821.90723
900.41876 35.000004 746.91443
600.41431 125 602.96985
276.21359 150 1178.0702
721.13159 125 181.19708
538.50244 78.700409 1020
362.65765 150 49.049305
1000 55.40485 1041.2679
503.34573 150 794.32495
555.01062 0 183.40782
125.22195 150 785.00403
718.60138 150 390.94183
846.56653 150 1105.4434
976.15234 0 894.09747
0 139.86664 750.04309
1000 18.565292 493.75793
619.26569 125 9.5112514
518.07538 150 1163.8953
955.08325 125 242.01941
65.829292 150 1127.5718
201.34366 125 318.84167
554.3573 150 854.83948
653.25073 125 726.25256
406.53793 125 777.97504
802.24414 125 635.0838
0 60.619621 653.74371
796.5484 138.36783 0
472.27985 0 178.3154
99.999992 47.108475 576.65698
222.92354 150 73.302055
292.99057 150 21.6367
560 33.984825 110.25649
212.69263 125 514.70673
599.3681 125 617.7204
90.640778 49.283333 0
915.03387 38.897636 1200
514.30267 125 987.76935
6.0411282 150 1094.1414
110.47507 125 948.69592
900 8.4096851 342.68503
442.70193 36.573261 180.00003
809.10657 125 455.70306
440 99.555702 586.73285
459.16971 0 969.59308
903.74762 125 302.45868
82.802727 0 937.71094
1000 146.20444 413.93134
342.45786 125 298.91617
754.34741 125 1112.4797
533.37122 150 778.0755
617.23096 125 341.53479
381.02417 150 695.79407
961.71442 0 982.11987
288.85898 150 749.60956
41.896275 150 1051.9165
1000.0001 24.101881 773.76917
471.23077 150 594.45923
1000 69.615799 597.98755
378.64441 150 985.08508
193.25453 125 569.95117
719.66821 125 975.98926
282.34982 125 788.92273
154.18216 125 204.14597
725.06989 150 957.30695
347.88391 125 921.28412
869.41583 150 124.87507
992.7699 0 868.91675
98.120514 150 767.07184
585.60547 150 280.724
69.759239 150 639.96637
951.62866 0 541.11261
18.05262 150 590.15643
771.30389 150 890.73462
1000 16.596216 664.57507
188.81801 150 653.54926
862.35278 150 324.02557
979.22699 0 102.6226
949.45178 150 337.60059
486.78247 0 1004.808
241.35901 125 519.37689
941.17114 150 652.66852
505.37277 150 1025.069
594.92169 150 350.54019
184.71236 150 999.86938
505.55383 150 661.24451
1000 26.730623 254.15488
186.65178 150 400.7572
408.97568 125.00001 16.223385
11.461816 35.000004 740.73181
677.9845 125 381.2717
738.96246 125 78.464539
6.7931113 150 623.07556
868.91364 124.99999 708.36707
296.79245 125 1137.1735
0 100.98889 1147.9039
11.064374 0 253.09525
818.5022 125 68.276321
42.635284 0 106.67652
501.40042 83.227211 500.00006
346.53162 125 121.68402
34.661762 150 539.01263
999.97937 35.000004 884.38794
235.65858 125 832.93695
1000 131.72498 587.79541
900.16949 124.59244 700
521.71143 0 318.07053
540.83112 141.84096 0
554.12164 150 83.705589
109.92419 125 956.73407
522.91833 0 354.97351
560 11.981663 753.23474
542.94366 0 55.820297
922.57483 0 963.39325
99.999992 14.211556 868.03613
988.60754 0 741.63727
336.66107 150 668.84192
918.49219 150 498.75272
216.04649 150 237.36047
2.6285408 52.985256 180.00003
293.65369 150 347.26144
953.01483 0 1174.8733
870.25256 125 1144.6182
647.40479 125 952.41833
27.735577 35.000004 906.50867
919.90002 125 452.66516
0 30.429581 856.27893
69.324173 59.308475 0
193.75793 150 342.40521
1000 82.310814 1171.2944
478.70508 35.000004 990.05469
900 20.23856 288.72571
394.23123 125 124.06721
706.69666 150 597.95349
6.5700154 35.000004 207.59546
885.83209 150 902.10223
62.671288 43.114967 700
707.86841 125 424.47305
446.28006 0 673.40753
0 7.7534065 73.698364
900 39.374199 75.279221
918.98132 125 1016.8193
782.59851 125 179.51642
882.80945 125 912.14331
585.1297 150 560.60724
883.36548 150 1066.557
95.329239 0 1050.0121
0 127.22894 752.95007
54.622364 150 529.63837
0 102.77769 1077.3986
0 8.8133631 575.81567
592.53577 135.22781 1200
547.43958 3.574394 1200
575.33655 129.93547 0
383.57407 150 20.462536
262.74335 125 933.85992
902.50439 150 1175.0798
226.42776 150 978.87634
245.76588 150 601.39319
684.47491 150 672.15552
751.54675 125 962.69269
908.74579 0 550.43268
531.60748 125 886.24231
553.95874 0 389.49557
309.82019 150 785.21582
321.8931 125 1141.9048
560 76.025208 1036.5281
242.0838 125 63.524948
649.04907 150 572.16864
937.01196 35.000004 356.91632
451.87732 150 1025.3829
0 19.606342 451.64737
668.99786 125 1085.1373
692.29382 125 664.60773
518.79993 77.243195 0
198.01106 125 505.75354
99.999992 34.879581 844.35303
250.44987 150 111.81329
551.21191 0 1119.7832
192.16209 150 1191.0768
74.696655 125 451.64694
575.12207 125 758.01489
559.26648 35.000004 1001.2917
633.90784 150 154.69801
792.81989 125 357.17993
164.09377 150 538.34808
944.50696 109.55974 1200
590.27045 150 999.31384
982.68451 125 382.90045
813.37067 125 307.62656
0 32.403782 734.16541
757.67151 150 842.20557
440 20.455742 127.13953
611.27509 150 1181.4871
666.95288 125 863.87659
77.473923 80.413742 0
188.82732 125 39.989262
220.6906 150 283.9325
514.52399 0 167.09322
99.999992 94.386055 127.25352
440 55.213425 1058.2524
81.153122 114.15645 1020
472.18774 0 978.18677
440 80.69873 99.07505
310.05603 150 298.36572
183.58888 150 406.4407
131.59511 150 785.90515
421.80267 150 751.03662
949.09814 150 281.51117
195.79095 150 731.53137
1000 148.07275 644.33295
349.0199 150 493.85025
770.92358 125 708.26367
61.940304 0 1050.4502
440 54.970837 1110.9651
560 7.503552 604.43567
673.42969 150 145.46878
48.798363 150 204.23991
908.83923 150 607.73462
13.039502 150 980.0368
560 13.687632 237.84857
837.44641 125 584.39575
0 140.19174 872.8418
509.99069 0 78.063187
331.13391 150 849.36267
440 81.228424 179.32971
442.84439 0 906.05402
440 109.69257 590.04163
815.0932 125 62.086525
942.73499 35.000004 933.38989
983.45728 0 479.35638
975.01221 0 183.68405
167.73761 125 491.63257
900 16.294226 433.09454
503.67383 39.270641 1020
948.47302 0 362.65756
28.717487 150 1090.0684
0 9.1430569 673.42065
976.03534 67.558052 180.00003
965.29437 150 45.570633
262.27921 125 127.71324
98.77346 0 358.07217
719.09204 125 255.95166
435.32727 125 565.79688
0 11.755664 718.03296
565.1123 125 1081.4586
270.0415 125 1086.2122
771.64258 125 586.51038
440 24.667658 563.29932
3.0723124 150 130.90053
900 4.5351224 928.78821
79.17115 150 442.91431
915.9303 150 834.05273
953.89038 35.000004 786.21326
845.46613 150 90.239952
604.69 125 379.38687
127.2982 149.99998 1173.8892
560.10376 125 356.75272
9.6819572 125 984.94885
802.38977 150 562.03546
751.66644 150 802.4848
919.67944 150 58.230473
961.69934 150 638.51172
657.31873 150 807.96777
873.1496 150 1030.0492
500.09155 150 651.37048
453.45651 0 215.60358
566.97675 125 997.70343
56.928387 42.775204 1200
268.50226 125 66.820061
440 22.967302 784.15808
269.94812 125 628.03284
551.11963 0 296.33673
456.70782 35.000004 892.47131
656.45923 150 602.98431
252.99425 150 1.429081
30.576015 91.329269 0
615.40485 150 562.20862
565.82678 150 999.93689
490.46252 150 424.50555
3.866559 0 921.17712
158.90945 150 921.41888
132.80379 125 382.92209
514.97571 30.998566 0
512.22699 35.000004 233.07307
901.64001 125 947.76691
949.10767 0 546.74438
0 26.752499 868.27905
92.07299 35.000004 870.63678
495.42514 150 77.698517
348.91879 125 937.58105
1000 41.808105 587.3443
666.52411 125 407.34207
235.67554 125 262.26819
777.15015 125 1047.7813
878.20898 125 488.88651
481.49979 150 1038.1287
256.01541 125 1018.0549
514.01465 125 715.34717
900 13.986031 747.51331
705.74329 150 335.134
929.13196 0 776.9704
483.26483 35.000004 825.69568
692.40967 150 563.39215
11.653287 150 993.96313
26.336365 69.757675 1200
800.79077 150 318.87598
379.71698 125 1012.5352
829.49622 125.00001 758.09235
567.15692 125 1161.725
445.39276 0 433.79922
699.01819 125 79.899017
812.81915 150 525.91174
466.5816 150 302.32236
449.74106 0 570.20502
815.91821 125 703.11768
754.54761 125 1088.7252
86.932243 35.000004 780.61279
764.7077 150 1056.3933
242.1584 125 372.15533
906.38031 0 962.19611
474.18243 0 1021.8881
310.86618 125 849.30493
445.74609 125 330.32071
0 137.08908 381.60269
376.05661 125 441.48013
947.95026 125 846.55023
459.83875 35.194866 180.00003
901.5517 90.158173 700
510.62924 150 1061.715
0 48.949585 1137.4294
38.103313 150 1099.4644
900 117.59776 72.053268
724.92255 150 390.38223
904.12598 150 310.99426
537.64526 114.17741 1020
858.52228 150 1109.2955
1.1186241 0 602.34113
542.07977 117.44038 700
839.68933 150 676.35242
291.22122 125 34.614632
293.24686 150 497.75055
538.30774 0 921.99719
84.075394 125 416.29663
524.4325 150 290.72162
874.55322 125 447.07748
516.02405 113.18019 180.00003
129.13362 125 662.4989
520.63147 150 1161.067
711.60889 125 1192.0504
900 104.50377 19.290171
1000 80.716888 1080.3695
196.481 150 206.69232
900 80.963112 1068.166
519.98627 150 694.55585
981.34766 150 297.09305
986.83655 150 645.88019
120.14497 150 1060.9519
900 16.659204 274.33618
1000 139.55286 364.96774
96.939552 150 417.28577
996.20056 125 834.09717
488.17871 0 602.1347
51.691826 0 438.27634
50.548912 150 344.35464
279.31607 125 601.6687
66.799171 125 478.79886
766.62085 150 1126.0798
677.51917 125 1160.2965
979.0437 150 295.30478
303.53348 150 991.62463
99.999992 2.5789144 1041.9863
984.94189 125 1012.5577
479.35611 150 520.16699
856.66663 125.00001 1197.7659
826.41412 125 700.38464
440 101.61952 11.030415
922.68042 35.000004 187.89528
937.23206 0 454.11777
281.35715 125 1024.1676
895.73212 150 23.278786
900 24.613007 648.68945
560 6.9569879 678.12073
0 60.720806 1077.4517
834.82153 150 81.778267
261.74405 125 1094.3579
144.76244 130.40773 1200
553.3656 150 275.88458
54.571613 35.000004 1006.8544
900 119.09312 672.45636
484.52979 0 523.80951
255.29172 125 1166.2592
514.68427 0 737.11401
935.49591 150 1043.0601
934.91467 35.000004 188.93834
721.27185 150 789.58289
350.51129 125 226.49454
969.26196 0 131.40942
73.692207 0 709.4707
831.15973 150 1025.0121
440 15.83004 152.55174
77.482056 150 347.05533
505.34311 113.15349 500.00003
160.17636 150 146.05237
444.3949 35.000004 723.2608
900 29.751692 525.32825
68.633949 150 709.13123
24.482391 150 611.20074
84.540245 0 696.59802
391.38535 125 72.785675
300.98615 150 42.177986
440 61.315029 504.0293
990.95496 0 665.03674
649.12842 125 826.60785
803.85077 125 866.77594
1000 31.843904 622.25006
148.6895 150 688.61115
416.2085 125 1035.0011
560 15.542662 933.21393
877.62982 125 239.91826
0 19.651524 498.38123
378.83722 125 378.48074
219.55524 125 828.62231
133.15672 150 1141.006
750.20074 125 328.34763
804.34607 150 250.80878
313.22226 150 371.22665
440 27.560516 507.43454
561.88324 125 380.32953
48.860153 35.000004 307.8819
99.999992 46.257828 1111.5414
0 147.55713 779.31116
744.70654 125 167.61841
900 85.963264 1158.5519
999.07587 95.140472 0
396.95758 125 251.97563
533.82544 0 242.59871
11.077704 150 1156.0273
318.49716 150 1170.1875
677.50641 150 732.28735
19.521042 150 665.46057
273.95834 150 114.50214
11.224078 0 960.49652
911.97449 35.000004 908.84009
908.17102 35.000004 347.05225
509.88272 0 621.74414
117.4244 150 786.59546
252.32509 125 826.97272
115.34473 125 916.039
551.51337 35.000004 743.08618
928.75568 35 291.90363
518.52185 35.000004 929.02197
619.92566 150 961.69336
29.88961 65.263123 1200
446.56638 48.139824 180.00003
527.03986 150 1027.7019
900 46.622555 42.273628
840.35773 125 615.64697
404.47797 125 1003.3701
78.786072 150 360.66257
186.8049 125 910.15717
697.54913 125 691.354
721.51416 150 174.06914
99.999992 2.6892202 696.19104
42.364605 0 259.73917
811.61682 150 639.37805
622.28412 150 1186.7142
999.64899 150 921.26483
941.63849 0 455.23694
253.2142 150 1198.7573
69.961014 150 837.69537
262.28558 150 209.46129
254.41385 125 683.87866
205.68115 125 44.72229
106.63962 150 696.18646
99.999992 31.284245 957.12878
1000 144.34096 280.92361
181.29378 150 993.85358
0 2.1199765 779.9259
392.43552 143.71402 1200
1000 30.051544 125.14736
143.22423 125 717.49152
498.2103 0 221.1328
841.75836 150 390.56793
697.3526 132.60144 1200
657.24902 150 1179.0839
516.39148 84.280243 1200
863.92615 150 765.57971
977.31006 124.99999 203.53415
808.66357 125 399.86053
29.977655 37.801163 1020
943.23047 35.000004 984.84387
543.78778 0 535.2865
909.72864 150 322.40948
921.12988 150 915.73383
756.38159 150 1123.0508
585.34369 125 273.65765
766.34216 150 580.17212
874.19751 150 903.83783
272.17258 150 68.20414
269.23752 125 305.87335
334.62274 150 401.3898
215.61717 150 681.06177
10.928934 125 916.09827
984.76245 150 1163.8647
206.99652 125 1194.7732
72.754776 150 280.4133
245.0793 150 41.020988
952.60931 0 645.0957
210.9375 150 1119.4926
645.83472 125 489.95923
479.08527 150 715.41742
359.04529 150 416.2197
910.9187 150 331.46924
972.60461 117.61574 1020
327.73181 133.25943 0
630.97028 125 376.71103
95.774689 68.136093 700
778.29523 150 557.47888
764.3941 125 94.646469
32.195328 0 643.04352
440 63.193398 1078.5623
923.19824 150 568.08478
943.61389 35.000004 436.11005
503.72876 0 1011.5122
828.58551 150 1125.6882
80.957855 35.000004 824.60779
0 120.45589 699.16052
717.8949 125 453.39795
560 72.49707 1068.2947
278.4057 150 834.7959
399.18643 125 1071.9192
352.59888 125 583.82739
519.42139 35.000004 962.39294
560 102.49966 543.9834
99.759224 0 283.7327
449.30731 35.000004 950.64551
629.28217 150 965.14838
885.92761 150 130.48961
84.372604 125 923.51111
99.999992 45.87178 36.566833
508.23859 150 107.33986
776.22809 125 494.48969
539.2323 125 220.16069
849.36633 125 335.0817
34.741066 0 13.21589
715.32385 150 842.84448
265.74048 125 564.93726
560 48.675961 1128.8959
560 22.797089 274.92511
712.97351 150 708.76892
755.02875 150 601.84802
672.24304 125 386.94122
712.26697 150 1137.2679
95.783638 150 211.19299
952.16132 0 1017.9369
99.999992 35.927635 662.7113
997.32611 150 666.90771
560 27.956503 106.80272
89.437462 150 166.85544
548.88025 150 853.62659
486.57813 0 400.9209
452.56644 35.000004 831.45337
509.01517 49.230335 500.00003
939.80066 125 945.08588
827.51556 125 322.64737
594.82587 125 798.55243
519.97217 35.000004 954.39429
45.142551 150 924.75159
668.97491 125 417.77933
449.24002 42.057926 1200
860.12634 125 264.74161
364.43332 150 132.97835
258.08585 150 327.99896
308.01477 150 666.28333
802.6369 150 562.69141
576.90961 150 634.85114
824.50562 150 344.95789
739.49353 148.33783 0
298.84064 125 554.474
957.05469 125 470.88867
830.07324 125 600.03314
431.74225 150 749.13715
99.999992 120.2701 95.192993
263.80341 150 679.62415
183.99435 150 280.34161
219.5305 125 223.2233
960.39417 35.000004 858.24207
970.79547 150 906.6994
978.15417 150 17.299961
442.75729 150 275.21912
717.03662 125 977.73804
141.26613 150 944.1123
548.01727 125 827.45447
566.90442 150 1096.0513
242.30966 125 1159.4409
720.38312 150 266.42224
105.64996 125 976.41302
560 56.925503 98.077644
445.16678 125 494.7948
440 25.880774 494.37564
523.78589 0 392.66852
843.57953 125 745.89331
560 23.531916 480.0097
55.976143 35.000004 484.05161
214.7428 125 596.08478
563.64075 125 515.33496
805.07861 125 800.12695
828.3551 125.00001 986.78687
864.49841 125 336.80939
560 58.484791 1059.7867
1000 20.288914 872.58545
310.82092 125 557.26526
535.39856 150 600.34314
934.8183 36.670326 180.00003
982.21088 116.72438 180.00003
44.301804 150 461.54395
581.26105 125 355.35406
63.489616 125 415.53412
693.45203 125 636.34735
999.77734 0 1046.922
691.30328 125 377.63373
529.13123 0 490.56131
545.84631 35.000004 943.63739
471.78687 35.000004 715.49731
1000 68.84462 1049.3525
496.07788 125 375.31863
20.383381 64.975777 180.00003
990.5553 0 650.98694
440 33.595943 192.10283
372.11386 125 1057.1522
296.59601 125 566.1322
595.05139 125 128.87193
1000 145.47821 494.26715
457.76581 35.000004 946.51917
324.8707 125 568.68054
221.03714 125 959.54822
889.42957 125 730.09039
978.1062 82.102623 700
0 8.6423512 466.69128
980.51361 122.34814 700
681.98834 150 23.614956
0 102.29965 569.73145
542.95026 150 246.16571
998.98926 128.92253 0
560 5.8991323 879.77942
552.48499 0 208.66397
941.50372 89.91011 1200
651.43066 141.23691 1200
487.69693 125 729.60852
0 33.26421 668.401
472.37009 0 153.31494
382.9371 125 758.54761
208.56841 150 278.40845
520.03235 125 463.07031
696.41962 125 59.582401
503.75674 150 254.16985
400.78146 125 576.20129
567.06592 150 875.81299
982.82288 0 897.01886
560 57.964714 1026.6072
729.66406 150 633.21881
612.49854 125 263.62616
363.01553 125 978.23309
233.65776 150 1020.4012
515.0929 66.181664 180.00003
89.065887 150 67.330811
560 29.462072 1014.4878
900.00006 0.51572412 967.25037
906.81812 0 47.842159
900 39.054913 1197.7229
697.25293 125 1171.2534
68.117859 0 866.33325
472.73444 0 225.30118
945.56989 125 824.03198
900 112.24127 1173.0115
405.0463 150 746.74072
0 49.471199 54.472992
792.95917 150 769.93195
702.15839 125 675.7038
757.51044 150 1055.6643
620.16565 125 553.42072
734.40466 125 268.27228
164.50067 150 30.302025
467.01483 125 463.72311
672.14746 150 613.94684
412.77979 125 615.88293
87.763245 35.000004 813.67798
654.70648 150 382.54517
282.00851 150 1161.7368
440 22.539822 785.62543
86.738342 66.679504 0
99.999985 15.829983 284.53748
520.95123 35.000004 334.3385
440.16034 35.000004 337.53381
755.54388 150 47.408653
560 101.50249 17.899462
1000 136.91409 509.1413
721.10266 150 645.33545
196.38406 125 108.71213
914.87244 0 12.438684
710.32172 125 398.96198
1000 133.24695 426.11661
99.999992 9.5423965 790.94666
257.46841 150 352.30093
914.07916 150 510.4906
631.10767 125 759.2348
321.45374 150 1125.1184
271.87051 150 1098.5564
775.97833 150 1137.0559
349.82431 125 652.10651
448.57312 150 352.56015
797.75537 150 1028.7728
784.39966 125 243.4879
424.97415 150 857.14673
560 97.082558 45.701088
692.9538 150 169.04834
900 58.709503 569.95532
978.41162 110.66486 700
940.31226 125 1002.9913
486.1673 150 1113.0098
454.35953 125 373.84705
917.1955 150 306.40616
285.77097 150 1064.5797
859.87524 150 126.61364
540.4314 125 375.3107
440 1.1658814 770.67737
416.01089 125 293.47122
0 130.24373 426.27328
74.224663 125 486.49567
700.38525 150 1047.0557
219.60327 125 1027.0291
472.04205 35.000004 1007.8173
21.070545 65.921074 1200
545.13647 0 1170.51
373.12589 150 331.6857
321.05994 146.56204 1200
73.948769 35.000004 327.0658
0 134.00806 283.45355
71.517586 125 893.13171
441.35162 89.925606 1200
319.61591 125 177.17593
10.903968 35.000004 484.86148
475.73645 150 29.513311
264.47632 125 495.09973
560 101.85477 607.01166
835.43994 125 96.658104
616.91547 150 872.70801
551.83643 35.000004 341.93558
709.62701 150 1131.0037
367.39719 125 592.73969
462.6557 150 759.63568
291.85196 150 574.29333
0 144.90292 394.52591
796.93243 150 275.81323
656.5072 125 915.91968
325.07416 150 751.32031
99.999992 65.885788 1097.9929
533.01978 125 366.55807
411.45651 125 984.84125
451.19147 150 606.51733
95.879082 150 1028.5375
737.89874 150 1153.2507
1000 4.9591866 680.61682
996.90643 0 370.09982
99.999992 35.359741 1150.6149
991.23047 0 87.217651
440 90.830948 628.66199
1000 34.239269 804.5354
440 5.7425261 35.103939
975.90625 0 1069.5481
599.698 150 297.92719
550.68176 0 852.95667
900 23.906254 812.51111
287.0788 150 687.75256
46.588543 52.530525 180.00003
560 3.2812505 729.44873
410.8049 150 113.61179
925.65765 150 481.85828
590.39014 125 1144.309
548.3468 0 1193.5801
57.174034 125 338.17935
632.52307 150 813.49072
740.70813 150 43.203236
359.535 148.88708 1200
307.95746 125 38.872925
534.84613 124.99999 972.38989
560 29.885757 1166.0741
147.47018 150 0.4212141
975.19366 125 283.02225
560 15.058041 1103.4791
429.83282 125 640.26965
304.83771 150 883.63788
42.677856 0 577.69971
614.50562 125 1030
891.85181 125 1151.3129
640.48578 150 422.8074
678.02753 125 1165.9591
2.6520855 35.000004 302.1875
30.849443 125 394.586
534.71411 150 787.33282
468.67194 0 626.06903
603.03186 150 752.80536
0 137.75867 951.14203
240.95528 150 103.00484
844.44196 125 878.94318
991.24664 0 1152.7144
0.66977638 150 2.8781891
434.9465 150 1020.7756
552.05383 35.000004 1006.2451
40.750217 35.000004 244.79178
549.68585 68.0382 500.00006
452.22009 35.000004 186.27742
599.97308 125 602.11597
541.35223 150 155.34982
227.22386 150 491.67545
320.30655 125.00001 658.32642
915.93298 0 340.61911
619.56116 125 224.68854
1000 143.28227 97.102676
1000 6.0323982 1078.8459
468.18719 125 754.8053
789.41718 150 198.67273
764.5144 125 375.49902
384.48294 150 770.66693
277.93488 150 284.91641
496.87692 0 213.49881
199.52501 125 173.76041
473.92972 150 791.14886
59.175491 31.331413 0
112.26245 125 429.50293
776.89209 125 1038.3821
141.69472 125 791.97803
314.44528 125 1137.5583
2.6019034 125 735.82397
440 80.417389 1184.7551
936.52374 0 75.71125
591.84521 150 1152.057
883.05444 150 945.27026
560 115.56711 1126.1482
494.09317 0 792.58197
560 37.292381 541.76392
900 101.3896 1151.7063
947.22473 35.000004 987.89294
908.68134 35.000004 975.62573
604.43329 125 47.896107
325.27597 150 829.133
267.25977 150 631.94153
265.25186 125 1021.7448
595.12085 125 1107.885
964.99396 150 1151.4087
579.89935 150 186.37219
0 73.437027 553.77478
28.981409 0 314.33008
772.02954 125 853.49835
341.39682 150 737.85913
401.79318 150 274.72028
96.202271 0 1051.9613
919.28931 150 946.76898
503.50134 0 993.26996
515.49054 0 878.7207
82.81691 0 452.27051
1000 33.66217 197.2457
57.799862 150 654.31378
862.29974 150 861.06946
452.50385 0 1072.0089
397.82428 150 1152.6078
983.87885 150 876.48016
291.98703 125 704.03442
197.88203 150 355.70334
99.999992 10.05117 404.03717
893.51599 125 1161.5864
452.63385 150 290.625
77.273254 150 458.90051
397.34979 125 584.83215
500.42706 150 1084.9116
724.77808 125 864.89917
117.1221 134.03207 0
136.0305 125 537.37354
530.2616 97.976768 1200
492.64014 125 390.61697
654.50879 125 674.00787
560 121.1893 155.77829
108.88376 125 1184.2124
957.5174 150 467.23972
842.53174 125 950.23016
0 17.310944 768.99792
937.82544 150 785.94641
518.6972 0 1148.8
751.82886 150 669.33289
759.24438 125 736.00079
540.13129 0 416.99454
900 74.720909 562.74438
331.68573 150 252.0813
526.18262 35.000004 194.28876
276.23892 125 14.694468
965.21533 150 985.08875
535.61255 35.000004 900.27368
248.47505 125 1167.3252
900 6.9635301 1158.5513
965.2851 0 702.6488
560 3.2229629 798.62714
107.93521 150 1042.2881
113.19487 125 881.59387
402.22095 125 194.59927
204.33357 125 435.78339
81.143425 150 47.294281
282.74191 125 113.5526
789.17847 150 640.62927
485.88785 0 1077.9592
1.2730597 0 477.56989
941.90051 150 339.87195
264.40601 125 823.05603
99.999992 88.456726 1130.7729
212.57739 125 6.571794
188.04099 125 1137.9335
99.999992 81.645065 675.87866
512.20673 124.99999 206.51971
566.3418 125 313.862
693.20258 150 1194.2374
100 106.52225 508.33661
870.89227 150 1013.6809
849.21191 150 550.37152
974.27277 74.400665 1200
99.999992 65.172401 561.6673
93.482445 35.000004 818.16467
809.71582 150 449.01627
913.9187 48.389252 500.00003
591.65271 150 278.55148
461.2561 35.000004 257.53845
753.32977 125 320.99072
0 27.429121 846.14813
872.97772 150 5.8553696
65.863327 35.000004 827.3783
526.57721 150 58.615421
460.24179 150 1191.0334
766.49866 125.00001 1018.7002
516.03235 0 376.62598
513.82227 98.116074 1200
0 23.855656 180.69864
58.64537 0 412.00656
389.2872 125 710.07233
437.71503 125 132.2545
289.81262 150 188.021
714.78552 150 239.78305
743.50214 150 1011.556
649.05164 150 351.36832
1000 135.7103 599.7442
277.29083 150 54.311298
296.66934 150 1013.3177
592.87561 150 1030.9088
424.84491 125 397.46225
327.98547 150 1178.4879
327.91769 150 112.52017
440 81.265251 39.825726
780.40967 150 651.61737
684.99957 125 290.23593
565.17023 125 477.9866
223.85233 150 1174.4559
1000 54.007004 642.81793
710.2074 150 476.5976
94.920898 125 193.79895
750.79303 150 805.69617
510.672 125 476.2995
823.54999 150 82.525131
188.07185 150 554.349
440 108.36269 1090.5825
573.74438 150 34.140442
489.34335 87.323112 0
41.86132 61.097485 0
294.34155 125 648.84686
90.352684 125 370.29037
995.02856 150 975.1712
130.49448 150 1174.3088
472.76923 150 746.65051
353.31503 125 660.7934
170.87567 150 361.47452
124.89268 125 182.98018
99.999992 18.893219 1156.5692
226.87917 150 19.159269
646.48145 150 907.18933
124.44055 150 621.40216
373.27783 125 892.35376
109.17291 150 359.74683
0 10.853066 487.77698
709.89246 150 250.99246
627.20044 125 961.97839
97.107834 150 1177.2902
652.1449 150 701.60114
28.405777 0 287.35571
917.19299 0 752.41943
933.56567 0 1089.6262
160.34839 150 3.5758495
977.39331 0 927.12585
154.14751 125 393.76599
900 4.2559772 819.82581
203.47214 125 24.199631
569.92957 125 392.45633
327.13278 125 1040.9923
229.24065 150 1050.8536
213.28192 150 717.98456
793.25671 125 290.68613
495.00064 150 708.7276
942.37665 150 61.294411
291.38052 125 831.06659
637.97467 150 159.07945
1000 145.2325 694.54041
482.22809 150 623.1629
502.21722 150 446.31766
325.35861 150 101.36361
894.37939 125 1044.946
948.42786 0 1096.4736
50.481441 56.291862 700
391.32571 150 286.35828
902.17102 35.000004 275.82922
912.60297 125 194.53491
57.438683 69.595711 1020
220.23169 150 196.65599
585.50604 150 109.99747
78.559845 150 684.20465
927.27173 119.98276 1200
509.95166 50.534309 0
900 6.1425629 42.458473
213.96027 150 888.50165
952.88483 150 739.83057
449.93359 150 139.19484
426.72556 125 49.441666
607.39362 150 923.04718
951.99194 0 596.98767
99.999992 43.79287 549.2511
727.56989 150 518.88904
60.213207 69.78566 500.00006
877.76447 125 950.9812
771.70013 125 21.350462
787.83514 125 598.56982
634.60754 125 837.9314
861.97888 125 669.08398
303.41208 150 243.4054
523.21008 35.000004 258.59787
305.35245 150 437.21832
89.43824 0 500.75626
900 21.919807 962.35144
642.95502 150 1105.3933
33.168934 107.77153 500.00006
958.3457 150 833.63635
560 84.685112 673.70142
956.91772 0 56.166782
797.90839 150 962.43915
560 3.3420079 108.51051
124.7426 150 628.77863
803.40137 125 382.65723
444.72742 120.07881 500.00003
855.38849 150 569.35986
494.93423 0 661.54712
757.36182 150 33.593987
501.61481 150 691.41699
932.45471 0 1060.5171
842.46503 150 856.98755
840.77887 150 724.90662
1000 10.043076 44.884071
318.03766 125 1176.9114
736.18982 150 307.03433
192.73322 125 896.25238
18.744366 0 737.2818
572.87524 150 800.23907
867.06055 125 504.90558
21.822456 125 752.2337
914.45148 35.000004 802.15442
582.5946 150 795.14221
34.052223 120.73117 0
139.51897 150 314.00049
17.786657 0 199.31116
610.32574 150 829.98254
560 50.204765 525.06543
256.20465 150 797.20215
84.13945 0 537.04706
388.2023 125 749.70435
435.94424 150 518.32721
104.80264 150 386.85724
55.19495 150 535.26685
761.90674 125 860.02454
365.17575 125.00001 476.43048
99.999992 8.2836714 11.350783
900 18.423903 415.90155
599.8606 150 574.64972
46.867809 150 975.39093
508.42404 35.000004 943.72321
758.05835 125 922.42328
822.49969 125 493.07831
875.20215 125 51.38623
309.23553 125 339.91391
212.49098 125 490.42682
240.58002 150 868.94171
81.032593 35.000004 964.68652
921.73645 0 922.79718
518.25787 113.37073 0
805.97589 150 500.15277
754.24597 144.5481 0
767.11829 150 490.4624
793.52637 125 1117.0503
338.25397 150 221.2886
503.55792 150 677.46027
110.65208 150 626.74347
856.02405 125.00001 730.74359
313.83395 150 578.62775
46.289417 0 540.8299
603.80133 125 1113.7096
517.63336 150 891.18292
356.93109 125 770.73596
440 21.905682 76.695656
486.38696 150 675.23999
67.939209 125 377.35345
900 57.486061 1133.8589
918.66742 0 208.58354
291.27118 125 30.894623
1000.0001 92.602806 631.23157
504.73828 150 927.65576
556.49084 0 564.99243
140.72653 125 308.02869
253.63974 150 132.62837
810.97742 150 574.57129
815.20221 150 127.78115
764.13507 150 90.517189
440 22.439777 507.89465
340.5058 125 495.75922
451.63251 122.05151 0
255.19505 150 1121.1332
70.946022 125 858.76501
479.50464 69.858894 1020
560 97.754478 679.63275
814.77814 150 168.06844
502.52658 150 1126.2957
777.53845 125 53.351135
59.472008 0 769.40527
52.716621 0 446.71017
480.60809 125 315.74722
626.24139 125 157.10056
464.67142 35.000004 276.1463
440 69.321556 161.07942
531.1853 0 983.76672
856.8678 150 217.03918
440 33.269573 1088.1229
900 31.925217 100.84925
840.30811 125 585.29089
823.51007 125 912.77362
525.39355 0 984.65875
74.822121 35.000004 757.56543
454.74048 95.301392 500
900 93.551552 169.06546
446.79218 35.000004 758.02319
900 24.126736 1123.8494
901.79688 0 44.73806
222.9585 150 453.22958
321.91449 125 15.274059
99.994751 0 169.49496
288.48126 150 1151.1392
948.80872 150 218.76128
440 28.984917 1095.85
506.93689 87.350014 1020
249.28568 125 662.25812
74.188713 150 144.948
973.2973 35.000004 771.64294
949.51208 125 787.07861
708.26935 150 38.31303
0 34.789085 693.0033
61.953182 35.000004 859.2887
445.04437 0 305.07022
165.50511 125 702.08142
205.34415 128.8255 1200
450.76028 150 568.03882
927.50201 150 103.57304
0 73.680214 89.294167
685.75836 125 440.12918
710.07349 125 645.38708
900 4.4820662 199.89478
206.33112 150 214.06374
739.17072 125 228.76712
900 95.617844 107.74515
403.79156 150 546.43408
99.999992 13.10223 1145.594
939.79211 150 662.45313
28.721909 0 742.10303
1000 34.540192 517.18182
679.8446 150 451.88046
604.23639 125 644.85651
486.43152 0 1192.4241
473.15845 0 535.25964
936.31165 35.000004 444.97906
956.90717 0 346.3631
0 38.100182 1187.8976
351.92679 125 518.36572
555.54114 0 1110.8512
755.37225 150 766.0575
687.00256 125 43.174114
239.18207 125 262.51266
237.4446 125 1054.5125
852.5188 125 301.88556
668.48254 150 466.83167
971.01849 0 717.89209
643.78503 150 794.8916
619.6366 125 583.01917
76.148903 150 841.65912
440 68.568375 52.42593
963.44312 150 690.8053
804.88696 125 353.94708
676.60358 150 102.56424
510.07764 0 1094.9177
168.10068 125 701.32764
179.80511 150 737.95422
412.15442 125 232.15457
903.95068 0 824.52069
349.78629 125 1078.8989
539.53827 125 926.57813
896.66943 150 673.06439
900 9.0529633 502.70499
932.04657 0 840.19598
229.13228 125 1150.3518
802.25665 150 532.4386
38.0518 150 279.7923
41.853294 0 1090.0945
799.41766 150 1095.0178
960.82581 150 43.621231
429.42035 150 657.18024
657.10516 125 410.47763
80.368637 150 872.21002
531.15173 0 881.78198
494.30566 150 56.384468
633.60577 125 235.88651
900 79.030075 1057.0403
53.097984 35.000004 790.96667
924.27191 150 473.79443
305.49664 125 956.35309
901.86682 0 213.79193
702.46179 125 1116.4918
682.2196 150 687.03613
81.479256 21.362316 1200
262.91122 150 966.16241
241.17122 125 798.74048
286.23004 125 913.91345
405.23044 150 9.005928
517.44434 125 399.28699
493.51511 0 706.89386
504.07773 108.7214 500.00006
180.88173 150 198.93608
999.99994 148.11647 1154.3521
1000 100.09607 672.90826
0 148.64545 1082.4609
190.00603 150 1168.7715
306.23605 150 957.48218
900 6.4535913 1128.0299
179.59943 125 826.92432
814.56421 125 730.98718
101.95108 125 774.88031
499.02646 0 172.58595
88.795959 150 264.91721
651.79382 150 899.86609
493.26068 150 262.00797
801.13367 150 751.6507
971.50012 0 918.54333
737.45789 125 901.89832
751.40424 125 3.5675406
900 104.88564 44.864227
54.600513 45.719734 1020
890.00165 125 707.07843
208.16377 150 822.08167
12.739234 125 311.77582
366.9169 125 720.52307
477.45306 35.000004 311.32791
138.68715 125 984.65973
829.7215 140.50484 0
161.88542 125 712.76508
941.08167 0 436.21313
497.79788 150 1070.6589
158.83527 125 1176.0719
712.52258 125 1100.5974
485.73264 35.000004 241.61563
260.87549 150 758.52808
393.04575 125 440.15649
508.20297 150 918.13721
509.07211 0 153.64787
900 23.770252 26.32255
919.20764 125 867.36243
1000 69.229202 511.20535
484.65845 150 620.53967
440.37598 0 278.36102
319.38043 125 46.342712
418.44855 150 332.90118
222.16319 125 127.21178
67.845604 150 969.50085
0 3.5735519 298.65948
956.69165 0 411.20169
99.999985 86.016937 139.50388
178.85345 150 9.4119072
376.4342 150 427.37259
868.80481 150 805.47437
523.69861 0 488.17517
673.37225 150 451.70355
783.17151 150 156.50732
514.57855 0 565.90656
460.95624 150 54.119537
253.49718 150 840.67932
974.06683 125 724.36841
180.50134 125 255.72205
948.27502 58.576019 180.00003
985.11804 35.000004 901.46729
931.80487 0 65.955803
591.22308 125 941.58191
95.725327 35.000004 721.17944
41.529507 150 342.3284
84.79068 0 182.24998
385.37769 125 623.80249
885.69427 150 604.58899
702.08704 125 242.99042
997.04272 87.894012 1200
220.57379 125 427.76132
310.75491 125 134.94025
479.91919 0 404.33881
900 48.544182 615.69019
740.71667 125 598.31348
1000 119.26776 1147.6172
863.73334 125 941.28674
421.87869 124.99999 244.0696
42.992832 0 333.92197
936.00488 112.49339 1200
445.3797 150 6.4443111
560 55.878948 1172.9099
974.44092 138.59744 1200
99.999992 50.714729 1076.5568
99.999985 69.619621 568.97388
42.041496 125 190.02899
954.90765 125 385.60892
365.08353 150 456.41412
32.458817 35.000004 474.0607
1.4051219 88.856079 0
984.48346 150 585.51501
440.76627 150 1025.8348
2.6363728 125 272.23187
693.11249 125 436.18817
121.4825 125 543.49042
206.19682 150 70.438957
267.11441 150 1067.0623
568.8927 150 1108.3953
59.021103 150 604.00507
1000 140.35919 1059.7489
0 49.576408 127.39236
613.41809 150 1193.9122
105.80827 125 174.53052
440 86.728897 39.808098
406.73798 150 1086.8115
432.38193 150 180.14824
316.97684 150 302.27338
445.21463 0 156.65289
167.19063 150 238.29681
530.79028 150 582.89801
42.622261 0 938.16028
1000 11.675928 298.26334
751.44751 125 820.25793
560 2.9232063 723.7063
681.06879 150 102.74448
514.34558 0 212.04059
0 127.04547 500.37708
410.90674 125 866.26556
619.72473 125 859.30219
0 72.292603 651.08667
235.86765 150 1062.1245
381.8381 125 1068.0793
611.12744 125 305.39441
440 47.36198 55.092861
61.375854 150 474.60272
440 97.721985 664.45105
188.23007 125 847.53589
920.60413 125 787.99182
59.898491 0 616.42279
852.69879 125 951.14252
244.96562 150 752.10455
1000 70.679733 517.66443
984.77924 0 406.45532
147.48065 125 1026.229
119.88055 125 389.26938
138.94595 125 549.79077
895.13196 125 514.18134
469.27057 150 1065.3024
900 5.8242698 100.80115
162.29318 150 747.27386
418.22919 150 673.74585
99.999985 54.545094 104.66587
330.12201 125 257.77939
857.23694 128.34409 0
695.8609 150 1143.5547
778.24597 140.46083 0
931.50751 150 103.06801
314.98038 150 979.85596
51.397423 125 757.52985
719.16522 125 99.227921
0 102.06558 135.9279
283.38654 125 574.43646
794.86194 150 1048.722
284.98685 150 109.27205
324.64304 124.99999 208.39365
687.69934 125 89.166489
922.48669 130.11205 1200
922.30981 0 362.92096
451.47192 150 904.66394
668.9389 150 1067.6658
812.74408 150 1115.3822
1000 127.94228 1151.9406
839.60321 125 1013.9683
987.65912 0 218.25729
495.12595 125 348.64838
27.1278 150 371.81018
489.70105 150 657.74817
158.72519 150 604.96436
63.029816 125 877.64203
547.29626 35.000004 436.45868
96.292915 35.000004 800.26294
579.52222 150 506.80176
610.82562 150 692.55695
900 1.29626 831.91998
35.838993 35.000004 308.95825
279.34467 150 1162.8552
441.34604 0 782.83075
1000 81.457352 146.52048
0 120.57978 17.512703
165.35945 150 1197.0267
814.68811 125 644.21442
301.67758 150 524.15424
97.97641 0 584.13452
560 17.895226 1167.2539
518.6803 35.000004 944.80859
513.67194 0 229.09541
245.00627 150 932.02142
156.46387 150 848.03149
287.47067 150 424.27896
908.94165 0 262.33746
695.79541 125 467.66528
70.643288 0 338.30453
150.71864 125 583.96155
