# .PCD v0.7 - Point Cloud Data file format
VERSION 0.7
FIELDS x y z
SIZE 4 4 4
TYPE F F F
COUNT 1 1 1
WIDTH 2093
HEIGHT 1
VIEWPOINT 0 0 0 1 0 0 0
POINTS 2093
DATA ascii
0.641006 0.15 1.1046
0.177407 0.125 1.116849
0.385993 0.15 0.102304
0.024992 0.0 0.434831
0.743379 0.15 1.135372
0.744138 0.15 0.973761
0.698055 0.125 0.309133
0.412418 0.125 0.437115
0.536635 0.035 0.758747
0.457548 0.0 0.619406
0.832802 0.125 1.053399
0.48967 0.15 0.652546
0.277751 0.125 0.156924
0.743464 0.125 0.108886
0.320408 0.15 1.005995
0.499631 0.025068 0.0
0.453628 0.125 0.71772
0.809207 0.15 0.961327
0.1 0.021579 0.20033
0.791266 0.125 0.900699
0.96348 0.035 0.487685
0.093824 0.0 0.023582
0.328881 0.125 0.674681
0.683694 0.15 0.654405
0.9 0.076228 1.119491
0.543233 0.0 0.656808
0.348767 0.125 1.143103
0.81401 0.125 1.047765
0.136588 0.15 0.306051
0.312116 0.125 0.508678
0.44 0.054793 1.179452
0.698728 0.15 0.491438
0.736165 0.141547 0.0
1.0 0.002422 0.307574
0.477612 0.0 0.229202
0.890077 0.15 0.872056
0.974941 0.035 0.365638
0.586458 0.15 0.955938
0.324251 0.125 1.099188
0.44 0.082534 0.560303
0.198143 0.125 0.801492
1.0 0.148817 0.610277
0.247553 0.125 0.893606
0.156152 0.15 1.058222
0.509697 0.0 1.091858
0.647849 0.15 0.46251
0.960417 0.0 0.387176
0.470072 0.15 0.597661
0.530937 0.125 0.378356
0.807353 0.125 0.903916
0.264969 0.15 0.169944
0.190339 0.15 0.838363
0.234237 0.125 0.955625
0.587559 0.15 0.13727
0.376148 0.125 0.26181
0.894954 0.125 1.139375
0.061828 0.0 0.666
0.189686 0.15 0.953739
0.807621 0.143582 1.2
0.942471 0.0 0.089581
0.0 0.049002 0.585255
0.01193 0.035 0.456704
0.189297 0.15 0.479222
0.829211 0.15 0.223318
0.398197 0.15 0.465033
0.551621 0.125 0.288865
0.311769 0.125 0.716843
0.588516 0.125 1.044739
0.420923 0.15 0.58054
0.985245 0.0 1.146084
0.66544 0.15 0.521783
0.036486 0.0 1.049615
0.677135 0.15 0.065916
0.469924 0.125 1.014565
0.411195 0.125 0.105479
0.579891 0.15 1.101082
0.569569 0.15 0.059829
0.807791 0.15 0.482661
0.296535 0.125 1.108818
0.744271 0.125 0.759276
0.44 0.064483 0.114462
0.009398 0.15 0.417061
0.270182 0.15 1.145878
0.762041 0.125 0.200807
0.44 0.122372 0.604959
0.97862 0.084406 0.0
0.378352 0.15 0.309671
0.924239 0.15 0.283501
0.304366 0.15 0.629163
0.49887 0.15 1.088503
0.466508 0.035 0.407958
0.940368 0.035 0.815008
0.80258 0.15 0.675982
0.567927 0.15 0.319374
0.032497 0.15 0.382975
0.18653 0.125 1.174659
0.326725 0.15 0.279768
0.573638 0.125 1.019644
0.89639 0.125 0.02417
0.16956 0.15 0.737052
0.076271 0.0 0.032352
0.691784 0.125 0.530868
0.61191 0.125 0.357781
0.683044 0.130193 0.0
0.180924 0.125 0.276017
0.858068 0.125 0.625232
0.908722 0.15 0.836068
0.0 0.126871 0.197478
0.87789 0.125 0.411094
0.77279 0.125 1.109605
0.593827 0.15 0.533054
0.91231 0.0 0.639883
0.450812 0.15 0.12108
1.0 0.140082 0.678074
0.156651 0.125 0.962685
0.44 0.068766 0.657157
0.906411 0.035 0.252362
0.291915 0.125 0.892594
0.528947 0.0 0.49523
0.351823 0.15 0.935347
0.188717 0.15 1.072236
0.9892 0.035 0.370289
0.235875 0.125 1.139826
0.512255 0.0 0.76109
0.393734 0.15 0.715938
0.0 0.066141 0.635821
0.893615 0.137975 1.2
0.011625 0.0 1.175971
0.089945 0.057188 0.7
0.277701 0.15 1.147402
0.093644 0.146893 1.2
0.480523 0.0 1.192286
0.430291 0.15 0.924319
0.9 0.005744 0.092539
0.049851 0.125 0.703324
0.900434 0.125 0.472669
0.502786 0.125 0.464525
0.090199 0.15 0.222389
0.773699 0.15 0.051916
0.425935 0.125 0.615805
0.1 0.033939 0.871646
0.367271 0.15 1.159866
0.958091 0.15 0.927905
1.0 0.137576 0.686455
0.728701 0.15 1.174969
0.976784 0.108761 0.18
0.513998 0.15 0.347674
0.024122 0.0 0.698962
0.851551 0.15 0.102765
0.959579 0.0 0.613443
0.685871 0.125 0.884109
0.265115 0.15 0.693576
0.881448 0.125 0.659206
0.028391 0.0 0.091758
0.793921 0.15 0.351584
0.935849 0.0 0.325021
0.107916 0.125 0.561099
0.0 0.101719 0.099857
0.145421 0.15 0.578592
0.637145 0.125 0.017667
0.9931 0.0 1.148405
0.019279 0.15 0.788674
0.039597 0.101025 1.2
0.920351 0.020796 0.0
0.835901 0.15 0.457485
0.488359 0.15 1.177394
0.925773 0.15 1.022824
0.897588 0.15 1.090081
0.745426 0.125 0.443484
0.940814 0.15 0.09769
0.0 0.085935 0.689071
0.731344 0.125 0.222523
0.0 0.085036 1.057723
0.906128 0.035 0.394259
0.88131 0.125 0.702873
0.44 0.098772 0.610962
0.578266 0.15 0.019829
0.94699 0.125 0.212251
0.44 0.056731 0.13511
0.444389 0.0 0.452983
0.00488 0.125 0.868662
0.839691 0.125 1.024808
0.211169 0.125 0.786127
0.880657 0.125 0.450821
0.452116 0.0 1.019345
0.44 0.033709 0.577508
0.122645 0.15 0.076114
0.502926 0.0 0.739131
0.44 0.016612 0.053574
0.095934 0.035 0.372856
0.928489 0.15 1.152703
0.804209 0.125 0.077386
0.9 0.022735 0.795958
0.220326 0.15 0.916106
0.68352 0.125 0.87518
0.403501 0.125 0.082802
0.364823 0.125 0.144195
0.683862 0.125 0.698044
0.674148 0.125 0.021638
0.121845 0.125 0.198699
0.44 0.075872 0.549602
0.146097 0.125 0.807293
0.986249 0.15 0.436801
0.528993 0.107144 1.02
0.045179 0.035 0.719604
0.777479 0.125 1.173962
0.282944 0.125 0.117817
0.060514 0.125 0.419767
0.266002 0.15 0.203181
0.83887 0.15 0.163691
0.050972 0.103078 1.2
0.436662 0.15 1.025058
0.469927 0.0 0.005525
0.292963 0.125 0.355345
0.384328 0.125 0.657113
0.709719 0.15 0.325684
0.612609 0.125 0.150101
0.9 0.033902 0.671912
0.763553 0.15 0.256053
0.157481 0.125 0.623276
1.0 0.029418 0.065109
0.902823 0.15 0.115819
0.662498 0.15 0.860704
0.1 0.034339 0.946927
0.859639 0.125 0.08889
0.820995 0.125 1.122813
0.025923 0.035 0.973858
0.56 0.009327 1.110477
0.24882 0.15 0.832457
0.470252 0.0 0.650351
0.462799 0.112368 0.5
0.315787 0.125 0.980611
0.811226 0.125 1.188373
0.336024 0.15 0.540011
0.56 0.06246 0.55593
0.1 0.026596 0.823473
0.322212 0.15 1.172176
0.949918 0.15 0.308965
0.551709 0.15 0.951186
0.56 0.056284 0.101294
0.057729 0.125 0.480495
0.0 0.014517 0.011634
0.903075 0.085927 0.7
0.271927 0.15 1.191107
0.918226 0.0 1.059932
0.294875 0.125 0.675581
0.940377 0.038963 0.5
0.361693 0.15 0.627971
0.03875 0.035 0.738669
0.710887 0.125 0.510236
0.928165 0.090688 0.7
0.693018 0.15 0.216474
0.865267 0.15 1.031615
0.372059 0.15 0.989082
0.533058 0.125 0.906559
0.088154 0.035 0.839463
0.673525 0.125 0.943476
1.0 0.114257 0.592242
0.791907 0.125 0.42291
0.948133 0.15 1.106599
0.9 0.047359 0.637432
0.593005 0.125 0.400961
0.44 0.000294 0.803706
0.1 0.116807 0.022519
0.067752 0.125 0.253291
0.963302 0.125 0.984076
0.069504 0.125 0.342179
0.911337 0.15 0.564389
0.083922 0.0 0.326282
0.054127 0.125 0.278835
0.9 0.023516 1.043884
0.0 0.046831 1.170182
0.1 0.003332 0.719428
0.9 0.007814 0.454783
0.799766 0.125 0.86541
0.44 0.071513 0.54901
0.986941 0.035 0.844216
0.707326 0.125 1.096083
0.529261 0.0 0.420804
0.710121 0.15 1.188662
0.402279 0.15 0.63629
0.212769 0.15 0.52305
0.119544 0.125103 1.2
0.73727 0.125 0.156631
0.033165 0.0 0.215972
0.240027 0.125 0.037435
0.210068 0.15 0.980691
0.798123 0.15 0.071626
0.745552 0.15 0.886535
0.199806 0.15 0.477212
0.529683 0.11308 0.0
0.938037 0.15 0.90873
0.369595 0.125 1.083294
0.056168 0.114 0.18
0.125613 0.125 0.700632
0.019799 0.0 0.787187
0.846644 0.125 0.101771
0.0 0.087092 0.154958
0.026304 0.15 0.605223
0.989161 0.055966 1.2
0.0 0.012527 0.753538
0.908359 0.035 0.23332
0.443231 0.125 0.374052
0.291836 0.15 0.371147
0.44 0.024423 0.86723
0.000242 0.035 0.971722
0.581118 0.15 0.045352
0.0 0.085406 0.104535
0.0 0.140203 0.37577
0.083343 0.126286 1.2
0.449795 0.035 0.94271
0.71705 0.15 0.652943
0.506194 0.04814 0.7
0.716536 0.125 1.034109
0.916198 0.125 0.904675
0.955089 0.125 0.365786
0.456847 0.128275 1.2
0.552017 0.125 0.747441
0.44 0.124892 0.096826
0.706731 0.125 1.122391
0.931312 0.0 0.577415
0.50096 0.035 0.404005
0.932146 0.15 0.510585
0.337433 0.15 0.843014
0.0811 0.0 1.103944
0.737035 0.125 0.950519
0.423515 0.15 0.059521
0.080484 0.0 1.051082
0.878395 0.125 0.603878
0.021194 0.0 0.391652
0.38465 0.125 0.843272
0.850702 0.15 0.502813
0.740994 0.15 1.106109
0.44 0.070535 1.086221
0.910741 0.0 0.631756
0.288899 0.125 0.086003
0.020891 0.125 0.485159
0.08987 0.15 0.521332
0.707448 0.125 0.762681
0.495363 0.15 0.144198
0.919062 0.072942 0.0
1.0 0.137857 0.00975
0.293758 0.15 0.432795
0.56 0.071053 1.098498
0.1 0.016409 1.177293
0.539944 0.090044 1.2
0.770908 0.15 0.919605
0.900984 0.035 0.416188
0.207253 0.125 1.197865
0.702132 0.125 1.117145
0.0 0.082698 0.538483
0.408721 0.15 1.058075
0.587888 0.125 0.472892
0.56 0.002227 1.105675
0.979785 0.035 0.962246
0.56 0.094874 0.541841
0.959654 0.083965 1.2
0.417486 0.125 0.439011
0.441476 0.0 0.905643
0.44 0.012903 0.800856
0.289453 0.15 0.569013
0.522261 0.125 0.401603
0.026262 0.0 0.937811
0.699229 0.125 0.989322
0.474457 0.0 1.099272
0.715319 0.125 0.97714
0.1 0.030478 0.2285
0.834567 0.15 0.619307
0.0 0.096602 1.023178
0.913344 0.15 0.430403
0.06521 0.125 0.426119
0.934043 0.15 0.857464
0.9 0.10945 0.163953
0.0 0.128162 0.035496
0.56 0.023435 0.247868
0.27103 0.125 0.358776
0.007041 0.045498 1.2
0.662819 0.125 0.650197
0.449494 0.0 0.544772
0.173405 0.15 0.087313
0.44 0.064617 1.197908
1.0 0.118241 1.173101
0.564369 0.15 0.686343
0.311209 0.15 0.215826
0.475216 0.15 0.892804
0.485476 0.15 0.694037
0.894318 0.15 1.10047
0.455896 0.15 0.438949
0.283214 0.125 0.664188
0.9 0.012258 0.893331
0.1 0.02937 0.411101
0.165473 0.125 0.783811
0.057888 0.15 0.884994
0.475046 0.062578 0.18
0.752863 0.15 0.546272
0.357923 0.15 0.301099
0.328204 0.15 0.649024
0.85622 0.125 0.642083
0.56 0.100216 0.582229
0.831049 0.15 0.606995
0.943382 0.0 0.657393
0.796297 0.125 0.585031
0.155713 0.125 0.37996
0.529264 0.125 0.908967
0.601222 0.125 0.236622
0.435081 0.15 0.207423
0.65081 0.15 0.906993
0.870257 0.131514 1.2
0.44 0.079095 0.579217
0.355876 0.15 0.826408
0.0022 0.035 0.823241
0.44 0.022083 0.36174
0.973699 0.0 0.706258
0.080503 0.15 0.245958
0.830105 0.125 0.113369
0.640597 0.125 1.023244
0.367265 0.125 0.995216
0.478467 0.054069 1.2
0.581383 0.125 0.285699
0.088051 0.060967 0.7
0.051396 0.15 0.666901
0.824931 0.15 0.648519
0.481741 0.127012 1.2
0.0 0.118749 0.069017
0.729539 0.15 0.846915
0.989995 0.035 0.416671
0.44 0.005212 0.685433
0.902115 0.15 1.033562
0.378927 0.125 0.297519
0.337313 0.125 1.057168
0.0 0.030434 0.851845
0.094939 0.0 0.614779
0.467348 0.15 0.648133
0.9 0.025291 0.413774
0.779983 0.125 1.056846
0.984049 0.125 0.293804
0.100687 0.15 1.006616
0.167077 0.15 0.057038
0.122436 0.15 0.666077
0.807264 0.125 0.136012
0.981653 0.125 0.187029
0.631154 0.125 0.9156
0.341217 0.15 0.083666
0.600979 0.15 1.181579
0.916979 0.15 0.65898
0.56 0.00509 0.9438
0.001752 0.011095 1.2
0.146963 0.125 0.820065
0.387044 0.125 0.785461
0.90448 0.15 0.657345
0.053294 0.0 1.071516
0.290436 0.125 0.89312
0.9 0.041825 0.08841
0.617206 0.15 0.252638
0.447709 0.0 0.095746
0.0 0.10288 0.587515
0.037715 0.0 0.069728
0.924497 0.125 0.21259
0.229939 0.15 0.477425
0.446976 0.127075 0.0
0.53936 0.074897 1.2
0.062934 0.053648 0.7
0.764427 0.125 0.007763
0.014452 0.125 0.349515
0.021781 0.0 0.757362
0.013162 0.15 1.098162
0.063845 0.15 0.085222
0.463052 0.035 0.879251
0.857242 0.15 0.763541
0.482941 0.140648 1.2
0.1 0.046544 1.082384
0.715382 0.125 0.541946
0.387964 0.15 0.313678
0.446498 0.117384 1.02
0.44 0.01224 0.541663
0.03808 0.035 0.905642
0.56 0.011561 1.151558
0.915435 0.0 0.392061
0.44 0.101277 0.034846
0.885195 0.15 0.93509
0.44 0.092216 0.038663
0.088766 0.0 0.955899
0.010281 0.118122 0.18
0.1 0.027579 0.89798
0.000716 0.15 0.346875
0.565071 0.15 0.609096
0.21918 0.15 0.475876
0.237236 0.125 0.110367
0.50803 0.0 1.103514
0.044284 0.0 0.098652
0.088071 0.035 0.981432
0.503659 0.035 0.760475
0.129352 0.15 0.76288
0.221974 0.125 0.98671
0.44204 0.15 0.478856
0.835343 0.125 1.046768
0.037323 0.035 0.465941
0.692719 0.125 0.318815
0.987956 0.125 0.477689
0.66733 0.15 0.283141
0.458415 0.15 0.780813
0.093719 0.0 0.736003
0.173877 0.125 0.939599
0.960912 0.035 0.908421
0.03205 0.035 0.278034
0.457031 0.15 0.076309
0.51103 0.0 0.209478
0.180826 0.15 0.764743
0.366777 0.125 1.002638
0.56 0.01536 0.463316
0.56 0.034613 0.171779
0.915175 0.035 0.960452
0.1 0.047182 0.629853
0.403649 0.138699 1.2
0.794746 0.125 0.523639
0.562276 0.15 0.402712
0.67183 0.15 0.998451
0.877526 0.125 0.558799
0.132517 0.125 0.381241
0.48066 0.125 0.210554
0.058191 0.102429 0.5
0.1 0.040474 1.083031
0.684422 0.125 1.140007
0.749023 0.15 0.358309
0.44 0.030579 1.053576
0.44 0.025272 0.354362
0.530418 0.125 0.922693
0.04253 0.15 1.131108
0.907252 0.035 0.253833
0.434598 0.125 0.275818
0.64973 0.15 1.089263
0.56 0.011744 0.938617
0.511315 0.125 0.181869
0.120943 0.15 0.002401
0.9 0.008687 0.718879
0.443614 0.125 0.92097
0.572316 0.15 0.730397
0.545338 0.15 0.826325
0.093689 0.0 0.439284
0.241746 0.15 1.195423
0.632885 0.15 1.136658
0.1 0.11735 0.085756
0.160235 0.125 1.109261
0.444539 0.042639 1.2
0.743131 0.125 0.169245
0.56 0.016699 0.678483
0.514937 0.0 0.201209
0.597229 0.15 0.226489
0.87107 0.125 0.485097
0.838096 0.125 0.344377
0.906826 0.0 1.183554
0.902927 0.15 0.988608
0.783564 0.125 1.034182
0.984617 0.125 0.354154
0.654458 0.125 0.963001
0.44 0.102612 0.678029
0.548363 0.065408 0.5
1.0 0.029032 0.524018
0.56 0.075212 0.640014
0.504355 0.0 0.179189
0.767615 0.15 0.837285
0.1 0.123621 0.16034
0.670576 0.125 0.035899
0.704014 0.15 0.482803
0.451071 0.15 0.170285
0.253745 0.125 0.057751
0.537324 0.15 0.13992
0.999273 0.035 0.957151
0.44 0.083635 0.055549
0.115399 0.125 1.080976
0.966427 0.0 0.625424
0.991032 0.035 0.263978
0.484202 0.125 0.923994
0.22377 0.125 1.014062
0.521153 0.035 0.456264
0.0 0.061246 0.101369
0.41557 0.15 0.686168
0.641173 0.15 0.525548
0.764508 0.15 1.171947
0.775838 0.125 0.110631
0.472616 0.0 0.80437
0.998566 0.0 0.217483
0.44 0.048779 0.572673
0.792401 0.125 1.146495
0.968221 0.035 0.937817
0.107963 0.125 0.627371
0.642842 0.15 0.111107
0.280669 0.125 0.178041
1.0 0.114922 1.164033
0.484144 0.15 0.243015
0.90796 0.125 0.857339
0.376974 0.125 0.491979
0.527335 0.15 0.521299
0.816845 0.15 0.747255
0.738285 0.125 0.939008
0.187684 0.125 1.065702
0.406779 0.15 0.40307
0.935435 0.076828 1.2
0.525612 0.0 0.078814
0.9 0.017174 0.207355
0.36071 0.15 0.621782
0.447369 0.00014 1.2
0.181285 0.125 0.325061
0.56 0.123142 0.555205
0.29012 0.15 0.622352
0.040723 0.03188 0.0
0.990001 0.15 0.080448
0.649984 0.15 0.222884
0.689309 0.125 0.0896
0.565972 0.125 0.231472
0.339082 0.15 0.041495
0.552994 0.0 0.886427
0.150834 0.125 1.023392
0.380218 0.15 0.51431
0.972382 0.035 0.838505
0.575002 0.15 1.01396
0.733586 0.125 0.62131
0.096465 0.0 0.589161
0.706468 0.148037 0.0
0.001289 0.0 0.883776
0.079358 0.15 1.034405
0.71597 0.125 0.910431
0.185582 0.125 1.096513
0.09596 0.0 0.314617
0.190478 0.15 0.594169
0.8813 0.125 0.606754
0.44 0.116589 0.579878
0.996917 0.035 0.233729
0.333778 0.125 0.028146
0.44 0.001859 1.180979
0.324306 0.125 0.983254
0.986326 0.15 0.648226
0.45295 0.0 0.964747
0.948117 0.15 0.855775
0.141967 0.125 0.856062
0.1 0.063201 0.663366
0.809018 0.15 0.645884
0.028464 0.085591 1.02
0.848432 0.125 1.061697
0.936604 0.15 0.865477
0.82519 0.15 0.264983
0.169598 0.15 0.453877
0.56 0.02144 1.111552
0.029225 0.0 0.63983
0.531405 0.15 0.170605
0.91112 0.15 1.118186
0.962264 0.065651 1.2
0.56 0.009462 0.421041
0.062505 0.125 0.249209
0.598587 0.15 0.976538
0.163239 0.15 0.899634
0.902572 0.15 0.256762
0.538421 0.035 0.287581
0.594777 0.15 1.12847
0.36789 0.125 1.151051
0.915881 0.125 0.473409
0.172474 0.125 1.012873
0.26093 0.15 1.197764
0.790473 0.15 1.149978
0.0 0.045534 0.083475
0.688312 0.125 1.196103
0.604952 0.15 1.098003
0.0152 0.15 0.480747
0.06288 0.034894 0.0
0.9 0.1196 0.605985
0.291856 0.125 0.411691
0.481892 0.0 0.049223
0.685967 0.125 0.423077
0.839907 0.15 0.307885
0.979448 0.0 0.891357
0.511754 0.0 0.731645
0.53472 0.10915 0.18
0.598232 0.125 0.213725
0.164312 0.125 0.867894
0.255138 0.125 1.074761
0.94979 0.0 1.182283
0.086498 0.094664 1.02
0.0 0.017805 0.536261
0.558208 0.0 1.015328
0.632608 0.125 0.586459
0.1 0.061383 1.114726
0.464787 0.125 0.301973
1.0 0.134502 0.802455
0.665738 0.15 0.788197
0.756846 0.125 0.237651
0.395425 0.125 1.071019
0.086785 0.055584 0.18
0.565146 0.15 0.362366
0.486535 0.035 0.359051
0.077906 0.0 0.551795
0.119704 0.15 0.185354
0.992218 0.15 0.891325
0.880736 0.15 0.15089
0.840384 0.125 0.909198
1.0 0.057631 1.190635
0.934489 0.0 1.086597
0.008641 0.15 0.191719
0.937512 0.035 0.391682
0.529646 0.035 0.299306
0.046415 0.0 0.117133
0.501345 0.15 0.480076
0.260525 0.15 0.312514
0.921047 0.15 1.098035
0.759984 0.15 1.0791
0.706358 0.125 0.597703
0.1 0.016111 0.372045
0.56 0.048563 0.090503
0.751927 0.125 0.943816
0.993914 0.0 0.194091
0.025736 0.073855 0.18
0.650355 0.125 0.006865
0.412332 0.125 0.68818
1.0 0.038657 0.054931
0.352269 0.15 0.765148
0.425459 0.125 1.129112
0.558382 0.125 0.730297
0.911506 0.15 0.056865
0.281893 0.125 0.211843
0.483354 0.049324 0.7
0.761539 0.136667 0.0
0.956706 0.125 0.769312
0.0 0.033408 0.59743
0.577798 0.15 0.37946
0.844166 0.15 0.319345
0.675793 0.15 0.528134
0.56 0.000318 0.315393
0.979435 0.035 0.312959
0.222804 0.125 0.6841
0.560784 0.125 1.07304
0.910819 0.100583 0.5
0.44 0.033825 0.900296
0.829193 0.15 0.436843
0.441668 0.0 1.183635
0.542824 0.0 0.551194
0.56 0.019805 0.738464
0.111091 0.15 0.960524
1.0 0.127405 0.4038
0.243896 0.125 0.490104
0.298487 0.125 0.88425
0.0 0.065696 1.055685
1.0 0.10024 0.529461
0.981762 0.035 0.458446
0.33519 0.15 0.064657
0.946426 0.15 0.176238
0.717436 0.125 0.724389
0.48259 0.0 0.659931
0.909763 0.125 0.27051
0.545047 0.035 0.849761
0.458468 0.0 0.832723
0.0 0.142328 0.943127
0.497859 0.0 0.480089
0.44 0.10026 0.036091
0.823887 0.125 0.921931
0.465622 0.045333 1.2
0.367434 0.125 1.147597
0.826188 0.15 0.621083
0.56 0.109525 0.164795
0.1 0.031095 0.53938
1.0 0.064416 0.00651
0.76933 0.125 0.898082
0.048958 0.035904 0.5
0.0 0.134463 0.364599
0.750143 0.15 0.030095
0.56 0.106906 0.141253
0.641862 0.15 0.568778
0.195539 0.15 0.027731
0.1 0.082837 0.064631
1.0 0.138926 0.199101
0.719231 0.15 0.197686
0.44 0.00488 0.552149
0.607293 0.15 0.110844
0.227884 0.15 0.893838
0.566851 0.125 0.17745
0.790795 0.125 0.407629
0.744249 0.125 0.096775
0.048423 0.0 0.583758
0.33717 0.15 0.651102
1.0 0.008629 0.500325
0.907768 0.035 0.366665
0.321893 0.125 0.954056
0.226494 0.15 0.833055
0.053992 0.15 0.807424
0.900863 0.15 0.346864
0.56 0.010801 0.727379
0.908861 0.0 0.702398
0.084153 0.0 0.734584
0.551877 0.0 0.894178
0.93784 0.125 0.244224
0.676749 0.125 0.353056
0.576837 0.125 0.73687
0.138741 0.125 0.803549
0.202846 0.125 0.215102
0.630009 0.15 0.473221
0.404179 0.15 0.722904
0.23422 0.125 1.179648
0.419597 0.125 0.697932
1.0 0.044929 0.566607
0.128965 0.15 1.138607
0.486979 0.102842 0.18
0.207575 0.15 0.361737
0.552565 0.15 0.835335
0.32098 0.125 0.911891
0.372633 0.15 0.789604
0.043848 0.15 1.163313
0.43409 0.145861 1.2
0.785166 0.15 0.964019
0.713012 0.125 0.044853
0.121222 0.125 0.302595
0.980091 0.0 0.925422
0.267666 0.15 0.662019
0.525274 0.0 1.12108
0.913864 0.125 0.836414
0.639185 0.15 0.038067
0.560571 0.15 0.991059
0.634627 0.125 0.626175
0.941623 0.0 0.182101
0.44 0.02931 0.72879
1.0 0.117868 0.011648
0.615484 0.125 0.316178
0.177259 0.125 0.356729
0.352687 0.125 0.172394
0.133045 0.125 1.14366
0.511403 0.108865 1.02
1.0 0.088483 0.570099
1.0 0.001992 0.196052
0.458847 0.03438 0.0
0.0 0.067688 1.040186
0.758296 0.15 1.053265
0.859322 0.15 0.423464
0.61649 0.125 0.665163
0.352421 0.125 1.197227
0.994036 0.035 0.901349
0.513174 0.035 0.199007
0.888258 0.125 0.869382
0.893938 0.125 0.244967
0.429731 0.125 0.039673
0.073136 0.15 1.052362
1.0 0.031178 0.896379
0.374244 0.125 0.067642
0.1 0.077592 0.612911
0.446533 0.0 0.394889
0.265431 0.125 0.5333
0.384762 0.15 0.153123
0.386352 0.15 0.1967
0.54867 0.15 0.308857
0.010843 0.0 0.101281
0.037681 0.0 0.114543
0.912631 0.0 1.148332
0.767953 0.15 0.30222
0.1 0.113253 1.101909
0.619556 0.15 0.89572
0.496008 0.035 0.825505
0.838871 0.15 0.211818
0.548963 0.146151 1.2
0.917988 0.15 0.033142
0.068338 0.0 0.878223
0.99428 0.0 1.167881
0.1 0.037052 1.093744
0.358317 0.125 1.105241
0.215752 0.15 0.512837
0.9 0.045189 0.088335
0.994264 0.0 0.969054
0.492184 0.035 0.729817
0.309047 0.125 0.679125
0.64737 0.125 0.492585
0.075202 0.0 0.083874
0.811523 0.125 0.241974
0.963968 0.125 0.797639
0.480272 0.0 0.928938
0.018625 0.15 0.747371
0.999004 0.0 0.777104
0.0 0.091582 0.020488
0.91914 0.15 0.255267
0.405882 0.125 1.187366
0.05204 0.15 0.807536
0.753653 0.15 0.68742
0.166935 0.125 0.334488
0.028679 0.0 1.09834
0.379189 0.125 1.019409
0.07823 0.15 0.46881
0.56 0.049765 0.169715
0.098989 0.125 0.765933
0.972862 0.0 1.058406
0.833012 0.125 1.000201
0.652306 0.125 0.222231
0.697241 0.15 1.038703
0.00121 0.035 0.912712
0.110717 0.15 0.696056
0.987048 0.125 0.396337
0.525561 0.15 0.898367
0.098202 0.15 1.194998
0.541576 0.15 1.060097
0.345247 0.125 1.092519
0.1 0.094354 0.040514
0.426754 0.15 0.408048
0.552786 0.15 0.915759
0.557859 0.0 0.399048
0.566854 0.15 0.436527
0.16062 0.125 1.090126
0.533473 0.026709 0.0
0.086108 0.035 0.904701
0.091087 0.148817 1.2
0.316527 0.15 1.17422
0.746073 0.125 0.551968
0.533735 0.0 0.662798
0.016723 0.110186 0.5
0.053803 0.15 0.141663
0.391419 0.125 0.167455
0.418485 0.125 0.855266
0.56713 0.125 0.640006
0.76279 0.15 0.65654
0.085568 0.125 0.759412
0.445633 0.0 0.126974
0.806222 0.15 0.638292
0.9 0.001033 0.242346
0.406098 0.125 1.133082
0.515171 0.016411 1.2
0.44 0.007665 0.088311
0.496271 0.15 0.287056
0.0 0.138933 1.158401
0.034409 0.125 0.784658
0.56 0.008405 0.584001
0.24407 0.15 1.000805
0.577415 0.130519 1.2
0.167157 0.15 0.85926
0.0 0.031549 0.080424
0.92705 0.125 0.986588
0.802516 0.125 0.742216
0.630266 0.15 0.354767
0.56 0.07618 1.157082
0.761701 0.125 0.788654
0.50228 0.051388 0.0
0.758103 0.15 0.111732
0.273862 0.125 0.351991
0.1 0.004435 0.319319
0.44 0.004024 0.566818
0.0 0.137972 1.198454
0.307917 0.15 0.399219
0.84354 0.125 0.5087
0.096002 0.15 1.177851
0.0 0.131967 1.144836
0.18549 0.15 0.054983
0.276258 0.125 1.040876
0.089995 0.0 0.045161
0.060217 0.15 0.1642
0.844732 0.125 0.427882
0.548343 0.035 0.35398
0.582254 0.15 0.114664
0.56405 0.15 0.327243
0.305552 0.15 0.603673
0.015437 0.0 1.057498
0.916254 0.0 1.129748
0.447432 0.15 1.061248
0.842472 0.125 0.734632
0.44 0.033259 0.7523
0.729425 0.125 0.460206
0.44 0.076714 0.676845
0.938588 0.125 0.725848
0.941447 0.15 0.725461
0.091837 0.0 0.90937
0.732357 0.15 0.704104
0.756485 0.125 0.533984
0.200684 0.15 0.855796
0.816808 0.15 0.433555
0.980265 0.035 0.933904
0.354071 0.125 0.419785
0.56 0.010039 1.115788
0.763586 0.125 0.079231
0.60432 0.125 1.077545
0.251921 0.125 0.792851
0.519328 0.035 0.208163
0.601937 0.125 0.042946
0.997112 0.15 0.614623
0.9 0.065183 0.668739
0.504396 0.0 1.061217
0.029795 0.15 0.118192
0.66669 0.125 0.503514
0.277921 0.15 1.129723
0.084113 0.15 0.145656
0.1 0.034405 0.502958
0.322402 0.15 1.1685
0.9 0.013297 0.642547
0.655162 0.125 0.779931
0.9 0.01316 0.230514
0.66259 0.15 0.740231
0.250138 0.125 0.354228
0.305588 0.15 0.961095
1.0 0.125083 0.802051
0.150981 0.15 0.410215
0.090919 0.0 0.140138
0.654574 0.15 1.087815
0.56 0.018776 0.099338
0.853249 0.125 0.350287
0.9 0.121693 1.185843
0.9 0.015425 0.338345
0.429195 0.125 0.726684
0.202544 0.125 0.177545
0.822605 0.125 1.166848
0.805582 0.125 0.033659
0.260959 0.125 0.914397
0.079134 0.011946 0.0
0.469606 0.035 0.873894
1.0 0.128728 0.862125
0.224813 0.125 0.933874
0.214174 0.15 0.626514
0.038699 0.096454 0.0
0.254931 0.125 1.184085
0.064992 0.15 0.971415
0.956983 0.035 1.002923
0.661862 0.125 1.011272
0.414846 0.127297 1.2
0.111809 0.15 0.605556
0.38177 0.15 0.213484
0.697263 0.15 0.656038
0.02696 0.0 0.711815
0.890608 0.15 0.667625
1.0 0.112023 0.631729
0.591716 0.15 0.697922
0.278399 0.137821 0.0
0.0 0.086789 0.612412
0.376178 0.15 0.797326
0.55334 0.0 0.108246
0.960312 0.035 0.341541
0.56 0.011794 0.708288
0.817797 0.15 0.77425
0.622529 0.15 1.068685
0.681196 0.15 0.262945
0.07459 0.035 0.243016
0.078138 0.15 0.854267
0.33613 0.15 0.425072
0.662724 0.15 0.290456
0.472487 0.0 0.879988
0.47605 0.15 1.003019
0.58729 0.15 0.630145
0.902027 0.0 0.299121
0.44 0.026036 0.14342
0.413751 0.125 0.800062
0.719365 0.15 0.607419
0.303383 0.15 1.07811
0.447916 0.15 0.011314
0.970486 0.125 0.355043
0.426191 0.125 0.171064
0.281954 0.15 1.138254
0.255542 0.15 0.565436
0.465739 0.035 0.351101
0.574173 0.125 1.057033
1.0 0.019942 0.004357
0.632138 0.15 0.341304
0.595167 0.125 0.775755
0.320062 0.127763 0.0
0.1 0.09222 1.061134
0.998352 0.125 0.78566
1.0 0.013898 0.197691
0.44 0.052965 0.693746
0.443674 0.15 0.286455
0.201424 0.15 0.398753
0.9 0.031671 0.425598
0.849067 0.125 0.653032
0.804615 0.125 0.2625
0.886693 0.15 0.206205
0.496641 0.0 0.412199
0.835737 0.15 1.037913
0.478984 0.0 0.429362
0.842338 0.15 0.244164
0.960413 0.15 0.157942
0.0 0.0453 1.03662
0.1 0.072475 0.043012
0.277143 0.125 0.686496
0.505042 0.125 0.377025
0.169955 0.15 0.790333
0.055361 0.0 1.158559
0.08816 0.035 0.746716
0.1 0.050833 1.060672
0.1 0.063564 0.059353
0.188878 0.15 1.056729
0.362545 0.15 1.14056
0.539047 0.0 1.056381
0.406741 0.125 0.037128
0.083075 0.035 0.456103
0.951198 0.0 0.59216
0.488336 0.125 0.276928
0.480191 0.046248 1.02
0.095894 0.125 0.807627
0.45801 0.125 0.706283
0.587848 0.125 0.988539
0.720425 0.15 0.470226
0.500669 0.042977 0.5
0.015495 0.0 0.820768
0.652744 0.15 0.029757
0.498349 0.15 1.020474
0.203885 0.125 0.847999
0.44 0.120112 0.064143
0.56 0.029992 0.589782
1.0 0.001111 0.634697
0.185207 0.15 1.162181
0.1 0.050816 0.569654
1.0 0.128324 0.745773
0.56 0.123529 1.043629
0.155663 0.125 0.379711
0.988417 0.107684 0.5
0.9 0.015278 0.445137
0.924817 0.027404 1.2
0.56 0.003784 0.965227
0.379087 0.15 0.930636
0.312039 0.15 0.119717
0.843653 0.130896 1.2
0.9 0.017203 0.659965
0.541679 0.035 0.396182
0.274924 0.125 0.931811
0.669099 0.15 0.644661
0.445934 0.15 0.466111
0.959431 0.035 0.385297
0.668609 0.125 0.187105
0.125733 0.125 1.006296
0.411953 0.125 0.472899
0.559976 0.0 0.219107
0.602074 0.15 0.0348
0.71673 0.125 0.397967
0.646979 0.125 0.661133
0.86931 0.125 0.303046
0.492187 0.125 0.909851
0.979816 0.0 0.223756
0.147686 0.125 0.043744
0.44 0.116073 1.133828
0.0 0.133803 0.860275
0.549303 0.087698 0.0
0.499873 0.125 0.302178
0.689517 0.15 0.512419
0.667574 0.125 0.914428
0.869289 0.125 1.141589
0.932153 0.0 0.836979
0.035102 0.15 1.119626
0.942257 0.15 0.478987
0.9 0.123295 0.102658
0.023627 0.15 0.050176
0.0 0.064154 0.648824
0.617144 0.125 0.108618
0.153293 0.125 0.198055
0.711131 0.15 1.162603
0.943323 0.035 0.874799
0.233066 0.125 0.181588
0.846402 0.125 0.865294
0.9 0.021856 0.950546
0.148998 0.125 0.479857
0.9 0.100629 0.617248
0.702452 0.15 0.981624
0.9 0.103289 1.056114
0.0 0.084206 0.099462
0.538333 0.125 0.435316
0.637965 0.15 0.19909
0.47854 0.0 0.661391
0.1 0.080733 0.100507
0.733779 0.125 0.341771
0.084189 0.125 0.7795
0.651443 0.15 0.617161
0.63027 0.125 0.034336
0.9 0.094475 1.086058
0.372919 0.15 1.007154
0.492438 0.0 0.31416
0.9 0.032399 0.058862
0.198976 0.15 0.176041
0.629806 0.125 0.621002
0.295587 0.15 1.068036
0.38119 0.125 0.010498
0.896653 0.125 0.862001
0.535055 0.15 0.44731
0.592287 0.15 0.068554
0.707186 0.125 0.497803
0.210269 0.125 0.633546
0.696224 0.144968 1.2
0.411697 0.15 1.172244
0.206994 0.15 1.098476
0.566312 0.15 0.847624
0.633447 0.125 0.97156
0.676109 0.15 0.900406
0.613654 0.125 0.596633
0.091448 0.15 0.405334
0.999246 0.089205 0.18
0.829598 0.15 1.130458
0.1 0.10842 0.144954
0.418854 0.125 0.472887
0.599175 0.125 1.011221
0.647731 0.15 0.834987
0.097072 0.033651 0.0
0.037846 0.035 0.255255
0.082512 0.125 0.747313
0.998745 0.020024 1.2
0.77674 0.125 0.083803
0.83601 0.15 1.150127
0.789838 0.125 0.96116
0.034508 0.125 0.400124
0.1 0.047148 0.54586
0.306712 0.15 0.821907
0.227641 0.125 0.892841
0.771185 0.15 0.432138
0.527089 0.0 0.782692
0.644337 0.125 0.411166
0.522206 0.0 0.694546
0.9 0.024415 1.045562
0.014377 0.0 0.430172
0.554268 0.125 0.445607
0.709261 0.15 1.001611
0.1 0.080648 0.114274
0.449433 0.11879 0.5
0.095579 0.0 0.277597
0.835491 0.125 1.111941
0.816752 0.15 1.056221
0.311245 0.15 0.083843
0.119011 0.125 0.832485
0.450998 0.15 1.094826
0.183717 0.125 0.388678
0.339141 0.15 0.309597
0.423169 0.15 0.429252
0.035728 0.0 0.569196
0.985385 0.0 0.566631
0.90957 0.083507 0.0
0.269875 0.15 0.126245
0.704809 0.15 0.080188
0.253193 0.15 0.224594
0.037525 0.15 1.098811
0.702246 0.125 0.514187
0.129207 0.15 0.974415
0.414239 0.125 0.229769
0.487682 0.113205 1.02
0.543612 0.035 0.946856
0.901559 0.125 0.311414
0.650704 0.125 0.515953
0.56 0.010528 0.875659
0.566268 0.125 0.015378
0.534047 0.125 0.200252
0.093614 0.125 0.859426
0.20312 0.15 0.887727
0.746296 0.125 0.700929
0.390529 0.15 0.243107
0.367846 0.15 0.733364
0.56 0.021309 0.825421
0.077276 0.0 0.256838
0.925316 0.0 0.113311
0.072986 0.0 0.875322
0.041047 0.15 1.089669
0.274549 0.125 0.18473
0.9 0.015731 0.667904
0.09311 0.035 0.253925
0.580942 0.15 0.772101
0.458515 0.15 1.132667
1.0 0.119451 0.524264
0.340943 0.125 0.614382
0.782039 0.125 0.465077
0.800162 0.15 0.401411
0.038436 0.15 1.080676
0.801857 0.15 0.263847
0.29032 0.15 0.121916
0.019153 0.15 0.121019
0.866035 0.125 0.014799
0.468542 0.035 0.925241
0.452933 0.15 0.164413
0.453516 0.116464 0.18
0.0 0.074375 1.168772
0.782778 0.142761 1.2
0.422431 0.125 0.276491
0.077439 0.15 0.9448
0.031825 0.125 0.995253
0.776092 0.125 0.00811
1.0 0.023797 0.718536
0.335315 0.125 0.033723
0.1 0.002491 0.982024
0.535174 0.125 0.352525
0.35576 0.15 0.739622
0.430355 0.15 0.306346
0.527381 0.0 0.677219
0.711023 0.15 0.634653
0.632206 0.15 0.175548
0.0 0.007684 1.115258
0.35301 0.125 0.495408
0.180225 0.15 0.423628
0.091672 0.15 0.235149
0.44 0.103912 0.07859
0.781105 0.125 0.956089
0.865638 0.125 1.075414
0.611659 0.125 0.837948
0.158517 0.15 0.972089
0.177219 0.125 1.135425
0.957007 0.15 0.064243
0.199277 0.15 0.916184
0.33343 0.15 1.092498
0.826589 0.125 0.750634
0.691904 0.125 0.989577
0.548771 0.0 0.363509
0.2828 0.146336 0.0
0.296544 0.15 0.511368
0.554136 0.0 0.447226
0.584112 0.15 0.508692
0.135578 0.125 0.52359
0.061985 0.15 0.669214
0.674608 0.15 0.334982
0.622774 0.15 1.105352
1.0 0.025309 0.916367
0.092032 0.15 1.010055
0.457927 0.0 0.822618
0.9 0.123595 1.022359
0.490881 0.15 0.242074
0.44 0.054625 0.14849
0.79722 0.15 0.820494
0.630106 0.15 0.88207
0.741082 0.15 0.04697
0.876083 0.125 0.150112
0.1 0.113215 0.092085
0.761964 0.125 1.013795
0.929595 0.035 0.916171
0.353915 0.15 0.678275
0.263373 0.15 0.271189
0.620809 0.125 0.440947
0.56 0.013454 0.027192
0.510364 0.035 0.863126
1.0 0.135518 0.925518
0.941333 0.15 0.805667
0.093167 0.125 1.009082
0.753451 0.15 0.444057
0.457551 0.0 0.349419
0.241675 0.15 0.688396
0.153482 0.125 0.766552
0.477899 0.127509 0.0
0.947262 0.035 0.88119
0.481496 0.09468 1.02
0.510557 0.025784 0.0
0.526986 0.035 0.96647
0.581696 0.15 0.312167
0.505705 0.15 1.049029
0.303726 0.15 0.28978
0.475505 0.0 0.078853
0.439554 0.125 0.68266
0.986636 0.15 0.139608
0.416268 0.15 1.162194
0.679575 0.15 0.993216
0.1 0.020813 1.09365
0.972775 0.112913 0.7
0.441826 0.15 0.258664
0.865779 0.15 0.332942
0.56 0.012586 0.849612
0.927913 0.15 0.149335
0.186401 0.125 0.438159
0.880043 0.15 0.873561
0.472995 0.090441 0.0
0.56 0.058336 1.04724
0.455581 0.0 0.363528
0.526636 0.0 0.010518
0.643809 0.15 0.44813
0.831264 0.125 0.064567
0.752194 0.15 1.028635
0.44 0.113739 0.588398
0.834617 0.15 0.054503
0.083187 0.0 0.59016
0.300914 0.125 1.109674
0.197866 0.125 0.314588
0.018639 0.15 1.061739
0.833862 0.125 0.526971
0.490682 0.125 0.39327
0.746078 0.15 0.111995
0.665898 0.15 0.88569
0.9 0.027061 0.500507
0.44 0.051807 1.197864
1.0 0.104225 0.02545
0.02042 0.125 0.19989
0.149247 0.15 0.24513
0.305105 0.125 1.151636
1.0 0.0567 1.183745
0.232141 0.125 1.154931
0.44 0.002682 1.149697
0.415783 0.125 0.473277
0.128885 0.15 0.909905
0.868717 0.125 1.140735
0.562594 0.125 1.096061
0.0 0.054534 0.537861
0.001711 0.035 0.810656
0.56 0.076211 1.05586
0.468046 0.0 0.570053
0.204828 0.125 1.129981
0.48437 0.093531 1.2
0.56 0.104701 1.081444
0.0 0.133846 0.099039
0.189292 0.15 0.567552
0.204398 0.15 1.015099
0.0 0.023902 0.717219
0.947458 0.0 0.558267
0.476686 0.125 0.79842
0.636555 0.125 0.323292
0.073157 0.061987 1.02
0.060141 0.0 0.307832
0.965005 0.0 0.302014
0.659607 0.129273 1.2
0.038659 0.0 1.013358
0.546343 0.046496 0.18
0.151555 0.125 0.163037
1.0 0.132151 0.823046
0.1 0.027215 1.046811
0.900643 0.15 1.19502
0.56 0.034229 0.55726
0.455761 0.15 0.172229
0.985403 0.0 0.897319
0.44 0.038878 1.130302
0.572682 0.125 0.494576
0.483277 0.0 1.184351
0.902278 0.0 0.320364
0.076585 0.0 1.16998
0.922516 0.0 0.042762
0.052448 0.144878 1.2
0.400268 0.125 0.585662
0.259079 0.15 0.506979
0.740232 0.15 0.839489
0.904282 0.035 0.27788
0.90613 0.0 0.600039
0.512379 0.035 1.008339
0.56 0.110462 0.502281
0.0 0.019983 0.190007
0.910883 0.125 0.223915
0.56 0.104732 1.068181
0.015578 0.035 0.826984
0.526679 0.0 0.461501
0.44 0.049976 0.071063
0.557219 0.035 0.735791
0.963343 0.0 0.700911
0.730458 0.15 0.326125
0.943821 0.035 0.266876
0.507209 0.15 0.449736
0.237419 0.15 0.214599
0.553354 0.15 0.390703
0.471945 0.0 0.69954
0.020987 0.0 0.12202
0.577544 0.15 0.840656
0.965152 0.15 0.818734
0.553758 0.0 0.53319
0.376824 0.125 0.29862
0.655645 0.15 0.856843
0.1 0.098763 0.623407
0.827461 0.15 0.225743
0.959396 0.15 0.251484
0.237592 0.15 0.192504
0.056816 0.035 0.789349
0.532534 0.15 0.221446
0.31773 0.15 0.858437
0.655203 0.15 0.509158
0.324101 0.15 1.008934
0.767983 0.125 0.113391
0.259211 0.125 0.537225
0.965656 0.125 0.187412
0.442632 0.15 0.860456
0.092162 0.0 0.532712
0.331746 0.125 0.608884
0.415413 0.15 0.044705
0.979311 0.088535 1.2
0.74872 0.125 0.762969
0.671739 0.15 0.40117
1.0 0.042828 0.177899
0.56 0.092308 0.567063
0.978701 0.15 0.305263
0.1 0.060709 1.151234
0.370703 0.15 0.853348
0.656717 0.125 1.010588
0.635363 0.15 1.070189
0.686145 0.15 0.402985
0.738973 0.15 1.172343
0.286281 0.125 0.758929
0.696299 0.15 0.737775
0.955197 0.035 0.943876
0.088851 0.15 0.728632
0.781934 0.125 1.105219
0.491622 0.15 0.021115
0.689725 0.125 0.147544
0.337681 0.15 0.198782
0.9 0.069962 0.607793
0.591141 0.125 0.482586
0.608139 0.125 0.849381
0.578604 0.15 0.35797
0.014726 0.0 0.109206
0.026482 0.0 0.178663
0.416212 0.125 0.544136
0.500752 0.125 0.813656
1.0 0.088822 1.045623
0.808924 0.15 0.788646
0.878693 0.15 0.031373
0.44 0.026782 0.295824
0.274441 0.15 0.002676
1.0 0.117358 0.529185
1.0 0.008772 0.10555
0.056393 0.053024 1.2
0.56 0.032974 0.586975
0.256891 0.125 0.919883
0.795226 0.15 0.562693
0.388778 0.15 0.041514
0.842773 0.15 0.808067
0.515533 0.15 0.011887
0.841363 0.125 0.499651
0.821409 0.15 0.57552
0.487363 0.125 0.390419
0.750876 0.125 0.359271
0.719259 0.15 0.915527
0.452161 0.0 0.262621
0.2606 0.15 0.568665
0.22555 0.15 1.127445
0.467453 0.0 0.066851
0.614382 0.125 0.766237
0.517703 0.055469 0.5
0.704608 0.125 0.745462
0.9 0.013342 0.271351
0.09023 0.15 1.06158
0.825329 0.125 0.425689
0.703482 0.125 0.75689
0.967804 0.15 0.216554
0.195885 0.125 0.642014
0.542055 0.15 0.743852
0.374264 0.125 0.650449
0.406918 0.15 0.12418
0.971506 0.0 1.017261
0.0 0.002104 0.924782
0.692217 0.125 0.36634
0.554452 0.035 0.403353
0.735787 0.15 0.928984
0.43623 0.125 0.187491
0.0 0.032468 1.071548
0.05181 0.125 0.815938
1.0 0.127816 0.62727
0.780996 0.15 0.930122
0.62456 0.15 0.812295
0.551023 0.0 0.674399
0.175129 0.15 1.170216
0.512836 0.15 0.915699
0.807508 0.15 0.968364
0.008917 0.063667 0.7
0.599153 0.15 0.01782
0.444072 0.125 0.477537
0.642771 0.15 0.091845
0.192467 0.15 0.39804
0.520924 0.15 0.637596
0.237825 0.125 1.19308
0.44 0.001625 1.092805
0.968838 0.035 0.714729
0.417695 0.15 1.095449
0.400398 0.125 0.662386
0.783639 0.125 0.933491
0.758519 0.125 0.312496
0.663718 0.133214 1.2
0.409055 0.125 0.610763
0.963199 0.125 0.834731
0.421245 0.125 0.026375
1.0 0.028329 0.249804
0.937084 0.0 0.727483
0.1 0.023317 0.761038
0.56 0.074227 1.029525
0.782193 0.125 0.247339
0.128491 0.15 1.087416
0.685032 0.15 0.499456
0.756926 0.15 0.750252
1.0 0.100866 1.124801
0.209928 0.135759 1.2
0.374594 0.125 1.119211
0.323195 0.125 0.053595
0.487564 0.15 0.509075
0.525714 0.15 0.146386
0.016022 0.125 0.809924
0.295119 0.125 0.168437
0.963914 0.0 0.013598
0.825092 0.125 0.278552
0.684017 0.125 0.806652
0.361787 0.15 0.975694
0.360032 0.15 0.50309
0.485659 0.066092 0.7
0.00443 0.035 0.904526
0.56 0.124928 1.059457
0.408237 0.125 1.171118
0.186095 0.125 0.058182
0.937102 0.035 0.448056
0.086658 0.125 0.271761
0.980134 0.15 0.513248
0.546734 0.0 0.954858
0.1 0.061569 0.560654
1.0 0.11408 0.037522
0.9 0.001449 0.068848
0.242248 0.125 1.106749
0.813851 0.15 0.630175
0.70563 0.125 0.688733
0.248182 0.125 0.958234
0.123237 0.15 0.627741
0.025279 0.038094 1.02
0.01084 0.125 0.892895
0.318073 0.125 0.658551
0.887301 0.125 0.893208
0.0 0.104572 0.114599
0.767893 0.15 0.001081
0.628577 0.125 0.487531
0.527343 0.15 0.127986
0.528018 0.0 0.540392
0.938242 0.0 0.755981
0.995309 0.026313 0.0
0.777628 0.15 0.807721
0.434157 0.15 0.326363
0.448327 0.0 0.629556
0.095764 0.035 0.858784
0.098769 0.0 0.518458
0.932703 0.15 0.295636
0.276471 0.15 0.591202
0.03852 0.0 0.949535
0.063633 0.125 0.847469
0.368749 0.125 0.794539
0.1 0.052283 1.160657
0.617731 0.15 0.904896
0.528849 0.0 0.460274
0.527572 0.15 0.51089
0.697525 0.15 1.129805
0.474891 0.046404 0.18
0.910922 0.0 0.813706
0.86207 0.125 0.446431
0.107825 0.15 0.134441
0.728328 0.125 0.348904
1.0 0.049336 0.098002
0.966755 0.023856 0.0
0.913873 0.0 0.94802
0.9 0.004639 0.333523
0.970118 0.033708 1.2
0.350595 0.125 0.612414
0.518858 0.035 0.939061
0.818059 0.15 0.236275
0.52291 0.0 0.931709
1.0 0.133841 0.330944
0.0 0.103005 0.125978
0.958791 0.15 0.615491
0.641981 0.15 0.951428
0.530768 0.066323 1.2
0.108519 0.15 0.73247
0.447983 0.15 0.141891
0.1 0.090962 0.002366
0.03931 0.15 0.684418
0.747841 0.125 1.183513
0.11446 0.125 0.463394
0.961528 0.125 0.931251
0.456556 0.098253 0.5
0.44 0.009162 0.552734
0.786311 0.125 0.80613
0.68016 0.125 0.792508
0.12498 0.15 0.837635
0.108031 0.15 0.900807
0.735539 0.125581 1.2
0.056533 0.125 0.401788
0.9 0.02657 1.058517
0.951908 0.15 0.533827
0.850828 0.15 0.742036
0.943698 0.125 0.744479
0.071639 0.091702 0.7
0.746819 0.15 0.551164
0.346491 0.15 1.01105
0.085389 0.124598 0.18
0.56 0.004357 0.357582
0.102207 0.125 0.964454
0.298831 0.125 0.380434
0.325085 0.15 0.665666
0.538225 0.0 0.143971
0.781083 0.125 0.408806
0.126768 0.15 0.921104
0.002646 0.0 1.009384
0.964038 0.125 0.789571
0.0 0.063486 0.661286
0.821527 0.125 0.71151
0.477604 0.06231 0.7
0.565503 0.15 0.99156
0.058397 0.103171 1.02
0.9 0.05052 0.04203
0.221436 0.125 0.163463
0.648555 0.15 0.759375
0.489452 0.035 0.339901
0.08783 0.125 0.31221
0.456688 0.035 0.714831
0.1 0.010108 0.029872
0.013237 0.125 0.984363
0.364288 0.125 0.898458
0.558452 0.142228 0.0
0.073222 0.035 0.41599
0.791727 0.125 1.037337
0.56 0.08006 1.175561
0.728677 0.125 0.303945
0.477565 0.035 0.299633
0.760515 0.125 0.67188
0.560044 0.15 0.038635
0.687644 0.125 0.505892
0.773472 0.125 0.678661
0.0 0.137356 0.352035
0.354358 0.15 0.3076
0.021737 0.035 0.333656
0.44 0.025274 1.148329
0.042264 0.035 0.223408
0.442942 0.15 1.035032
0.215496 0.125 0.576217
0.678613 0.125 0.662348
0.883504 0.15 1.01658
0.839035 0.15 0.951823
0.711272 0.125 0.514067
0.019784 0.0 0.336679
0.323047 0.15 0.160072
0.223862 0.125 0.677349
0.331071 0.15 0.388237
0.51048 0.15 0.601688
0.222285 0.15 0.485898
0.828388 0.125 0.351638
0.288012 0.15 0.453848
0.035135 0.15 0.910056
0.539308 0.0 0.877168
0.0 0.079923 1.099967
0.9 0.003688 0.762618
0.35809 0.125 0.4014
0.038083 0.15 0.866561
0.998893 0.0 0.560594
0.171502 0.125 1.158719
0.854377 0.125 0.683654
0.529437 0.15 0.83883
0.900946 0.035 0.872685
0.08582 0.0 1.095716
0.925114 0.15 0.619252
1.0 0.139175 0.027633
0.051819 0.0 0.880196
0.593493 0.15 0.93182
0.681312 0.15 0.155055
0.963708 0.035 0.39131
0.281922 0.125 0.224336
1.0 0.04759 0.149976
0.0 0.137667 0.070887
0.346498 0.125 0.875187
0.95641 0.0 0.754704
0.86963 0.15 0.213768
0.729495 0.15 0.21066
0.769184 0.15 0.61945
0.993202 0.15 0.162703
0.861363 0.15 0.130325
0.386888 0.125 0.229526
0.600827 0.125 1.144459
0.005069 0.125 0.264101
0.924982 0.15 0.425881
0.885691 0.125 0.195982
0.897894 0.15 0.654095
0.769459 0.15 0.165878
0.5103 0.15 1.030446
0.825113 0.125 0.372255
0.904227 0.15 0.248343
1.0 0.033498 0.514338
0.630924 0.15 0.323575
0.015851 0.024595 0.0
0.689929 0.125 0.884132
0.072158 0.15 0.944542
0.418826 0.15 1.090626
0.554733 0.125 0.420784
0.196746 0.125 0.675066
0.23937 0.125 0.107482
0.917003 0.125 0.22209
0.331359 0.15 0.158467
0.395694 0.15 0.508598
0.131197 0.15 0.366442
0.142767 0.15 0.110784
0.863329 0.15 0.095658
0.167945 0.125 0.699658
0.945733 0.125 1.000816
0.284112 0.125 0.046506
0.56 0.108045 0.035023
0.341611 0.125 0.676114
0.179857 0.15 0.08678
0.460061 0.15 0.378309
0.076512 0.036952 1.2
0.060009 0.15 0.715575
0.44 0.109833 0.535319
0.062597 0.125 0.363238
0.448351 0.15 0.565991
0.8864 0.15 0.164853
0.85582 0.125 1.055276
0.951844 0.0 1.102513
0.92908 0.15 1.005893
0.639275 0.125 0.255171
0.523624 0.0 0.203692
0.1 0.000959 0.685088
0.947795 0.15 0.832949
0.913864 0.062829 0.7
0.45119 0.15 0.450938
0.383543 0.125 0.823756
0.443906 0.15 0.096713
0.667468 0.125 0.062338
0.524244 0.0 0.727013
0.320505 0.125 1.118289
0.122603 0.15 0.492079
0.56 0.119378 0.169237
0.1 0.054447 0.103238
0.545596 0.035 0.728721
1.0 0.001422 0.476
0.883658 0.125 0.729166
0.649378 0.15 0.744238
0.036986 0.125 0.754808
0.14202 0.125 0.282104
0.236711 0.15 0.069719
0.209663 0.125 0.640594
0.237351 0.15 1.081475
0.767138 0.15 0.826807
0.933553 0.15 0.937917
0.683538 0.15 0.933911
0.156699 0.15 0.785269
0.055097 0.15 0.200694
0.906123 0.100178 0.5
0.56 0.028145 0.78334
0.865462 0.125 0.081693
0.545422 0.15 0.787478
0.967032 0.15 0.709236
0.9 0.035292 0.508729
0.796992 0.125 0.301045
0.248861 0.125 1.06311
0.433824 0.125 0.112188
0.902921 0.094048 1.02
0.157643 0.125 0.058431
0.655452 0.125 0.277788
0.0 0.133454 0.986793
0.544323 0.0 0.205776
0.488151 0.125 0.716711
0.486884 0.0 0.729062
0.147396 0.125 0.312072
0.048414 0.15 0.12688
0.997862 0.15 0.267099
0.662821 0.15 0.412359
0.148106 0.15 0.091131
0.9 0.074842 0.094276
0.347107 0.15 0.733788
0.56 0.052454 0.541202
0.623456 0.15 0.40117
0.782148 0.125 0.964381
0.077685 0.0 0.489785
0.993728 0.035 0.324625
0.573328 0.15 0.324328
0.1 0.059992 0.630926
0.510846 0.0 0.012315
0.858384 0.125 0.778119
0.365591 0.15 0.308931
0.57194 0.125 0.624713
0.477124 0.035 0.981815
0.0 0.138087 0.746928
0.346697 0.125 0.357368
0.050568 0.15 0.427202
0.530446 0.125 0.927684
0.872625 0.15 0.543486
0.952885 0.073005 0.7
0.803473 0.125 0.70286
0.045671 0.0 0.37279
0.578442 0.15 0.557282
0.971594 0.125 0.972825
0.21166 0.15 1.150648
0.9 0.103534 0.00215
0.89893 0.15 1.151476
0.1 0.075847 0.178316
0.937008 0.035 0.421442
0.453932 0.15 0.713796
0.050472 0.125 0.321203
0.39475 0.125 0.812177
0.56 0.09318 0.054443
0.321519 0.13048 1.2
0.11687 0.125 0.901502
0.552919 0.15 0.015685
0.33854 0.125 0.794495
0.875104 0.15 0.042216
0.0 0.047454 0.630535
0.0 0.028147 0.386534
0.475706 0.035 0.322866
0.84543 0.15 0.784726
0.815443 0.15 0.307532
0.1 0.113248 0.634104
0.9 0.097224 0.16661
0.207562 0.15 0.156844
0.264005 0.125 0.764573
0.915513 0.035 0.757418
0.452593 0.0 1.138377
0.715328 0.125 1.057978
0.931955 0.15 0.023111
0.56 0.045176 0.561963
0.572596 0.125 0.464598
0.44 0.105708 1.063996
0.9 0.085456 0.5403
0.56 0.079919 1.155347
0.177238 0.125 0.1874
0.831362 0.15 0.69826
0.032427 0.105324 0.18
0.127357 0.15 0.894269
0.818059 0.15 1.052636
0.012421 0.15 0.079795
0.602779 0.15 0.774692
0.21101 0.15 0.993222
0.061609 0.0 0.672153
0.1 0.017989 0.164036
0.232624 0.125 0.054588
0.203579 0.125 1.067987
0.718877 0.15 0.973912
0.039142 0.15 1.006275
0.067014 0.0 0.578933
0.91948 0.0 0.812817
0.1 0.105629 0.015575
0.517872 0.125 0.91408
0.381944 0.125 0.847279
0.153765 0.125 0.348489
0.194752 0.15 0.679582
0.90154 0.15 1.189963
0.843104 0.144613 1.2
0.163241 0.15 0.782049
0.974492 0.0 1.195093
0.31422 0.125 0.622977
0.595746 0.125 0.196691
0.269507 0.15 0.351731
0.517722 0.15 1.088309
0.472511 0.15 0.643438
0.77846 0.125 0.406207
0.271021 0.15 0.677728
1.0 0.088496 1.188133
0.850666 0.15 1.184735
0.43468 0.15 0.236836
0.264296 0.125 1.090955
1.0 0.027752 0.190241
0.966905 0.15 0.060463
1.0 0.129325 0.693855
0.9 0.10068 1.158358
0.17856 0.15 0.164413
0.480429 0.034635 0.0
1.0 0.085661 0.112669
0.9 0.047562 0.178318
0.988753 0.0 0.520477
0.05106 0.035 0.405267
0.220261 0.125 0.073317
0.140768 0.125 0.81021
0.55612 0.125 0.475404
0.9 0.024734 0.82653
0.8707 0.125 1.184511
0.448878 0.0 0.955365
0.208373 0.125 0.46756
0.640986 0.15 0.299
0.069613 0.09854 1.2
0.803076 0.15 0.083096
0.382783 0.125 1.005844
0.507788 0.15 0.413617
0.721024 0.125 0.712011
0.190921 0.125 0.068066
0.44 0.089743 0.10895
0.56 0.037387 0.658254
0.951548 0.0 1.07699
0.13303 0.15 0.294208
0.179206 0.135122 0.0
0.539188 0.0 0.723552
0.461067 0.0 1.119346
0.12097 0.125 0.00154
0.78592 0.125 0.248774
0.925878 0.107719 0.7
0.530129 0.15 0.647384
0.074741 0.0 0.808348
0.042755 0.125 0.40345
0.514345 0.125 0.974666
0.609514 0.125 1.134664
0.696238 0.125 1.062155
0.044872 0.007443 0.0
0.559421 0.108154 0.7
0.447909 0.15 1.024292
0.805459 0.125 0.752696
0.234611 0.15 0.852492
0.279548 0.125 0.266743
0.484742 0.125 0.93962
0.901281 0.125 0.184078
0.32103 0.15 0.553839
0.257584 0.15 0.1617
1.0 0.103894 0.570508
0.515127 0.0 0.201933
0.096683 0.13517 0.0
0.950942 0.125 0.366539
0.842411 0.15 1.011105
0.125731 0.125 1.128459
0.226176 0.125 0.119876
0.560171 0.125 0.575112
0.843171 0.15 0.904406
1.0 0.050138 1.159952
0.07218 0.125 0.429188
0.882899 0.15 0.726229
1.0 0.146619 1.184658
0.854728 0.15 1.015292
0.0 0.088678 0.591402
0.504271 0.15 0.206825
0.268976 0.125 0.705045
0.281683 0.15 0.821559
0.019202 0.0 0.184311
0.9 2e-06 0.049499
0.049027 0.15 0.845357
0.44 0.111742 0.062638
0.072272 0.0 0.55941
0.414889 0.125658 0.0
0.839217 0.15 0.517266
0.157975 0.125 0.52919
0.879245 0.15 0.931976
0.210822 0.125 0.631073
0.44 0.016796 0.199368
0.544622 0.059764 0.7
0.056354 0.035 0.898939
0.501154 0.035 0.244266
0.165175 0.15 1.079748
0.076643 0.15 0.696536
0.980874 0.0 0.281127
0.413738 0.15 0.505997
0.346432 0.15 0.512805
0.56 0.019711 0.576393
0.11354 0.125 0.688496
0.040541 0.0 0.771117
0.239977 0.15 0.361815
0.893369 0.125 0.913887
0.690998 0.125 0.482735
0.241272 0.125 1.004638
0.782733 0.15 0.516121
0.068924 0.15 0.513349
0.9 0.052104 1.02137
0.482387 0.125 0.278979
0.595418 0.15 0.952755
0.69915 0.125 0.979952
0.593056 0.15 0.846425
0.812143 0.15 0.944639
0.951908 0.15 1.155031
0.851114 0.15 1.119865
0.746431 0.15 0.777454
0.46887 0.15 0.211171
0.279643 0.125 0.724282
0.42662 0.125 0.359688
0.965071 0.126701 0.0
0.460177 0.125 0.331362
0.451657 0.0 0.790586
0.65333 0.15 0.297489
0.229544 0.125 0.797189
0.537122 0.0 0.177824
0.88697 0.15 0.022476
0.029979 0.125 0.46795
0.56 0.025629 0.541447
0.078228 0.15 0.699424
0.159335 0.125 0.29333
0.255554 0.15 0.907439
0.557733 0.15 0.415743
0.609538 0.125 0.148312
0.053766 0.0 1.100571
0.797813 0.15 0.849486
0.533609 0.086977 1.2
0.513906 0.15 0.324303
0.56 0.099335 1.197134
0.890029 0.125 0.457094
0.260054 0.15 0.386884
0.630931 0.125 0.279108
0.998228 0.15 0.579239
0.489576 0.15 1.105533
0.67989 0.15 1.017022
0.745257 0.15 0.180493
0.326333 0.125 0.959779
0.0 0.017457 0.67921
0.9 0.091208 0.154996
0.090161 0.035 0.944564
0.839671 0.15 0.484117
0.845111 0.125 0.022683
0.648981 0.125 0.276807
0.354932 0.15 1.128225
0.556532 0.15 0.022887
0.9 0.057004 0.163378
0.492409 0.0 0.794508
0.524777 0.15 1.024656
0.227558 0.125 0.31991
0.105708 0.15 0.074766
0.748595 0.15 0.596363
0.765725 0.15 1.143524
0.876578 0.125 0.888987
0.920699 0.125 0.471439
0.0 0.149273 0.955744
0.01038 0.035 0.974062
0.680413 0.125 0.035513
0.469385 0.0 1.008736
0.536222 0.15 0.141829
0.470711 0.0 0.244041
0.9 0.035541 0.681512
0.698088 0.125 0.378261
0.711706 0.125 0.696062
1.0 0.031841 0.923861
0.479186 0.15 0.60489
0.284615 0.125 0.788935
0.217445 0.125 0.646328
0.44 0.047571 0.071181
0.21682 0.125 0.738282
0.9 0.051979 0.025841
0.607343 0.15 0.896202
0.21199 0.15 0.408603
0.932382 0.125 0.437727
0.130424 0.125 0.112073
0.558281 0.102423 0.5
0.481648 0.0 1.017009
0.129202 0.15 1.111615
0.069266 0.15 0.665009
0.325134 0.125 0.707783
0.030185 0.15 0.636134
0.510245 0.0 1.154002
0.679443 0.125 0.050636
0.440968 0.15 0.327042
