# .PCD v0.7 - Point Cloud Data file format
VERSION 0.7
FIELDS x y z
SIZE 4 4 4
TYPE F F F
COUNT 1 1 1
WIDTH 1851
HEIGHT 1
VIEWPOINT 0 0 0 1 0 0 0
POINTS 1851
DATA ascii
-0.27599999 0.29300001 1.049
-0.26550001 0.29425001 1.04475
-0.255 0.29699999 1.043
-0.24599999 0.2965 1.0439999
-0.235 0.296 1.0420001
-0.15899999 0.29899999 1.045
-0.235 0.30199999 1.0420001
-0.227 0.303 1.0470001
-0.21600001 0.301 1.041
-0.207 0.30266669 1.0413333
-0.197 0.30700001 1.044
-0.1875 0.301 1.0465
-0.171 0.30599999 1.044
-0.164 0.30500001 1.041
-0.152 0.30500001 1.0420001
-0.147 0.30700001 1.049
-0.14 0.30599999 1.0470001
-0.127 0.30599999 1.0470001
-0.115 0.30500001 1.048
-0.139 0.31099999 1.04
-0.124 0.3105 1.0404999
-0.114 0.31 1.041
-0.105 0.31150001 1.0450001
-0.096000001 0.31200001 1.0470001
-0.086500004 0.31150001 1.0465
-0.073000006 0.31500003 1.0453333
-0.064999998 0.317 1.045
-0.052000001 0.31600001 1.041
-0.046 0.31600001 1.041
-0.036499999 0.31650001 1.0450001
-0.024 0.31799999 1.049
-0.015 0.31799999 1.05
-0.0055 0.31799999 1.0495
0.0089999996 0.31799999 1.05
0.021 0.31799999 1.049
-0.024 0.322 1.04
-0.015 0.322 1.041
-0.0020000001 0.32300001 1.043
0.0060000001 0.32300001 1.043
0.015 0.324 1.046
0.024500001 0.32350001 1.0450001
0.034000002 0.32300001 1.045
0.042999998 0.3265 1.0425
0.056000002 0.324 1.0455
0.07333333 0.32566667 1.0436667
0.059 0.33000001 1.043
0.064999998 0.33000001 1.0420001
0.078000002 0.331 1.045
0.083999999 0.33199999 1.049
0.093000002 0.33000001 1.0420001
0.106 0.33249998 1.0485001
0.125 0.333 1.0475
0.134 0.338 1.04
0.145 0.33533335 1.0456667
0.16 0.33899999 1.043
0.206 0.336 1.0470001
0.154 0.34 1.046
0.16599999 0.34 1.0420001
0.176 0.34 1.0420001
0.186 0.34200001 1.046
0.193 0.34200001 1.045
0.2 0.34400001 1.05
0.2145 0.3425 1.0420001
0.22499999 0.34400001 1.045
0.23550001 0.34450001 1.045
0.245 0.34400001 1.0420001
0.25299999 0.347 1.049
0.26300001 0.34649998 1.0469999
0.273 0.347 1.0470001
0.28350002 0.34850001 1.0480001
0.294 0.34900001 1.048
0.3035 0.34600002 1.0469999
0.271 0.352 1.04
0.29899999 0.354 1.04
0.30599999 0.35499999 1.04
0.31400001 0.35100001 1.0470001
0.32366666 0.35366666 1.0470001
0.33500001 0.35100001 1.044
0.34299999 0.3565 1.0469999
0.35800001 0.35499999 1.049
0.36399999 0.35499999 1.048
0.375 0.35549998 1.0470001
0.38499999 0.35600001 1.044
0.39399999 0.35800001 1.049
0.40099999 0.35800001 1.046
0.37450001 0.36199999 1.0439999
0.38600001 0.36300001 1.044
0.3955 0.36250001 1.04
0.40700001 0.36399999 1.041
0.414 0.36199999 1.0473334
0.43266669 0.36333334 1.0443333
0.45500001 0.36500001 1.05
0.46399999 0.366 1.05
0.4745 0.366 1.0469999
0.486 0.36700001 1.0470001
0.495 0.36899999 1.048
0.50700003 0.368 1.041
0.54650003 0.36750001 1.0465
0.56 0.36899999 1.048
0.50199997 0.37 1.0470001
0.51700002 0.37 1.043
0.52600002 0.37099999 1.044
0.53200001 0.37099999 1.041
0.54100001 0.37200001 1.041
0.55000001 0.37400001 1.0420001
0.56449997 0.37650001 1.0450001
0.59299999 0.37900001 1.0420001
0.61500001 0.377 1.05
0.62199998 0.377 1.0470001
0.58700001 0.38 1.048
-0.59500003 0.257 1.059
-0.58700001 0.257 1.0599999
-0.60100001 0.264 1.053
-0.59500003 0.264 1.058
-0.57599998 0.26550001 1.0539999
-0.56949997 0.26550001 1.0575
-0.55649996 0.26800001 1.056
-0.54500002 0.26699999 1.058
-0.53399998 0.26499999 1.054
-0.50199997 0.26899999 1.053
-0.48800001 0.26899999 1.059
-0.53399998 0.27200001 1.052
-0.51600003 0.271 1.0565
-0.495 0.27599999 1.0549999
-0.47299999 0.27500001 1.058
-0.465 0.27399999 1.058
-0.45500001 0.27200001 1.052
-0.44800001 0.27200001 1.0549999
-0.435 0.27900001 1.058
-0.42699999 0.278 1.058
-0.41600001 0.2775 1.0575
-0.40400001 0.27599999 1.056
-0.41100001 0.28299999 1.053
-0.38499999 0.28099999 1.054
-0.377 0.28200001 1.0599999
-0.361 0.28 1.057
-0.35399997 0.2825 1.056
-0.347 0.285 1.0549999
-0.336 0.2845 1.0550001
-0.32499999 0.28299999 1.053
-0.29500002 0.289 1.0555
-0.27500001 0.28799999 1.0569999
-0.32499999 0.28999999 1.052
-0.31900001 0.28999999 1.054
-0.30500001 0.28999999 1.056
-0.25449997 0.29350001 1.0555
-0.244 0.292 1.054
-0.234 0.29500002 1.052
-0.22400001 0.29800001 1.053
-0.215 0.29750001 1.0534999
-0.205 0.29699999 1.054
-0.192 0.29699999 1.056
-0.186 0.29699999 1.058
-0.17900001 0.296 1.056
-0.198 0.303 1.051
-0.17649999 0.303 1.056
-0.16599999 0.30199999 1.051
-0.153 0.30199999 1.054
-0.141 0.301 1.054
-0.134 0.30700001 1.051
-0.122 0.308 1.056
-0.109 0.30700001 1.0549999
-0.096000001 0.30700001 1.054
-0.083999999 0.308 1.058
-0.064999998 0.308 1.059
-0.059 0.308 1.059
-0.077 0.31200001 1.051
-0.064999998 0.31299999 1.0549999
-0.055500001 0.31200001 1.0525
-0.046 0.31200001 1.051
-0.039999999 0.31299999 1.056
-0.021 0.31299999 1.056
0.003 0.31599998 1.0539999
0.015 0.31900001 1.054
0.028000001 0.31999999 1.057
0.034000002 0.31999999 1.056
0.042333335 0.32166666 1.0549999
0.056000002 0.32100001 1.059
0.064999998 0.32600001 1.051
0.071999997 0.31999999 1.056
0.085000001 0.32699999 1.0549999
0.093999997 0.32800001 1.0565
0.104 0.32800001 1.0549999
0.113 0.3285 1.0569999
0.123 0.329 1.058
0.116 0.33399999 1.051
0.13550001 0.33250001 1.0555
0.142 0.33000001 1.058
0.155 0.336 1.056
0.16474999 0.33300003 1.0545
0.17399999 0.336 1.051
0.18333332 0.33533335 1.0566665
0.19400001 0.338 1.0549999
0.2035 0.33450001 1.054
0.213 0.338 1.052
0.23999999 0.33899999 1.051
0.2245 0.3405 1.0580001
0.248 0.34200001 1.057
0.25400001 0.34099999 1.0549999
0.26450002 0.34299999 1.057
0.27500001 0.34400001 1.058
0.28200001 0.34400001 1.057
0.296 0.345 1.058
0.317 0.347 1.058
0.33000001 0.347 1.054
0.35100001 0.34900001 1.054
0.36500001 0.34900001 1.053
0.30199999 0.352 1.054
0.35100001 0.35499999 1.051
0.36000001 0.35100001 1.059
0.373 0.35100001 1.054
0.41800001 0.35499999 1.054
0.428 0.35699999 1.059
0.435 0.35800001 1.059
0.44999999 0.359 1.057
0.426 0.36199999 1.052
0.44800001 0.36399999 1.051
0.46700001 0.36199999 1.0599999
0.47299999 0.361 1.056
0.48100001 0.36199999 1.0549999
0.49700001 0.36399999 1.0549999
0.50700003 0.366 1.0599999
0.51099998 0.36399999 1.051
0.52600002 0.36750001 1.056
0.53899997 0.36199999 1.058
0.55699998 0.36500001 1.0599999
0.58999997 0.368 1.057
0.59799999 0.368 1.0549999
0.57099998 0.37200001 1.052
0.58700001 0.37549999 1.0565
0.59799999 0.375 1.053
0.60900003 0.37 1.057
0.61500001 0.37550002 1.059
0.62800002 0.373 1.059
-0.5765 0.25650001 1.0645
-0.56199998 0.255 1.063
-0.60799998 0.25999999 1.067
-0.56599998 0.264 1.068
-0.55500001 0.26100001 1.062
-0.54400003 0.2615 1.0664999
-0.52466673 0.26400003 1.064
-0.51599997 0.266 1.067
-0.50800002 0.266 1.067
-0.48199999 0.26899999 1.062
-0.46349999 0.2685 1.0655
-0.44499999 0.26699999 1.066
-0.49900001 0.271 1.0650001
-0.47600001 0.27000001 1.066
-0.44600001 0.27500001 1.068
-0.43449998 0.27399999 1.0685
-0.42199999 0.273 1.067
-0.396 0.27700001 1.0645
-0.38499999 0.27599999 1.064
-0.32800001 0.27900001 1.064
-0.31999999 0.278 1.062
-0.37099999 0.28200001 1.0650001
-0.34549999 0.28049999 1.0645001
-0.33500001 0.28 1.064
-0.322 0.28600001 1.066
-0.31299999 0.28400001 1.061
-0.30400002 0.285 1.0655
-0.292 0.28299999 1.061
-0.266 0.289 1.064
-0.25650001 0.28850001 1.064
-0.24600001 0.28799999 1.064
-0.28600001 0.28999999 1.061
-0.234 0.29499999 1.068
-0.21599999 0.29350001 1.0634999
-0.2035 0.29350001 1.0655
-0.2 0.29899999 1.062
-0.17399999 0.29899999 1.0650001
-0.16499999 0.29899999 1.066
-0.154 0.29699999 1.062
-0.1455 0.29799998 1.0664999
-0.13600001 0.29899999 1.069
-0.12899999 0.29699999 1.0650001
-0.148 0.30399999 1.064
-0.13500001 0.303 1.062
-0.12549999 0.303 1.061
-0.116 0.303 1.063
-0.10566667 0.30533335 1.0636667
-0.090999998 0.30599999 1.064
-0.074000001 0.30700001 1.064
-0.056000002 0.303 1.0669999
-0.046999998 0.308 1.063
-0.039999999 0.30899999 1.0650001
-0.021 0.30899999 1.0650001
-0.052999999 0.31 1.066
-0.034000002 0.31300002 1.0664999
-0.028000001 0.3125 1.0655
-0.015 0.315 1.063
-0.0055 0.31550002 1.0650001
0.0089999996 0.315 1.0650001
0.015 0.315 1.064
0.025 0.31600001 1.0675
0.034000002 0.315 1.064
0.041000001 0.317 1.069
0.059999999 0.317 1.069
0.066 0.322 1.063
0.079000004 0.322 1.063
0.085000001 0.322 1.061
0.094999999 0.324 1.0655
0.104 0.324 1.066
0.11 0.32300001 1.061
0.124 0.32600001 1.069
0.131 0.32600001 1.069
0.14300001 0.32499999 1.0650001
0.15000001 0.32600001 1.068
0.17 0.32699999 1.068
0.20900001 0.32800001 1.067
0.13 0.331 1.064
0.153 0.33199999 1.0650001
0.175 0.33199999 1.061
0.189 0.33399999 1.0650001
0.19599999 0.33399999 1.0650001
0.222 0.336 1.066
0.23300001 0.33649999 1.0664999
0.2455 0.336 1.0634999
0.25600001 0.338 1.066
0.266 0.338 1.0645
0.235 0.34200001 1.061
0.27700001 0.34 1.068
0.28400001 0.34 1.067
0.29266667 0.34233332 1.0646666
0.31433335 0.34433332 1.0666666
0.32550001 0.34600002 1.0645001
0.34399998 0.345 1.0669999
0.35499999 0.345 1.066
0.36300001 0.347 1.069
0.37799999 0.34799999 1.069
0.38499999 0.34900001 1.069
0.38999999 0.347 1.063
0.33899999 0.34999999 1.061
0.34599999 0.34999999 1.061
0.384 0.354 1.063
0.39499998 0.35549998 1.064
0.40700001 0.35350001 1.0664999
0.4145 0.354 1.0655
0.42199999 0.352 1.067
0.43599999 0.352 1.063
0.44499999 0.35699999 1.0650001
0.477 0.35800001 1.067
0.49399999 0.359 1.067
0.461 0.36199999 1.064
0.493 0.366 1.0650001
0.50199997 0.36000001 1.068
0.514 0.36149999 1.0669999
0.52600002 0.36199999 1.0650001
0.53600001 0.36399999 1.069
0.551 0.36500001 1.064
0.57433337 0.36566666 1.0656666
0.59500003 0.36399999 1.068
0.61199999 0.36500001 1.0650001
0.62300003 0.368 1.069
0.542 0.37099999 1.061
0.58700001 0.37 1.067
-0.61500001 0.25400001 1.0715001
-0.602 0.25299999 1.072
-0.59299999 0.252 1.072
-0.579 0.252 1.079
-0.55550003 0.25650001 1.074
-0.472 0.25799999 1.079
-0.53399998 0.26199999 1.072
-0.51899999 0.26100001 1.076
-0.5025 0.26300001 1.074
-0.48699999 0.266 1.076
-0.479 0.26499999 1.075
-0.47 0.26300001 1.072
-0.45500001 0.26899999 1.072
-0.44100001 0.26899999 1.077
-0.43399999 0.26899999 1.0779999
-0.419 0.26800001 1.0779999
-0.40200001 0.266 1.074
-0.417 0.27399999 1.073
-0.40549999 0.27250001 1.072
-0.396 0.273 1.075
-0.38499999 0.27250001 1.0775
-0.377 0.278 1.074
-0.366 0.27399999 1.0745
-0.35549998 0.27700001 1.0745001
-0.31349999 0.28149998 1.0755
-0.303 0.28099999 1.076
-0.29699999 0.28099999 1.0779999
-0.2845 0.285 1.0700001
-0.27500001 0.285 1.074
-0.26450002 0.28400001 1.0725
-0.25600001 0.28600001 1.079
-0.249 0.285 1.0779999
-0.20200001 0.289 1.077
-0.189 0.289 1.077
-0.175 0.287 1.072
-0.242 0.29100001 1.075
-0.22633334 0.29233333 1.0746666
-0.20900001 0.28999999 1.0779999
-0.19499999 0.29499999 1.072
-0.185 0.294 1.0710001
-0.176 0.29499999 1.075
-0.1655 0.29350001 1.0734999
-0.117 0.29800001 1.0700001
-0.104 0.29800001 1.071
-0.124 0.30000001 1.075
-0.111 0.30000001 1.079
-0.095999993 0.30166668 1.0753334
-0.085000001 0.30399999 1.0700001
-0.079000004 0.30199999 1.0745001
-0.066 0.30399999 1.072
-0.044 0.30500001 1.0745001
-0.034000002 0.30599999 1.0779999
-0.025 0.30599999 1.079
-0.015 0.30599999 1.079
-0.015 0.31299999 1.0779999
-0.0060000001 0.3105 1.0715001
0.0060000001 0.31 1.0705
0.025 0.31200001 1.0764999
0.045333337 0.31433332 1.0753332
0.054000001 0.31549999 1.0745
0.063000001 0.31549999 1.0755
0.079000004 0.31900001 1.074
0.086000003 0.31900001 1.073
0.094999999 0.31799999 1.0705
0.105 0.31900001 1.073
0.072999999 0.31999999 1.0779999
0.115 0.32300001 1.074
0.13699999 0.32600001 1.0700001
0.15700001 0.32699999 1.0700001
0.164 0.329 1.076
0.1935 0.329 1.072
0.177 0.33000001 1.076
0.184 0.33000001 1.076
0.2035 0.333 1.0725
0.2165 0.33350003 1.0710001
0.22400001 0.33199999 1.077
0.23800001 0.333 1.077
0.245 0.333 1.077
0.25449997 0.33399999 1.0764999
0.2755 0.33500001 1.076
0.292 0.33500001 1.073
0.308 0.338 1.0779999
0.30599999 0.34299999 1.071
0.33399999 0.345 1.0700001
0.366 0.34200001 1.079
0.41800001 0.347 1.0779999
0.373 0.34999999 1.076
0.40099999 0.34999999 1.0700001
0.433 0.35499999 1.074
0.456 0.35350001 1.0745001
0.46349999 0.35350001 1.073
0.47 0.35699999 1.0700001
0.484 0.35350001 1.076
0.50400001 0.35499999 1.073
0.51600003 0.3565 1.074
0.5345 0.359 1.0775
0.60699999 0.359 1.075
0.48699999 0.36000001 1.071
0.54699999 0.36000001 1.076
0.56400001 0.36199999 1.075
0.588 0.36399999 1.0700001
0.60699999 0.36700001 1.073
0.616 0.361 1.075
0.63349998 0.36549997 1.0715001
-0.625 0.249 1.082
-0.61500001 0.248 1.081
-0.60900003 0.249 1.0880001
-0.59799999 0.24699999 1.0829999
-0.58999997 0.25400001 1.084
-0.574 0.25299999 1.086
-0.565 0.252 1.086
-0.55800003 0.252 1.0880001
-0.54449999 0.25749999 1.086
-0.52600002 0.25600001 1.0829999
-0.50800002 0.255 1.0880001
-0.49900001 0.255 1.087
-0.461 0.259 1.089
-0.514 0.26199999 1.082
-0.49533334 0.26300001 1.0823332
-0.484 0.26100001 1.089
-0.46599999 0.26499999 1.082
-0.45499998 0.26449999 1.0825
-0.44400001 0.26499999 1.086
-0.43700001 0.264 1.0880001
-0.41299999 0.26899999 1.0829999
-0.40000001 0.26899999 1.0880001
-0.42899999 0.27000001 1.084
-0.37599999 0.273 1.0829999
-0.35499999 0.27200001 1.086
-0.34850001 0.2755 1.0864999
-0.336 0.27700001 1.0815001
-0.32600001 0.27700001 1.085
-0.315 0.27599999 1.0825
-0.30599999 0.27700001 1.0880001
-0.292 0.27599999 1.087
-0.287 0.28099999 1.0805
-0.27399999 0.28049999 1.0834999
-0.264 0.28099999 1.0880001
-0.25799999 0.28099999 1.089
-0.243 0.28600001 1.0829999
-0.237 0.28600001 1.085
-0.22400001 0.28600001 1.089
-0.21600001 0.285 1.084
-0.204 0.285 1.0880001
-0.236 0.292 1.08
-0.21600001 0.29100001 1.08
-0.19599999 0.28999999 1.082
-0.183 0.28999999 1.082
-0.17 0.28999999 1.085
-0.15375 0.29274997 1.08425
-0.14449999 0.29299998 1.0864999
-0.1345 0.29549998 1.0834999
-0.124 0.29499999 1.081
-0.118 0.29499999 1.082
-0.106 0.296 1.089
-0.093000002 0.296 1.089
-0.086000003 0.301 1.085
-0.072999999 0.30000001 1.08
-0.066 0.30000001 1.081
-0.057 0.30050001 1.082
-0.044 0.30050001 1.085
-0.025 0.301 1.0855
-0.0060000001 0.3075 1.085
0.0060000001 0.30700001 1.0825
0.016000001 0.308 1.087
0.035 0.308 1.087
0.041000001 0.308 1.085
0.054000001 0.30899999 1.0880001
0.067000002 0.308 1.084
0.086000003 0.308 1.084
0.016000001 0.31400001 1.082
0.035 0.31299999 1.08
0.067000002 0.315 1.084
0.074000001 0.315 1.086
0.083000004 0.315 1.0825
0.093000002 0.315 1.082
0.106 0.31600001 1.086
0.1155 0.31650001 1.086
0.126 0.317 1.086
0.132 0.317 1.087
0.119 0.322 1.08
0.126 0.32300001 1.085
0.1355 0.32249999 1.0815001
0.145 0.32300001 1.084
0.15549999 0.324 1.084
0.16500001 0.324 1.0829999
0.1745 0.32350001 1.0810001
0.185 0.32499999 1.084
0.19499999 0.32550001 1.0835
0.206 0.32699999 1.086
0.211 0.32600001 1.081
0.22499999 0.32600001 1.08
0.23199999 0.32800001 1.085
0.243 0.3285 1.0855
0.252 0.32800001 1.0829999
0.233 0.33500001 1.085
0.26700002 0.3335 1.085
0.27399999 0.331 1.087
0.28600001 0.33399999 1.0866666
0.30149999 0.33499998 1.0825
0.33199999 0.33500001 1.089
0.36449999 0.33750001 1.0875001
0.31600001 0.34 1.084
0.324 0.34099999 1.084
0.33350003 0.3405 1.081
0.34599999 0.34299999 1.087
0.3565 0.34399998 1.0855
0.375 0.345 1.084
0.384 0.347 1.0880001
0.39266667 0.34433332 1.0853333
0.405 0.34399998 1.085
0.41299999 0.34799999 1.085
0.42699999 0.34900001 1.081
0.45499998 0.345 1.0845
0.46700001 0.34599999 1.084
0.47499999 0.347 1.084
0.48500001 0.34900001 1.0880001
0.491 0.34799999 1.0829999
0.43599999 0.35100001 1.085
0.44299999 0.35100001 1.0829999
0.45199999 0.352 1.085
0.47400001 0.35299999 1.081
0.49900001 0.35600001 1.081
0.50349998 0.34999999 1.084
0.53500003 0.354 1.0880001
0.54400003 0.35600001 1.089
0.55000001 0.35499999 1.084
0.57800001 0.35549998 1.0880001
0.59600002 0.354 1.089
0.62300003 0.35699999 1.0880001
0.63999999 0.359 1.086
0.55900002 0.36300001 1.082
0.57499999 0.36500001 1.081
0.58600003 0.36000001 1.085
0.59399998 0.36000001 1.0829999
0.63 0.36399999 1.0829999
-0.63200003 0.23800001 1.099
-0.62900001 0.244 1.092
-0.61549997 0.24250001 1.0915
-0.59399998 0.249 1.0930001
-0.58649999 0.245 1.095
-0.579 0.248 1.098
-0.56900001 0.23999999 1.097
-0.55400002 0.25400001 1.098
-0.54299998 0.252 1.0930001
-0.51849997 0.25349998 1.0929999
-0.493 0.255 1.092
-0.43550003 0.25849998 1.0955
-0.42500001 0.25799999 1.097
-0.46900001 0.25999999 1.09
-0.43099999 0.264 1.091
-0.41600001 0.264 1.094
-0.41 0.264 1.097
-0.39450002 0.2665 1.0955
-0.38600001 0.26800001 1.09
-0.37549999 0.2685 1.0934999
-0.366 0.26199999 1.099
-0.354 0.26749998 1.0955
-0.36399999 0.27399999 1.09
-0.34200001 0.27200001 1.09
-0.336 0.273 1.095
-0.32499999 0.27200001 1.0935
-0.315 0.27200001 1.096
-0.30333334 0.27366668 1.0963334
-0.294 0.27200001 1.099
-0.28799999 0.278 1.098
-0.2755 0.27649999 1.0935
-0.26499999 0.27599999 1.0930001
-0.24600001 0.27599999 1.099
-0.25299999 0.28299999 1.096
-0.245 0.28200001 1.094
-0.23433332 0.28400001 1.0956668
-0.22499999 0.28099999 1.096
-0.21366668 0.28266665 1.0943333
-0.205 0.28099999 1.098
-0.19599999 0.28433335 1.0949999
-0.184 0.285 1.09
-0.17200001 0.28600001 1.094
-0.16599999 0.287 1.099
-0.15800001 0.28600001 1.096
-0.16500001 0.292 1.091
-0.13499999 0.29100001 1.0925
-0.125 0.28999999 1.091
-0.11433333 0.29333332 1.0936667
-0.106 0.292 1.099
-0.098999999 0.296 1.091
-0.086500004 0.29350001 1.095
-0.078000002 0.29466668 1.0946666
-0.064000003 0.296 1.0910001
-0.054000001 0.296 1.091
-0.044500001 0.29699999 1.0964999
-0.035 0.29699999 1.098
-0.015 0.29800001 1.099
-0.035 0.30199999 1.091
-0.015 0.303 1.092
-0.0060000001 0.303 1.0929999
0.0060000001 0.303 1.0929999
0.016000001 0.30399999 1.097
0.0255 0.30649999 1.0935
0.035 0.30399999 1.095
0.045000002 0.30449998 1.098
0.061000001 0.30500001 1.099
0.028999999 0.31 1.094
0.048 0.31200001 1.098
0.074000001 0.31099999 1.095
0.081 0.31 1.092
0.093999997 0.31200001 1.096
0.10233334 0.31400001 1.0946667
0.114 0.31299999 1.098
0.14400001 0.317 1.0936667
0.15599999 0.31999999 1.0945001
0.167 0.32100001 1.095
0.17299999 0.31999999 1.0930001
0.183 0.32100001 1.0940001
0.19600001 0.32050002 1.092
0.207 0.32300001 1.097
0.214 0.322 1.094
0.22233333 0.32500002 1.0933332
0.234 0.32300001 1.094
0.242 0.32499999 1.097
0.30500001 0.329 1.099
0.26100001 0.331 1.09
0.296 0.333 1.09
0.315 0.3355 1.0929999
0.32499999 0.336 1.092
0.34350002 0.33700001 1.0925
0.35549998 0.3355 1.0955
0.36300001 0.333 1.098
0.377 0.33899999 1.091
0.43099999 0.338 1.096
0.38499999 0.34099999 1.094
0.40099999 0.34299999 1.095
0.417 0.345 1.097
0.42399999 0.345 1.096
0.43099999 0.345 1.094
0.44233331 0.34466669 1.0963334
0.472 0.34299999 1.099
0.48100001 0.34400001 1.099
0.49599999 0.345 1.096
0.50400001 0.34599999 1.097
0.537 0.34900001 1.095
0.51899999 0.35299999 1.091
0.52999997 0.35600001 1.096
0.546 0.34999999 1.095
0.57300001 0.35299999 1.097
0.60600001 0.35600001 1.091
0.61799997 0.35100001 1.098
0.62699997 0.352 1.099
0.56599998 0.361 1.099
0.57200003 0.36000001 1.094
0.60600001 0.36300001 1.09
-0.63599998 0.23199999 1.107
-0.62400001 0.23800001 1.1
-0.61699998 0.23800001 1.105
-0.60600001 0.245 1.107
-0.57599998 0.245 1.1005
-0.56599998 0.249 1.1059999
-0.55599999 0.24699999 1.103
-0.54900002 0.24699999 1.1059999
-0.53899997 0.24600001 1.103
-0.54100001 0.25400001 1.1059999
-0.52999997 0.25299999 1.102
-0.514 0.25099999 1.102
-0.509 0.252 1.109
-0.49900001 0.25099999 1.1059999
-0.48500001 0.25650001 1.1015
-0.47299999 0.255 1.102
-0.46599999 0.255 1.102
-0.45199999 0.255 1.109
-0.44400001 0.255 1.109
-0.40400001 0.25799999 1.103
-0.45699999 0.26100001 1.101
-0.44999999 0.26100001 1.1
-0.42449999 0.26350001 1.1045001
-0.414 0.25999999 1.109
-0.405 0.26499999 1.104
-0.3865 0.26449999 1.1055
-0.37400001 0.26300001 1.101
-0.3635 0.266 1.1040001
-0.354 0.26300001 1.107
-0.34 0.26899999 1.107
-0.32749999 0.26800001 1.1045001
-0.317 0.26699999 1.1059999
-0.296 0.26699999 1.108
-0.347 0.27000001 1.108
-0.285 0.27200001 1.1035
-0.26899999 0.27200001 1.109
-0.25650001 0.27700001 1.1005
-0.241 0.27399999 1.1064999
-0.234 0.27700001 1.107
-0.219 0.27500001 1.101
-0.207 0.27599999 1.107
-0.192 0.28099999 1.1
-0.186 0.28200001 1.105
-0.17733334 0.28366667 1.1046666
-0.167 0.28200001 1.109
-0.15599999 0.2845 1.1040001
-0.147 0.28799999 1.107
-0.1365 0.287 1.1035
-0.12 0.28600001 1.103
-0.107 0.28600001 1.104
-0.1 0.287 1.107
-0.097000003 0.29250002 1.102
-0.074000001 0.292 1.103
-0.064500004 0.29250002 1.1040001
-0.055 0.29300001 1.1059999
-0.048 0.29300001 1.105
-0.024333334 0.29633334 1.103
-0.0060000001 0.2985 1.1029999
0.003 0.29899999 1.103
0.016000001 0.29899999 1.104
0.028999999 0.29899999 1.105
0.0099999998 0.30000001 1.109
0.022500001 0.30250001 1.1045001
0.055 0.30599999 1.104
0.068000004 0.30500001 1.1
0.075000003 0.308 1.108
0.0845 0.30400002 1.107
0.093999997 0.30599999 1.102
0.114 0.308 1.107
0.12800001 0.30899999 1.108
0.061999999 0.31299999 1.101
0.124 0.31349999 1.1005
0.134 0.31400001 1.1
0.142 0.31600001 1.109
0.155 0.31600001 1.107
0.16566665 0.31400001 1.1056666
0.175 0.317 1.108
0.184 0.31299999 1.1045001
0.19499999 0.317 1.105
0.20550001 0.31799999 1.1055
0.215 0.317 1.102
0.222 0.31799999 1.104
0.249 0.32600001 1.101
0.25600001 0.32600001 1.101
0.26449999 0.32449999 1.1059999
0.27450001 0.32800001 1.1035
0.28400001 0.32800001 1.1
0.29500002 0.329 1.1010001
0.31299999 0.33000001 1.101
0.324 0.33149999 1.1025
0.336 0.33199999 1.104
0.345 0.33399999 1.109
0.34999999 0.333 1.101
0.373 0.336 1.104
0.38100001 0.336 1.105
0.39300001 0.338 1.107
0.40600002 0.33750001 1.102
0.41800001 0.33899999 1.102
0.44299999 0.33500001 1.108
0.45199999 0.336 1.109
0.46799999 0.338 1.109
0.426 0.34 1.103
0.449 0.34200001 1.101
0.45699999 0.34200001 1.102
0.46700001 0.34400001 1.104
0.49150002 0.34350002 1.1059999
0.50099999 0.34099999 1.109
0.51600003 0.34549999 1.1045001
0.52499998 0.34650001 1.1055
0.53399998 0.34400001 1.109
0.551 0.34599999 1.108
0.56900001 0.34799999 1.109
0.579 0.34900001 1.109
0.53200001 0.34999999 1.103
0.55900002 0.35299999 1.103
0.56800002 0.35499999 1.105
0.59350002 0.35299999 1.1025
0.60600001 0.352 1.109
0.61400002 0.35299999 1.108
0.64099997 0.35600001 1.1059999
0.62199998 0.361 1.103
0.64099997 0.36300001 1.104
-0.62699997 0.233 1.1159999
-0.611 0.23800001 1.11
-0.60500002 0.23899999 1.1160001
-0.59799999 0.23899999 1.119
-0.58499998 0.236 1.112
-0.56199998 0.236 1.117
-0.57200003 0.244 1.119
-0.551 0.241 1.1109999
-0.542 0.241 1.112
-0.53399998 0.24699999 1.1109999
-0.528 0.248 1.1160001
-0.51999998 0.24699999 1.117
-0.50800002 0.245 1.11
-0.495 0.25299999 1.1160001
-0.48699999 0.252 1.1160001
-0.47600001 0.25 1.11
-0.461 0.25600001 1.1109999
-0.43799999 0.255 1.112
-0.43000001 0.25400001 1.1109999
-0.41600001 0.25400001 1.115
-0.40900001 0.25400001 1.119
-0.39899999 0.259 1.1109999
-0.384 0.25799999 1.11
-0.37799999 0.259 1.1160001
-0.39500001 0.26100001 1.119
-0.34450001 0.26350001 1.1135
-0.33500001 0.264 1.118
-0.32699999 0.26300001 1.115
-0.30399999 0.26800001 1.1109999
-0.292 0.26800001 1.117
-0.28299999 0.26699999 1.112
-0.27399999 0.26749998 1.1165
-0.27700001 0.27399999 1.112
-0.26300001 0.27399999 1.115
-0.257 0.27399999 1.119
-0.249 0.27200001 1.112
-0.22499999 0.27500001 1.1145
-0.215 0.2755 1.117
-0.19499999 0.27900001 1.119
-0.18099999 0.27700001 1.113
-0.168 0.27700001 1.117
-0.155 0.27700001 1.119
-0.154 0.28299999 1.115
-0.1445 0.28299999 1.1155
-0.134 0.28299999 1.115
-0.127 0.2845 1.11
-0.114 0.28799999 1.1109999
-0.094999999 0.289 1.115
-0.0845 0.28799999 1.1125
-0.075000003 0.289 1.1160001
-0.061999999 0.289 1.117
-0.055 0.28799999 1.114
-0.045000002 0.28799999 1.1145
-0.041999999 0.294 1.112
-0.035 0.29499999 1.114
-0.028999999 0.296 1.118
-0.016000001 0.294 1.11
-0.0060000001 0.294 1.113
0.003 0.29499999 1.115
0.0099999998 0.296 1.119
0.026000001 0.296 1.118
0.048999999 0.296 1.119
0.035999998 0.30199999 1.115
0.045499999 0.30149999 1.1125
0.056000002 0.30199999 1.113
0.065499999 0.30149999 1.1115
0.075000003 0.301 1.1109999
0.082000002 0.303 1.118
0.094999999 0.30199999 1.114
0.104 0.30733332 1.113
0.116 0.30399999 1.119
0.122 0.30899999 1.1109999
0.089000002 0.31 1.115
0.13500001 0.31 1.1109999
0.14500001 0.3105 1.1125
0.162 0.31200001 1.115
0.177 0.31299999 1.119
0.189 0.31900001 1.112
0.197 0.31400001 1.119
0.20299999 0.31299999 1.114
0.211 0.315 1.119
0.23199999 0.31600001 1.119
0.25999999 0.317 1.119
0.234 0.3215 1.1129999
0.245 0.32300001 1.1160001
0.255 0.32249999 1.1125
0.273 0.324 1.113
0.28350002 0.324 1.1135
0.294 0.32499999 1.113
0.30500001 0.32550001 1.1140001
0.317 0.32800001 1.118
0.32300001 0.32600001 1.1109999
0.33399999 0.32749999 1.112
0.34599999 0.329 1.114
0.352 0.32800001 1.1109999
0.36000001 0.329 1.1109999
0.39199999 0.32600001 1.118
0.368 0.33000001 1.114
0.375 0.33000001 1.1109999
0.384 0.33199999 1.115
0.39199999 0.333 1.1160001
0.414 0.33399999 1.113
0.421 0.33399999 1.112
0.435 0.33649999 1.1165
0.46200001 0.338 1.114
0.477 0.33899999 1.112
0.51999998 0.33700001 1.117
0.486 0.34099999 1.113
0.51099998 0.34299999 1.114
0.54400003 0.34599999 1.112
0.56300002 0.34200001 1.117
0.58200002 0.34400001 1.117
0.60000002 0.34599999 1.118
0.61799997 0.34799999 1.117
0.62400001 0.347 1.112
0.56400001 0.34999999 1.1160001
0.588 0.34999999 1.11
0.63599998 0.34999999 1.1160001
0.64600003 0.35100001 1.1160001
0.65499997 0.35549998 1.1145
-0.63800001 0.228 1.127
-0.62900001 0.227 1.128
-0.62 0.234 1.128
-0.60699999 0.23199999 1.12
-0.583 0.23800001 1.125
-0.574 0.23800001 1.125
-0.5575 0.2335 1.128
-0.54100001 0.236 1.128
-0.48199999 0.23899999 1.126
-0.56400001 0.244 1.12
-0.53499997 0.242 1.1235001
-0.51599997 0.242 1.128
-0.50400001 0.24699999 1.12
-0.5 0.248 1.1289999
-0.47749999 0.2455 1.1245
-0.46599999 0.245 1.125
-0.45899999 0.245 1.1289999
-0.405 0.249 1.1289999
-0.47299999 0.252 1.12
-0.46399999 0.25099999 1.12
-0.45699999 0.25099999 1.123
-0.44499999 0.25 1.1224999
-0.43399999 0.25 1.124
-0.42500001 0.25600001 1.12
-0.40400001 0.25600001 1.127
-0.39700001 0.25600001 1.1289999
-0.38100001 0.25400001 1.126
-0.37300003 0.25650001 1.1235
-0.366 0.25299999 1.124
-0.35500002 0.25575 1.12625
-0.34400001 0.259 1.125
-0.338 0.259 1.1289999
-0.33000001 0.259 1.1289999
-0.31600001 0.25799999 1.1289999
-0.366 0.25999999 1.125
-0.32100001 0.264 1.122
-0.315 0.264 1.124
-0.303 0.26300001 1.1215
-0.29300001 0.26300001 1.124
-0.287 0.26300001 1.128
-0.27649999 0.26300001 1.1285
-0.26499999 0.26800001 1.123
-0.252 0.26899999 1.1289999
-0.245 0.26899999 1.1289999
-0.22400001 0.26800001 1.1289999
-0.31400001 0.27000001 1.12
-0.259 0.27000001 1.1289999
-0.2335 0.27450001 1.123
-0.20466667 0.27533332 1.123
-0.19599999 0.273 1.123
-0.18699999 0.27533334 1.1246667
-0.17550001 0.2755 1.1240001
-0.162 0.27900001 1.123
-0.156 0.273 1.128
-0.14500001 0.27850002 1.1245
-0.13500001 0.278 1.126
-0.12549999 0.27850002 1.1270001
-0.115 0.278 1.126
-0.122 0.28400001 1.122
-0.115 0.28400001 1.12
-0.1045 0.28299999 1.1205001
-0.094999999 0.28400001 1.125
-0.085500002 0.2845 1.127
-0.075000003 0.28400001 1.126
-0.065499999 0.285 1.1289999
-0.055 0.28400001 1.128
-0.048999999 0.28400001 1.128
-0.028999999 0.28299999 1.125
-0.068999998 0.29100001 1.124
-0.035999998 0.29100001 1.125
-0.0255 0.28999999 1.122
-0.016000001 0.292 1.1289999
-0.0060000001 0.29049999 1.127
0.003 0.28999999 1.124
0.014000001 0.29266667 1.1246667
0.035999998 0.29699999 1.123
0.043000001 0.29699999 1.122
0.056000002 0.29800001 1.124
0.066 0.29800001 1.1245
0.075999998 0.29699999 1.1210001
0.089000002 0.29899999 1.127
0.096000001 0.29800001 1.125
0.106 0.30250001 1.1259999
0.123 0.30500001 1.122
0.132 0.30399999 1.1263334
0.14300001 0.30500001 1.12
0.153 0.30699998 1.1255
0.164 0.308 1.1289999
0.177 0.308 1.124
0.1945 0.30849999 1.1255
0.156 0.31299999 1.12
0.183 0.31400001 1.12
0.205 0.31 1.128
0.212 0.31 1.1289999
0.226 0.317 1.125
0.23899999 0.317 1.123
0.24600001 0.317 1.122
0.25400001 0.31900001 1.127
0.26699999 0.31799999 1.12
0.27399999 0.31900001 1.1210001
0.36399999 0.31900001 1.1289999
0.28400001 0.32100001 1.1289999
0.29350001 0.32100001 1.125
0.30399999 0.32100001 1.125
0.31449997 0.32100001 1.1224999
0.32699999 0.324 1.128
0.333 0.32300001 1.123
0.34399998 0.32350001 1.1235
0.35499999 0.324 1.122
0.36300001 0.32600001 1.125
0.375 0.3265 1.1255
0.38600001 0.32699999 1.123
0.40450001 0.33500001 1.1205001
0.419 0.331 1.128
0.4445 0.33149999 1.1229999
0.45500001 0.33199999 1.12
0.46399999 0.333 1.122
0.47099999 0.333 1.12
0.48199999 0.336 1.125
0.49450001 0.33649999 1.1255
0.51599997 0.33899999 1.126
0.59299999 0.33899999 1.123
0.53200001 0.34 1.124
0.54000002 0.34 1.1210001
0.55550003 0.34350002 1.1270001
0.57599998 0.345 1.125
0.59399998 0.347 1.124
0.60399997 0.34099999 1.128
0.61000001 0.34799999 1.12
0.65799999 0.34599999 1.123
-0.65200001 0.223 1.137
-0.64899999 0.229 1.131
-0.62099999 0.227 1.131
-0.611 0.226 1.13
-0.588 0.226 1.137
-0.57999998 0.226 1.1390001
-0.60399997 0.234 1.133
-0.59500003 0.233 1.133
-0.58600003 0.23199999 1.132
-0.55400002 0.23450001 1.138
-0.53500003 0.237 1.1339999
-0.52899998 0.237 1.1390001
-0.50800002 0.234 1.131
-0.47799999 0.233 1.137
-0.52600002 0.243 1.131
-0.505 0.24149999 1.1315
-0.49400002 0.245 1.1345
-0.47799999 0.23999999 1.136
-0.46200001 0.23999999 1.138
-0.454 0.24600001 1.137
-0.44600001 0.24600001 1.137
-0.435 0.2455 1.1385
-0.42199999 0.244 1.136
-0.391 0.249 1.135
-0.42500001 0.25099999 1.132
-0.41600001 0.25099999 1.138
-0.39499998 0.25300002 1.1345
-0.34799999 0.255 1.1390001
-0.34 0.25400001 1.138
-0.32300001 0.259 1.13
-0.31799999 0.25299999 1.138
-0.303 0.259 1.136
-0.28799999 0.257 1.132
-0.27399999 0.25799999 1.136
-0.31099999 0.25999999 1.137
-0.26699999 0.264 1.136
-0.25999999 0.26300001 1.133
-0.23649999 0.26350001 1.1390001
-0.21799999 0.26899999 1.133
-0.204 0.26800001 1.1339999
-0.177 0.26800001 1.137
-0.23899999 0.27000001 1.1339999
-0.212 0.27000001 1.138
-0.1665 0.27399999 1.1324999
-0.15000001 0.27500001 1.1390001
-0.14300001 0.273 1.132
-0.13699999 0.27399999 1.138
-0.116 0.27399999 1.138
-0.106 0.27600002 1.1324999
-0.096000001 0.27900001 1.133
-0.085500002 0.27850002 1.132
-0.075999998 0.27900001 1.133
-0.103 0.28 1.1339999
-0.063000001 0.28 1.138
-0.041999999 0.28600001 1.1339999
-0.035999998 0.285 1.131
-0.023 0.28600001 1.137
-0.016000001 0.285 1.13
-0.0060000001 0.28600001 1.135
0.003 0.285 1.133
0.0099999998 0.287 1.138
0.033500001 0.287 1.1385
0.023 0.292 1.131
0.033 0.29300001 1.1335
0.043000001 0.29300001 1.135
0.0535 0.29350001 1.1355
0.063000001 0.294 1.136
0.0735 0.29350001 1.1345
0.082999997 0.30000001 1.13
0.1135 0.30050001 1.132
0.124 0.301 1.1339999
0.138 0.303 1.1390001
0.14399999 0.30199999 1.135
0.15450001 0.3035 1.138
0.16500001 0.303 1.136
0.1715 0.30649999 1.1345
0.185 0.30399999 1.136
0.22400001 0.30500001 1.1355
0.235 0.30700001 1.1390001
0.186 0.31099999 1.135
0.22233333 0.31399998 1.1326667
0.235 0.31299999 1.137
0.245 0.31300002 1.133
0.25600001 0.31400001 1.137
0.26300001 0.315 1.136
0.27399999 0.31550002 1.1375
0.28400001 0.315 1.1339999
0.292 0.31600001 1.137
0.30700001 0.317 1.136
0.32499999 0.31849998 1.1355
0.34299999 0.31900001 1.1339999
0.359 0.31999999 1.135
0.40400001 0.32300001 1.133
0.41100001 0.32300001 1.13
0.42449999 0.32550001 1.1345
0.43599999 0.32600001 1.1339999
0.45300001 0.32800001 1.136
0.46399999 0.3285 1.1340001
0.48300001 0.329 1.13
0.40400001 0.33000001 1.131
0.41299999 0.33199999 1.133
0.428 0.333 1.132
0.43599999 0.333 1.132
0.477 0.33000001 1.135
0.49399999 0.33199999 1.135
0.509 0.33199999 1.133
0.52450001 0.3355 1.1375
0.54699999 0.33700001 1.138
0.55299997 0.33700001 1.1339999
0.56099999 0.33700001 1.132
0.57333332 0.3363333 1.1333333
0.63700002 0.33899999 1.1390001
0.509 0.34 1.13
0.588 0.34 1.133
0.616 0.34299999 1.132
0.62800002 0.34599999 1.137
0.63499999 0.34599999 1.133
0.64600003 0.34350002 1.1359999
0.65499997 0.34799999 1.135
0.66299999 0.34099999 1.1339999
-0.64600003 0.21600001 1.145
-0.64499998 0.223 1.142
-0.63700002 0.223 1.1440001
-0.62800002 0.222 1.145
-0.60533333 0.223 1.1423334
-0.59899998 0.227 1.141
-0.57599998 0.227 1.149
-0.583 0.234 1.143
-0.57499999 0.234 1.146
-0.54100001 0.23199999 1.149
-0.52100003 0.236 1.14
-0.505 0.236 1.142
-0.495 0.235 1.14
-0.49000001 0.236 1.148
-0.41800001 0.23899999 1.148
-0.458 0.241 1.147
-0.44599998 0.2405 1.147
-0.417 0.245 1.1440001
-0.40649998 0.245 1.1465001
-0.39500001 0.245 1.148
-0.36399999 0.249 1.1440001
-0.34099999 0.248 1.1440001
-0.33500001 0.249 1.149
-0.38800001 0.25099999 1.147
-0.375 0.25 1.143
-0.35699999 0.25 1.147
-0.33500001 0.255 1.146
-0.32699999 0.255 1.146
-0.31299999 0.255 1.147
-0.29100001 0.25400001 1.149
-0.26499999 0.25849998 1.1425
-0.29800001 0.26100001 1.145
-0.28299999 0.25999999 1.1440001
-0.25400001 0.26499999 1.14
-0.248 0.26499999 1.145
-0.228 0.26499999 1.149
-0.219 0.26300001 1.14
-0.207 0.26499999 1.149
-0.19499999 0.2665 1.1435
-0.171 0.26899999 1.143
-0.164 0.26899999 1.143
-0.154 0.26899999 1.143
-0.131 0.26899999 1.147
-0.234 0.271 1.142
-0.199 0.27000001 1.142
-0.185 0.27000001 1.142
-0.14399999 0.27000001 1.148
-0.1265 0.27500001 1.1405001
-0.11 0.27399999 1.14
-0.096000001 0.27399999 1.142
-0.090000004 0.27599999 1.148
-0.063000001 0.27500001 1.148
-0.068999998 0.28099999 1.14
-0.056000002 0.28200001 1.145
-0.046 0.28149998 1.1440001
-0.035999998 0.28099999 1.143
-0.026000001 0.28149998 1.145
-0.016000001 0.28200001 1.147
-0.0089999996 0.28099999 1.146
0.014666666 0.28366667 1.1453334
0.023 0.285 1.146
0.037 0.28200001 1.149
0.043000001 0.28799999 1.145
0.0535 0.28850001 1.1445
0.064000003 0.289 1.146
0.071000002 0.28999999 1.149
0.083999999 0.296 1.143
0.093500003 0.29549998 1.1415
0.104 0.296 1.143
0.1145 0.2965 1.1454999
0.124 0.296 1.142
0.13499999 0.29750001 1.145
0.145 0.29800001 1.145
0.15899999 0.29800001 1.145
0.16599999 0.29899999 1.148
0.17299999 0.29899999 1.149
0.18000001 0.30500001 1.142
0.19350001 0.30250001 1.145
0.204 0.30650002 1.1435
0.215 0.30700001 1.142
0.243 0.308 1.143
0.25 0.308 1.143
0.26499999 0.30899999 1.1440001
0.25799999 0.31 1.148
0.27200001 0.31 1.145
0.287 0.31099999 1.146
0.30149999 0.31549999 1.1454999
0.31600001 0.31900001 1.142
0.34599999 0.315 1.146
0.36199999 0.31600001 1.148
0.384 0.317 1.1440001
0.40099999 0.31900001 1.147
0.338 0.31999999 1.14
0.354 0.322 1.1440001
0.377 0.324 1.146
0.38299999 0.32300001 1.14
0.3955 0.32499999 1.1415
0.40900001 0.31999999 1.149
0.417 0.32100001 1.149
0.44800001 0.32300001 1.147
0.465 0.32499999 1.149
0.49000001 0.32600001 1.147
0.50800002 0.329 1.149
0.52699995 0.329 1.1440001
0.44800001 0.33000001 1.145
0.50800002 0.336 1.147
0.54050004 0.33450001 1.145
0.55699998 0.33199999 1.143
0.56699997 0.333 1.145
0.58700001 0.336 1.149
0.60399997 0.33700001 1.146
0.61400002 0.33899999 1.148
0.62099999 0.33899999 1.1440001
0.64200002 0.33399999 1.149
0.667 0.33500001 1.142
0.662 0.345 1.149
-0.65799999 0.21699999 1.15
-0.63600004 0.21600001 1.1524999
-0.625 0.21600001 1.158
-0.62199998 0.223 1.15
-0.56900001 0.227 1.153
-0.55650002 0.2265 1.155
-0.542 0.22499999 1.152
-0.55299997 0.234 1.155
-0.53500003 0.23199999 1.153
-0.52600002 0.23100001 1.152
-0.50599998 0.23100001 1.1565
-0.49399999 0.23 1.156
-0.486 0.23 1.158
-0.47499999 0.236 1.151
-0.46799999 0.235 1.153
-0.46000001 0.235 1.154
-0.412 0.23899999 1.153
-0.477 0.243 1.153
-0.43599999 0.241 1.154
-0.43000001 0.241 1.158
-0.40700001 0.23999999 1.159
-0.3865 0.24600001 1.156
-0.373 0.244 1.151
-0.368 0.245 1.158
-0.32100001 0.249 1.152
-0.35100001 0.25 1.151
-0.329 0.25 1.154
-0.30400002 0.25550002 1.1545
-0.285 0.25400001 1.152
-0.278 0.255 1.155
-0.264 0.25400001 1.1569999
-0.24950001 0.25650001 1.1545
-0.221 0.259 1.154
-0.207 0.25799999 1.153
-0.25600001 0.25999999 1.15
-0.242 0.25999999 1.153
-0.236 0.25999999 1.156
-0.214 0.26499999 1.151
-0.193 0.26499999 1.152
-0.186 0.26499999 1.153
-0.17200001 0.264 1.15
-0.16599999 0.26499999 1.1569999
-0.152 0.264 1.155
-0.138 0.264 1.156
-0.138 0.27000001 1.15
-0.125 0.271 1.155
-0.114 0.27000001 1.152
-0.104 0.27000001 1.155
-0.093999997 0.271 1.1575
-0.082999997 0.27599999 1.15
-0.077 0.273 1.153
-0.067666672 0.27233335 1.1543334
-0.057 0.27700001 1.154
-0.046500001 0.27649999 1.153
-0.035999998 0.27599999 1.153
-0.029999999 0.27700001 1.1569999
0.017000001 0.27700001 1.156
0.024 0.27700001 1.158
-0.003 0.28400001 1.156
0.003 0.28400001 1.156
0.029999999 0.28299999 1.151
0.044 0.285 1.159
0.053999998 0.28400001 1.154
0.064000003 0.28400001 1.153
0.083999999 0.28299999 1.151
0.078000002 0.29100001 1.153
0.083999999 0.29100001 1.152
0.094499998 0.2915 1.154
0.105 0.29100001 1.151
0.1155 0.2915 1.1545
0.133 0.292 1.155
0.1435 0.294 1.1585
0.1645 0.294 1.1575
0.153 0.30000001 1.153
0.18449999 0.30050001 1.1524999
0.206 0.30199999 1.1545
0.21600001 0.30199999 1.152
0.22400001 0.303 1.155
0.23450001 0.3035 1.155
0.24600001 0.30500001 1.158
0.25599998 0.30449998 1.1554999
0.26699999 0.30500001 1.1569999
0.27500001 0.30599999 1.159
0.289 0.30700001 1.1569999
0.29699999 0.308 1.159
0.30399999 0.30700001 1.156
0.31449997 0.3075 1.155
0.28099999 0.31200001 1.152
0.296 0.31299999 1.152
0.31400001 0.3145 1.1524999
0.32499999 0.315 1.151
0.333 0.315 1.151
0.34099999 0.31300002 1.1545
0.35600001 0.317 1.154
0.37099999 0.31449997 1.1535001
0.40400001 0.315 1.159
0.43399999 0.31600001 1.153
0.46000001 0.31900001 1.159
0.38 0.31999999 1.156
0.39399999 0.31999999 1.152
0.428 0.324 1.1569999
0.43399999 0.322 1.151
0.44400001 0.32499999 1.156
0.45899999 0.32499999 1.154
0.46900001 0.31999999 1.159
0.47499999 0.32600001 1.152
0.48500001 0.32800001 1.156
0.50099999 0.32550001 1.1554999
0.51499999 0.32350001 1.1575
0.54400003 0.32499999 1.155
0.55299997 0.32600001 1.155
0.583 0.3285 1.1524999
0.59899998 0.324 1.159
0.51700002 0.33000001 1.15
0.55299997 0.33399999 1.153
0.59850001 0.33499998 1.155
0.60699999 0.33199999 1.155
0.61400002 0.331 1.15
0.625 0.333 1.153
0.63300002 0.333 1.15
0.63499999 0.34200001 1.152
-0.667 0.213 1.166
-0.65499997 0.211 1.1619999
-0.62199998 0.21799999 1.169
-0.60549998 0.21600001 1.165
-0.53200001 0.219 1.168
-0.60000002 0.223 1.1619999
-0.59100002 0.222 1.163
-0.583 0.222 1.164
-0.57200003 0.221 1.16
-0.56400001 0.22 1.1619999
-0.55000001 0.221 1.17
-0.53899997 0.227 1.164
-0.52100003 0.22499999 1.1619999
-0.51499999 0.226 1.168
-0.498 0.22499999 1.168
-0.47 0.229 1.16
-0.44800001 0.229 1.166
-0.52100003 0.233 1.161
-0.47999999 0.23100001 1.164
-0.465 0.23 1.169
-0.456 0.237 1.164
-0.44800001 0.236 1.166
-0.43799999 0.235 1.16
-0.426 0.236 1.169
-0.40799999 0.234 1.166
-0.36549997 0.23899999 1.1645
-0.39649999 0.2405 1.1635
-0.36399999 0.24699999 1.17
-0.354 0.245 1.163
-0.34799999 0.24600001 1.169
-0.31 0.244 1.166
-0.287 0.249 1.16
-0.28 0.249 1.164
-0.266 0.249 1.1670001
-0.317 0.25 1.1619999
-0.30650002 0.25099999 1.166
-0.294 0.25 1.1619999
-0.273 0.25600001 1.161
-0.25799999 0.255 1.161
-0.24600001 0.25600001 1.17
-0.237 0.25400001 1.161
-0.227 0.2545 1.1654999
-0.21699999 0.255 1.169
-0.23 0.26199999 1.163
-0.215 0.25999999 1.16
-0.20200001 0.26100001 1.165
-0.19400001 0.25999999 1.16
-0.18333332 0.26266667 1.1626667
-0.17399999 0.26100001 1.168
-0.15766667 0.26199999 1.1656667
-0.146 0.266 1.163
-0.13600001 0.26300001 1.166
-0.125 0.26499999 1.1619999
-0.1155 0.266 1.165
-0.105 0.266 1.1670001
-0.097999997 0.26699999 1.17
-0.083999999 0.26499999 1.163
-0.085000001 0.273 1.1670001
-0.057 0.27200001 1.165
-0.046500001 0.271 1.163
-0.037 0.27200001 1.1670001
-0.0265 0.27500001 1.1635001
-0.016000001 0.278 1.16
-0.0060000001 0.27850002 1.163
0.003 0.278 1.161
0.0099999998 0.278 1.163
0.029999999 0.27900001 1.164
0.050999999 0.27900001 1.165
0.037 0.28 1.17
0.044 0.28 1.17
0.057999998 0.28 1.169
0.064999998 0.28 1.1670001
0.076000005 0.28433335 1.1653334
0.0955 0.28650001 1.1619999
0.106 0.287 1.166
0.113 0.28799999 1.166
0.1235 0.28850001 1.1675
0.134 0.289 1.17
0.148 0.289 1.169
0.126 0.294 1.16
0.154 0.29499999 1.161
0.169 0.28999999 1.17
0.175 0.296 1.163
0.183 0.296 1.164
0.19299999 0.2965 1.1635001
0.204 0.29699999 1.164
0.212 0.29899999 1.169
0.22499999 0.29800001 1.163
0.24699999 0.29899999 1.163
0.26800001 0.29899999 1.161
0.234 0.30000001 1.17
0.23999999 0.30000001 1.168
0.255 0.301 1.17
0.26199999 0.301 1.168
0.28350002 0.30400002 1.1635001
0.28999999 0.301 1.1619999
0.31400001 0.30399999 1.17
0.329 0.30399999 1.168
0.359 0.30599999 1.1670001
0.329 0.31099999 1.1670001
0.33500001 0.31 1.1619999
0.354 0.31150001 1.1605
0.36700001 0.31400001 1.166
0.382 0.31400001 1.163
0.3935 0.3145 1.1619999
0.41299999 0.31600001 1.161
0.42449999 0.31650001 1.1605
0.43799999 0.31099999 1.166
0.44499999 0.31799999 1.161
0.45300001 0.31900001 1.161
0.49700001 0.31600001 1.1670001
0.50599998 0.31799999 1.17
0.51499999 0.31799999 1.169
0.52399999 0.31900001 1.17
0.48449999 0.32300001 1.1670001
0.495 0.322 1.16
0.52999997 0.32600001 1.163
0.53200001 0.31999999 1.169
0.54050004 0.32450002 1.1670001
0.55900002 0.32300001 1.17
0.56550002 0.32600001 1.164
0.57500005 0.3265 1.165
0.58399999 0.324 1.166
0.68099999 0.32699999 1.17
0.64300001 0.331 1.17
0.66566664 0.33666667 1.163
0.67900002 0.333 1.165
-0.66900003 0.206 1.171
-0.65399998 0.206 1.178
-0.64399999 0.205 1.179
-0.57099998 0.208 1.1799999
-0.65499997 0.214 1.1799999
-0.64099997 0.212 1.1720001
-0.625 0.211 1.177
-0.61699998 0.211 1.179
-0.59500003 0.21600001 1.1720001
-0.58700001 0.21600001 1.174
-0.56900001 0.215 1.174
-0.51599997 0.219 1.173
-0.56 0.222 1.173
-0.54299998 0.221 1.173
-0.53299999 0.227 1.171
-0.52499998 0.22 1.173
-0.50800002 0.226 1.173
-0.493 0.226 1.176
-0.486 0.226 1.179
-0.44400001 0.22400001 1.179
-0.458 0.23 1.171
-0.44299999 0.23 1.174
-0.43700001 0.23800001 1.178
-0.41999999 0.237 1.176
-0.40400001 0.236 1.176
-0.396 0.235 1.176
-0.38499999 0.235 1.178
-0.34099999 0.23899999 1.173
-0.389 0.243 1.178
-0.38 0.241 1.173
-0.35800001 0.241 1.177
-0.34549999 0.243 1.1735001
-0.33399999 0.24600001 1.171
-0.32749999 0.243 1.178
-0.31900001 0.24600001 1.173
-0.30399999 0.245 1.174
-0.29800001 0.245 1.177
-0.28649998 0.245 1.1775
-0.27599999 0.245 1.178
-0.26100001 0.244 1.178
-0.20999999 0.249 1.174
-0.27500001 0.25099999 1.173
-0.26100001 0.25099999 1.175
-0.25299999 0.25 1.173
-0.24699999 0.25 1.176
-0.23999999 0.25 1.177
-0.20649999 0.255 1.1720001
-0.197 0.25600001 1.175
-0.183 0.25600001 1.1799999
-0.175 0.255 1.174
-0.168 0.255 1.177
-0.168 0.26199999 1.174
-0.147 0.26100001 1.173
-0.133 0.26100001 1.175
-0.126 0.26100001 1.175
-0.112 0.25999999 1.173
-0.092 0.26449999 1.177
-0.085000001 0.26100001 1.1799999
-0.074500002 0.26699999 1.1745
-0.057999998 0.26800001 1.178
-0.046999998 0.2665 1.1725
-0.037 0.26699999 1.176
-0.029999999 0.26800001 1.1799999
-0.023 0.273 1.1720001
-0.016000001 0.27399999 1.173
-0.0060000001 0.27399999 1.1735001
0.003 0.273 1.171
0.0135 0.27399999 1.176
0.024 0.27500001 1.179
0.034499999 0.27399999 1.1745
0.045000002 0.27500001 1.177
0.055 0.27500001 1.1784999
0.064999998 0.27500001 1.176
0.079000004 0.27500001 1.178
0.071999997 0.28099999 1.173
0.086000003 0.28099999 1.171
0.093000002 0.28299999 1.177
0.1 0.28200001 1.173
0.114 0.28299999 1.177
0.121 0.28299999 1.177
0.162 0.28299999 1.174
0.17 0.285 1.178
0.142 0.28999999 1.175
0.155 0.28999999 1.171
0.162 0.28999999 1.171
0.176 0.28999999 1.171
0.184 0.29100001 1.1720001
0.1945 0.2915 1.1730001
0.205 0.292 1.174
0.213 0.29300001 1.178
0.2235 0.29350001 1.1765001
0.235 0.294 1.178
0.248 0.294 1.173
0.27500001 0.296 1.178
0.29899999 0.296 1.171
0.22 0.30000001 1.175
0.278 0.30199999 1.1720001
0.3035 0.30399999 1.1720001
0.324 0.30599999 1.179
0.3355 0.3035 1.1789999
0.345 0.30599999 1.171
0.35350001 0.30400002 1.1754999
0.36500001 0.30400002 1.1745
0.377 0.30899999 1.174
0.384 0.30899999 1.173
0.39399999 0.30399999 1.1799999
0.42500001 0.30500001 1.176
0.39399999 0.31099999 1.178
0.405 0.31099999 1.1754999
0.41800001 0.31299999 1.178
0.42500001 0.31200001 1.174
0.433 0.31299999 1.175
0.449 0.31400001 1.175
0.46350002 0.31600001 1.178
0.47400001 0.31600001 1.174
0.484 0.31799999 1.178
0.493 0.31799999 1.178
0.51700002 0.31200001 1.177
0.53399998 0.31299999 1.175
0.56199998 0.317 1.178
0.58999997 0.31900001 1.178
0.55199999 0.32300001 1.175
0.59600002 0.32600001 1.171
0.61650002 0.32499999 1.175
0.64499998 0.324 1.175
0.66500002 0.32600001 1.176
0.62599999 0.33000001 1.174
0.65399998 0.333 1.173
0.66399997 0.33399999 1.173
-0.67550004 0.1955 1.1835001
-0.639 0.206 1.187
-0.62699997 0.205 1.183
-0.61900002 0.204 1.1849999
-0.60900003 0.204 1.184
-0.63700002 0.213 1.182
-0.60549998 0.211 1.1845
-0.58499998 0.21233332 1.1836666
-0.56400001 0.21600001 1.182
-0.55699998 0.21600001 1.1849999
-0.54449999 0.2155 1.188
-0.46399999 0.219 1.189
-0.514 0.221 1.186
-0.50300002 0.22 1.182
-0.498 0.221 1.189
-0.479 0.226 1.183
-0.45500001 0.22499999 1.186
-0.43200001 0.22499999 1.189
-0.38999999 0.229 1.184
-0.43449998 0.23100001 1.184
-0.421 0.23 1.181
-0.414 0.23 1.184
-0.40700001 0.23 1.187
-0.384 0.23 1.189
-0.375 0.235 1.182
-0.36700001 0.235 1.182
-0.35600001 0.235 1.1849999
-0.345 0.234 1.186
-0.33000001 0.234 1.189
-0.336 0.23999999 1.181
-0.322 0.23999999 1.183
-0.31400001 0.23999999 1.184
-0.3035 0.23999999 1.186
-0.29300001 0.23999999 1.188
-0.27000001 0.24600001 1.186
-0.249 0.24600001 1.188
-0.227 0.252 1.188
-0.219 0.25099999 1.183
-0.1945 0.25449997 1.186
-0.19 0.25 1.183
-0.162 0.25600001 1.182
-0.155 0.25600001 1.182
-0.1455 0.257 1.1875
-0.13500001 0.257 1.188
-0.113 0.255 1.184
-0.064999998 0.25600001 1.189
-0.12 0.26199999 1.181
-0.106 0.26199999 1.183
-0.1 0.26300001 1.1849999
-0.075499997 0.26199999 1.186
-0.064999998 0.26550001 1.182
-0.054499999 0.26199999 1.1849999
-0.037 0.26300001 1.189
-0.023 0.26800001 1.182
-0.016000001 0.26800001 1.182
-0.0069999998 0.26633334 1.1843333
0.003 0.26800001 1.182
0.017000001 0.26800001 1.182
0.024 0.27000001 1.189
0.030999999 0.27000001 1.189
0.071999997 0.27599999 1.182
0.086999997 0.27700001 1.186
0.093999997 0.27700001 1.186
0.1 0.27700001 1.184
0.115 0.278 1.186
0.121 0.27700001 1.181
0.13600001 0.27900001 1.188
0.108 0.285 1.186
0.12800001 0.285 1.183
0.13500001 0.285 1.182
0.142 0.285 1.183
0.153 0.285 1.1825
0.178 0.28600001 1.1849999
0.185 0.287 1.1849999
0.2 0.28799999 1.189
0.215 0.28799999 1.188
0.243 0.29499999 1.181
0.25799999 0.296 1.182
0.26499999 0.296 1.181
0.28799999 0.29899999 1.186
0.29499999 0.29800001 1.182
0.30899999 0.29800001 1.181
0.31799999 0.30000001 1.183
0.345 0.30149999 1.1849999
0.38699999 0.30399999 1.183
0.403 0.30500001 1.182
0.44299999 0.30700001 1.181
0.454 0.31 1.188
0.46200001 0.31099999 1.189
0.47299999 0.31 1.1835001
0.48500001 0.31099999 1.182
0.49399999 0.31200001 1.183
0.505 0.31400001 1.188
0.51300001 0.31400001 1.186
0.52999997 0.315 1.1849999
0.54900002 0.31799999 1.188
0.55699998 0.31799999 1.186
0.574 0.31900001 1.183
0.60399997 0.32300001 1.189
0.63099998 0.32499999 1.186
0.63999999 0.32600001 1.1849999
0.65899998 0.32699999 1.184
0.69099998 0.32300001 1.189
0.639 0.333 1.181
0.68000001 0.33000001 1.186
-0.66900003 0.193 1.191
-0.67149997 0.20500001 1.1930001
-0.60799998 0.206 1.199
-0.59600002 0.204 1.194
-0.58600003 0.20299999 1.192
-0.57099998 0.211 1.199
-0.56199998 0.211 1.199
-0.53299999 0.21600001 1.193
-0.52600002 0.21600001 1.196
-0.51800001 0.21600001 1.197
-0.50549996 0.215 1.199
-0.49200001 0.221 1.1950001
-0.48300001 0.221 1.1950001
-0.47399998 0.22400001 1.194
-0.46599999 0.227 1.192
-0.44299999 0.227 1.198
-0.42500001 0.22499999 1.192
-0.417 0.22499999 1.194
-0.36199999 0.229 1.193
-0.34799999 0.229 1.198
-0.40200001 0.23100001 1.194
-0.375 0.23100001 1.199
-0.35600001 0.23 1.199
-0.33899999 0.235 1.193
-0.324 0.235 1.194
-0.31799999 0.236 1.199
-0.28799999 0.242 1.198
-0.2755 0.23999999 1.1930001
-0.264 0.23999999 1.194
-0.25533333 0.242 1.1950001
-0.243 0.24699999 1.1950001
-0.214 0.24600001 1.196
-0.207 0.24600001 1.197
-0.19600001 0.2455 1.1965001
-0.235 0.25299999 1.191
-0.206 0.252 1.192
-0.184 0.25099999 1.1900001
-0.1745 0.252 1.1950001
-0.164 0.252 1.199
-0.15700001 0.252 1.198
-0.14300001 0.25099999 1.196
-0.12475 0.25400001 1.194
-0.107 0.257 1.1900001
-0.096500002 0.25749999 1.194
-0.086000003 0.25799999 1.198
-0.071999997 0.25799999 1.199
-0.037 0.25799999 1.199
-0.044 0.264 1.194
-0.0265 0.264 1.1935
-0.016000001 0.26300001 1.193
0.003 0.26499999 1.198
0.0135 0.26449999 1.196
0.030999999 0.264 1.1950001
0.0099999998 0.27200001 1.196
