# .PCD v0.7 - Point Cloud Data file format
VERSION 0.7
FIELDS x y z
SIZE 4 4 4
TYPE F F F
COUNT 1 1 1
WIDTH 1777
HEIGHT 1
VIEWPOINT 0 0 0 1 0 0 0
POINTS 1777
DATA ascii
-0.287407 -1.9435 -1.323168
0.493984 -2.027728 -1.3368
-0.47 -2.000814 -1.328997
-0.124408 -1.9685 -1.331976
-0.387444 -2.084175 -1.2968
0.365391 -1.9435 -1.332586
0.276491 -1.9435 -1.313695
0.025909 -1.989934 -1.2968
0.450539 -2.0935 -1.313555
-0.47 -2.061126 -1.310998
0.151142 -1.9435 -1.302522
-0.00304 -2.043356 -1.3368
0.026193 -1.997043 -1.3368
0.0388 -1.9435 -1.334695
-0.461139 -2.02951 -1.2968
-0.46772 -2.072621 -1.3368
0.079327 -1.965697 -1.2968
-0.06814 -1.9435 -1.304761
0.089235 -2.082084 -1.3368
-0.408802 -1.9435 -1.320366
-0.017707 -2.063731 -1.2968
-0.398853 -2.0935 -1.33286
-0.313342 -1.9685 -1.303937
0.435083 -1.9435 -1.3052
0.454963 -1.981243 -1.3368
0.284521 -1.947721 -1.2968
0.09 -2.07122 -1.333443
-0.259907 -1.9435 -1.32917
0.469182 -2.072931 -1.2968
0.247629 -1.951974 -1.2968
0.53 -1.9971 -1.298118
0.152756 -1.9685 -1.304415
-0.133898 -1.9435 -1.304336
0.460596 -2.012915 -1.2968
-0.334591 -1.944015 -1.2968
0.316476 -1.946914 -1.2968
-0.47 -2.088398 -1.326722
-0.431131 -2.051582 -1.3368
0.204039 -1.9685 -1.315397
0.479804 -1.944593 -1.3368
0.53 -1.958834 -1.322766
-0.445079 -2.0935 -1.324062
-0.39212 -1.980194 -1.3368
0.458244 -1.978412 -1.3368
0.44776 -2.080296 -1.2968
-0.02169 -2.0935 -1.304901
0.221314 -1.955073 -1.2968
0.073337 -2.004477 -1.2968
0.09 -1.990898 -1.321324
0.459289 -1.979345 -1.3368
0.497156 -2.001254 -1.2968
-0.461541 -1.997177 -1.3368
-0.112947 -1.9685 -1.327195
0.04329 -1.9435 -1.310643
0.263046 -1.9435 -1.304008
0.048132 -2.00304 -1.2968
-0.03 -1.973898 -1.329835
-0.336597 -1.9435 -1.306284
-0.268064 -1.9685 -1.312023
0.358279 -1.9435 -1.323669
0.369781 -1.9435 -1.311575
-0.002277 -2.011129 -1.2968
0.005681 -1.997849 -1.3368
-0.00335 -1.9435 -1.318054
0.125164 -1.9435 -1.33339
-0.030758 -1.956954 -1.3368
0.43 -2.001641 -1.324701
0.314381 -1.961964 -1.3368
0.03178 -2.007076 -1.2968
0.153089 -1.956674 -1.2968
0.148313 -1.9435 -1.317679
0.49174 -1.95131 -1.2968
-0.03 -2.022706 -1.330275
0.509614 -1.9435 -1.298688
-0.24613 -1.9435 -1.322322
0.522993 -2.046085 -1.3368
0.518359 -1.986033 -1.3368
-0.399659 -2.065827 -1.2968
-0.371844 -1.9435 -1.32331
0.439988 -2.03386 -1.2968
-0.289539 -1.9685 -1.323265
0.178412 -1.9685 -1.315107
-0.415074 -1.9435 -1.298177
-0.147374 -1.9685 -1.31276
-0.37 -1.980203 -1.320792
0.275864 -1.952597 -1.2968
-0.374285 -2.015171 -1.3368
0.43 -2.0902 -1.328368
-0.303532 -1.950129 -1.3368
-0.37 -2.003055 -1.333984
0.47859 -1.996287 -1.2968
0.43 -1.977547 -1.321174
0.051707 -1.965081 -1.3368
-0.34342 -1.9435 -1.306825
-0.41064 -1.989854 -1.2968
-0.063344 -1.9685 -1.32545
0.09 -2.044599 -1.323295
0.019208 -2.0935 -1.316
-0.227346 -1.9435 -1.329924
0.315286 -1.954538 -1.3368
0.446125 -1.965287 -1.3368
0.410767 -1.955595 -1.3368
0.254421 -1.962112 -1.3368
0.022922 -1.956917 -1.3368
0.379874 -1.958948 -1.3368
0.007861 -2.084811 -1.2968
-0.153415 -1.946512 -1.2968
-0.221126 -1.9435 -1.299887
-0.319355 -1.9685 -1.300173
-0.35039 -1.9685 -1.334727
-0.294267 -1.9685 -1.298884
-0.03 -2.002185 -1.304216
0.081175 -1.968135 -1.3368
0.431516 -2.088913 -1.3368
-0.372479 -1.999864 -1.3368
-0.414049 -1.968907 -1.2968
0.09 -2.077399 -1.310561
0.05822 -2.0935 -1.323235
0.068395 -2.061883 -1.3368
-0.37 -2.029222 -1.311783
0.021967 -2.093074 -1.3368
0.217926 -1.9435 -1.316326
0.030944 -2.056994 -1.2968
-0.307123 -1.9435 -1.334569
0.029374 -2.075604 -1.3368
0.258032 -1.950667 -1.2968
0.480688 -1.9435 -1.316488
-0.39573 -2.035533 -1.2968
0.133647 -1.9685 -1.33578
0.024707 -2.075966 -1.2968
-0.47 -2.00551 -1.330478
-0.325453 -1.96659 -1.3368
0.513244 -2.0935 -1.314846
0.53 -1.978128 -1.334144
-0.37 -2.056321 -1.319669
-0.12252 -1.945361 -1.3368
0.054391 -2.086944 -1.2968
-0.47 -2.061703 -1.305921
-0.244951 -1.95341 -1.2968
-0.232253 -1.9435 -1.329228
-0.396988 -2.027536 -1.3368
0.09 -1.993211 -1.305868
0.467352 -2.02625 -1.2968
0.43 -2.083796 -1.315492
0.282753 -1.9435 -1.314727
0.129433 -1.966239 -1.2968
0.246586 -1.955209 -1.2968
0.39082 -1.9435 -1.304675
0.43 -1.973543 -1.314103
0.002827 -2.09159 -1.2968
0.058682 -2.0935 -1.331803
0.064036 -1.959484 -1.3368
-0.009959 -1.956286 -1.3368
-0.273051 -1.944307 -1.2968
0.061196 -2.043476 -1.3368
-0.02618 -1.983844 -1.3368
-0.266749 -1.9435 -1.325596
0.379604 -1.9685 -1.333824
0.019127 -2.0935 -1.303705
0.237518 -1.9685 -1.297154
-0.309453 -1.965039 -1.2968
-0.178914 -1.959602 -1.2968
0.273383 -1.9685 -1.310115
-0.47 -1.966905 -1.325041
-0.457777 -1.944351 -1.2968
-0.37 -2.005196 -1.310073
0.404515 -1.94633 -1.2968
-0.439976 -1.963382 -1.3368
0.462884 -2.017367 -1.2968
0.481533 -1.964135 -1.3368
0.187735 -1.956971 -1.2968
-0.225839 -1.9685 -1.323401
-0.47 -2.014718 -1.306666
-0.125742 -1.9435 -1.303361
-0.47 -1.982076 -1.309728
0.484855 -2.0935 -1.330534
0.050789 -1.950121 -1.2968
-0.378143 -2.012748 -1.3368
-0.386954 -2.058773 -1.2968
0.466538 -2.061745 -1.2968
-0.451852 -1.997507 -1.2968
0.003151 -1.977715 -1.2968
-0.379106 -1.960856 -1.3368
0.53 -1.976488 -1.306631
0.450072 -2.016332 -1.2968
0.25453 -1.947254 -1.3368
0.480866 -2.076872 -1.2968
0.434232 -1.994749 -1.2968
-0.198811 -1.9685 -1.320038
-0.026171 -2.080899 -1.3368
0.231431 -1.9685 -1.323845
-0.004941 -1.982545 -1.3368
-0.019783 -2.061353 -1.2968
0.446618 -1.9435 -1.332169
0.179931 -1.96495 -1.3368
0.196441 -1.950246 -1.2968
-0.03 -2.085698 -1.325361
-0.37 -2.054579 -1.297202
0.195776 -1.955154 -1.2968
-0.367405 -1.9435 -1.334921
-0.47 -2.046315 -1.323138
0.03147 -2.040156 -1.2968
-0.373668 -2.035118 -1.3368
-0.37 -2.090539 -1.327752
0.025639 -2.0935 -1.30385
0.324566 -1.951126 -1.2968
0.301109 -1.9685 -1.326922
0.003991 -2.046175 -1.3368
-0.28809 -1.953635 -1.3368
-0.47 -2.038458 -1.314601
-0.47 -2.063981 -1.300494
0.031234 -1.994928 -1.3368
-0.258825 -1.945599 -1.3368
0.080039 -2.014194 -1.2968
0.063078 -1.9435 -1.324602
-0.037698 -1.9685 -1.31423
0.459824 -2.04983 -1.3368
0.109215 -1.9685 -1.309355
0.424946 -1.9685 -1.331055
0.511234 -2.089466 -1.3368
-0.003335 -1.97708 -1.2968
0.486111 -2.087782 -1.3368
0.02038 -2.061995 -1.3368
0.09448 -1.9435 -1.322187
-0.016597 -1.998899 -1.3368
0.211778 -1.950697 -1.2968
-0.427055 -2.034165 -1.2968
-0.024883 -1.9435 -1.303463
-0.093501 -1.9685 -1.33564
0.01614 -2.048049 -1.3368
0.024664 -2.021542 -1.2968
0.252607 -1.9435 -1.327137
0.428389 -1.950482 -1.3368
0.151577 -1.966824 -1.3368
-0.414757 -2.00723 -1.2968
0.43 -2.091206 -1.31231
-0.396418 -1.980304 -1.2968
0.019872 -2.0935 -1.310626
0.071773 -1.9435 -1.304868
-0.431177 -2.080648 -1.2968
-0.43084 -2.0935 -1.329116
-0.37 -2.042295 -1.330784
-0.45273 -2.076081 -1.3368
-0.309515 -1.959132 -1.2968
0.083992 -2.075473 -1.3368
0.09 -2.08248 -1.311079
-0.37 -2.026737 -1.309994
0.078463 -2.058121 -1.2968
0.488016 -1.9435 -1.297625
-0.418402 -2.040576 -1.2968
-0.440492 -1.943925 -1.2968
0.027073 -2.02016 -1.2968
0.085097 -1.94433 -1.2968
0.214433 -1.9685 -1.327764
0.50771 -1.9435 -1.325332
0.375629 -1.95922 -1.3368
-0.422054 -1.945599 -1.3368
-0.098783 -1.9685 -1.333425
0.43 -2.017656 -1.315536
-0.373758 -1.967272 -1.3368
-0.384341 -2.005802 -1.3368
0.503246 -1.952816 -1.2968
-0.291212 -1.9685 -1.304538
0.43 -2.072308 -1.321661
-0.464093 -1.9435 -1.323359
0.333229 -1.966738 -1.2968
-0.028365 -2.029689 -1.2968
-0.011264 -2.031004 -1.3368
0.118419 -1.9685 -1.332533
0.000125 -1.9435 -1.329079
0.467877 -2.032061 -1.3368
-0.143478 -1.9685 -1.330858
0.183291 -1.9435 -1.308669
0.53 -1.969093 -1.303676
0.43 -2.051807 -1.299647
0.327464 -1.9435 -1.318748
-0.000381 -1.946226 -1.3368
-0.01393 -1.952603 -1.2968
-0.47 -1.963949 -1.334521
0.369191 -1.9685 -1.306241
0.466773 -2.0935 -1.32283
-0.415564 -2.018326 -1.2968
0.230251 -1.9685 -1.297118
-0.03 -2.083999 -1.319458
0.074526 -2.085484 -1.3368
0.09 -1.986956 -1.30514
0.011737 -2.040766 -1.3368
-0.248573 -1.946461 -1.3368
-0.03 -2.035936 -1.323758
0.53 -1.971306 -1.303512
-0.179795 -1.9685 -1.321425
-0.086673 -1.9507 -1.3368
0.026726 -2.023979 -1.2968
0.257082 -1.967687 -1.3368
-0.37 -2.053349 -1.33438
-0.009981 -2.0935 -1.319891
-0.363481 -1.951859 -1.3368
0.025626 -2.0935 -1.315744
0.03366 -1.9435 -1.313607
0.030319 -2.0935 -1.3079
0.182712 -1.9435 -1.315622
-0.046726 -1.966139 -1.3368
-0.130009 -1.966772 -1.2968
-0.155958 -1.967543 -1.2968
-0.398518 -1.974734 -1.2968
-0.176655 -1.952117 -1.2968
-0.248246 -1.9685 -1.333324
0.206087 -1.962076 -1.2968
-0.010637 -1.9435 -1.33419
0.211775 -1.9685 -1.308052
0.453141 -2.0935 -1.308866
-0.424152 -2.0544 -1.2968
0.501796 -2.023556 -1.3368
0.43 -2.030882 -1.327854
-0.118954 -1.953301 -1.3368
-0.013953 -2.075124 -1.2968
-0.441966 -2.0935 -1.302412
0.524543 -1.947344 -1.3368
-0.410503 -1.945044 -1.2968
0.224234 -1.958095 -1.2968
0.381808 -1.9435 -1.332014
-0.03 -2.007532 -1.334552
0.469717 -1.992644 -1.3368
-0.10777 -1.9685 -1.306122
0.408163 -1.9685 -1.317046
-0.03 -2.067203 -1.318233
-0.136708 -1.957721 -1.3368
0.080537 -2.006209 -1.3368
-0.014799 -2.001971 -1.3368
0.482989 -1.944259 -1.2968
-0.441584 -2.0935 -1.334024
-0.308596 -1.9685 -1.316585
0.53 -2.019301 -1.328604
0.332663 -1.9435 -1.318233
-0.40141 -2.074528 -1.2968
0.482652 -2.0935 -1.330593
0.368004 -1.9435 -1.303021
-0.342224 -1.956751 -1.3368
0.29271 -1.944563 -1.2968
-0.029611 -2.073047 -1.2968
-0.38905 -2.028306 -1.3368
0.09 -2.04101 -1.321918
-0.45491 -2.0935 -1.320658
0.432968 -2.022635 -1.3368
0.459218 -2.030749 -1.3368
-0.463341 -2.022579 -1.2968
-0.049298 -1.944025 -1.2968
0.09094 -1.952477 -1.2968
0.121567 -1.960835 -1.3368
-0.190985 -1.949284 -1.2968
-0.3992 -1.996069 -1.2968
0.462196 -1.988556 -1.2968
0.085367 -2.067396 -1.2968
0.178304 -1.965197 -1.3368
0.016952 -2.091073 -1.3368
0.075233 -2.08691 -1.2968
-0.02061 -1.985406 -1.3368
-0.47 -2.002814 -1.300817
-0.009762 -1.9435 -1.328638
0.49001 -1.9435 -1.297242
0.071578 -1.98694 -1.2968
0.53 -1.974906 -1.313403
0.445149 -2.0935 -1.302375
0.46284 -2.0935 -1.33099
0.001373 -2.042018 -1.2968
-0.413175 -1.99923 -1.3368
-0.20187 -1.946917 -1.3368
0.063822 -1.943937 -1.2968
0.511387 -2.05172 -1.2968
-0.072149 -1.952334 -1.2968
0.43 -2.032938 -1.316235
-0.204377 -1.9435 -1.309419
0.184293 -1.961563 -1.2968
-0.342086 -1.9435 -1.327794
0.496508 -2.049702 -1.2968
-0.046886 -1.9685 -1.326091
-0.433185 -2.0935 -1.31883
-0.036157 -1.9685 -1.316251
-0.350825 -1.964212 -1.2968
0.160198 -1.9685 -1.318507
0.53 -2.017514 -1.304174
-0.45964 -2.077345 -1.2968
-0.47 -1.996461 -1.301688
0.058993 -1.960958 -1.3368
-0.47 -1.963087 -1.311655
0.003266 -1.951539 -1.3368
0.09 -2.06438 -1.327226
-0.464723 -2.007863 -1.3368
-0.363041 -1.957002 -1.2968
0.201856 -1.961716 -1.2968
0.345163 -1.965731 -1.2968
-0.444008 -1.967457 -1.3368
0.421132 -1.9685 -1.323646
-0.455188 -2.060771 -1.3368
-0.191247 -1.961869 -1.3368
-0.129296 -1.952229 -1.3368
-0.438916 -1.9435 -1.312549
-0.437225 -1.947781 -1.2968
0.492848 -2.0935 -1.326231
0.254859 -1.9685 -1.333152
-0.421346 -1.9435 -1.300107
0.202668 -1.9435 -1.327332
0.460799 -1.9435 -1.333958
-0.040331 -1.9685 -1.32973
0.404822 -1.9435 -1.30053
-0.375255 -2.049472 -1.3368
0.06739 -2.0935 -1.326405
0.414552 -1.9685 -1.333895
-0.29143 -1.9435 -1.310762
0.027988 -2.043866 -1.3368
-0.349281 -1.946353 -1.2968
0.044355 -1.9435 -1.311761
0.077617 -1.982224 -1.3368
-0.118013 -1.9685 -1.326847
-0.47 -1.971445 -1.314638
0.388199 -1.9685 -1.318867
-0.03 -2.054828 -1.310566
-0.212666 -1.9435 -1.318528
0.504727 -2.047754 -1.3368
-0.448685 -2.048207 -1.3368
-0.422869 -2.0935 -1.308531
-0.19585 -1.9435 -1.307961
0.069376 -1.9435 -1.317869
-0.076883 -1.947494 -1.3368
0.123303 -1.945205 -1.2968
0.024381 -2.055975 -1.2968
0.53 -1.947208 -1.304358
0.43 -2.065988 -1.301772
-0.291994 -1.9435 -1.306907
-0.47 -2.030854 -1.314242
0.008403 -1.9435 -1.31795
-0.024573 -2.051349 -1.3368
0.1586 -1.9435 -1.324175
-0.03 -2.01874 -1.320642
0.080386 -1.999397 -1.3368
0.041177 -1.971168 -1.3368
-0.020246 -1.9435 -1.305692
-0.03 -1.989003 -1.32782
-0.199681 -1.9435 -1.312862
0.05331 -2.062304 -1.2968
-0.213701 -1.9435 -1.303466
0.055095 -1.961304 -1.2968
0.492439 -2.0935 -1.297427
0.205041 -1.968325 -1.3368
-0.211024 -1.94543 -1.2968
0.53 -2.083944 -1.313739
-0.246033 -1.946788 -1.2968
-0.392267 -1.995517 -1.3368
-0.03 -2.071448 -1.333901
0.495579 -1.993978 -1.2968
-0.017147 -2.066034 -1.3368
0.501453 -2.074192 -1.2968
0.431665 -1.9435 -1.334531
-0.02775 -2.077731 -1.2968
0.473504 -1.999249 -1.2968
-0.009046 -1.985839 -1.2968
-0.394282 -1.976437 -1.2968
0.146278 -1.9685 -1.305675
0.43 -2.021671 -1.319359
-0.286035 -1.9685 -1.326586
0.018181 -2.063179 -1.3368
-0.07918 -1.965282 -1.2968
0.129732 -1.9435 -1.322581
-0.269486 -1.959496 -1.2968
0.493327 -2.004584 -1.3368
0.502812 -2.0287 -1.3368
-0.37 -2.043863 -1.333967
-0.303291 -1.9685 -1.29793
0.071968 -1.9435 -1.302126
-0.226912 -1.9685 -1.308767
0.43 -2.048745 -1.311504
-0.004091 -2.032564 -1.3368
-0.37 -2.05433 -1.316292
-0.173048 -1.9435 -1.329463
-0.37 -2.051681 -1.318672
0.001362 -2.092398 -1.2968
0.43 -2.066742 -1.328303
0.063375 -2.084791 -1.2968
0.53 -2.076775 -1.312354
0.498527 -2.016446 -1.2968
-0.075612 -1.9435 -1.302448
-0.403245 -2.029479 -1.2968
0.080423 -2.08647 -1.3368
0.326429 -1.944723 -1.2968
-0.254328 -1.9435 -1.330438
-0.47 -1.965779 -1.303594
0.499287 -1.9435 -1.300301
-0.094312 -1.9685 -1.319707
-0.369979 -1.9685 -1.321486
-0.184682 -1.943636 -1.3368
-0.264288 -1.9435 -1.32241
0.338675 -1.9685 -1.335235
-0.38883 -2.054601 -1.3368
0.43 -2.077964 -1.304375
0.431253 -2.024841 -1.3368
0.484815 -2.073964 -1.2968
-0.288256 -1.943874 -1.2968
-0.405338 -2.0935 -1.326758
0.383771 -1.9435 -1.335388
0.529041 -1.9435 -1.322451
0.53 -1.982268 -1.307377
-0.012403 -1.981168 -1.3368
0.073178 -2.050079 -1.2968
-0.134455 -1.960812 -1.2968
-0.291887 -1.968314 -1.2968
0.53 -2.027885 -1.333841
0.001339 -1.9435 -1.323882
-0.421803 -2.045081 -1.2968
-0.37 -2.034167 -1.327328
0.00403 -2.067473 -1.3368
0.496513 -1.946889 -1.3368
-0.159128 -1.9435 -1.312376
0.436847 -1.971461 -1.2968
-0.437425 -1.988353 -1.3368
0.003767 -2.063257 -1.3368
0.43 -1.996507 -1.330963
0.515013 -2.051451 -1.3368
0.35705 -1.9435 -1.334701
-0.096058 -1.9685 -1.317879
0.52017 -1.9435 -1.29917
-0.275975 -1.9685 -1.329203
-0.045624 -1.9435 -1.318483
0.525573 -2.009129 -1.3368
-0.00857 -2.070236 -1.2968
-0.37 -1.97226 -1.302664
0.085246 -1.9435 -1.334483
0.005744 -2.026476 -1.3368
0.482452 -2.04675 -1.2968
0.058493 -2.048863 -1.3368
0.42688 -1.963607 -1.2968
0.53 -2.057747 -1.305796
-0.03 -1.972284 -1.3043
-0.386675 -2.0935 -1.325259
0.08157 -1.994689 -1.2968
-0.372704 -1.982869 -1.3368
-0.002677 -1.961647 -1.3368
0.003144 -1.983376 -1.3368
0.469805 -1.9435 -1.317336
0.324466 -1.9685 -1.31666
0.406802 -1.9685 -1.312922
-0.001893 -2.048429 -1.2968
-0.261551 -1.954734 -1.2968
-0.173086 -1.9435 -1.299964
-0.325708 -1.9435 -1.329746
0.061816 -1.9435 -1.309323
-0.378299 -1.98036 -1.3368
0.261553 -1.9685 -1.304567
-0.398063 -2.017734 -1.2968
0.347465 -1.9435 -1.319903
-0.014341 -1.981189 -1.3368
0.056331 -2.0935 -1.336015
-0.391045 -2.010276 -1.3368
0.53 -1.979208 -1.322529
-0.47 -1.965275 -1.325054
0.475826 -1.968395 -1.2968
0.066385 -2.027483 -1.3368
-0.37 -1.98018 -1.318514
-0.03 -2.044081 -1.320486
-0.306192 -1.9435 -1.333412
-0.47 -2.059841 -1.321726
0.01988 -1.976685 -1.2968
-0.411019 -2.033373 -1.3368
0.43 -2.017259 -1.301357
0.474947 -2.0935 -1.328616
-0.135748 -1.955154 -1.3368
-0.412723 -2.063337 -1.2968
-0.31986 -1.9685 -1.326247
-0.464236 -2.087198 -1.3368
-0.446278 -2.010022 -1.3368
-0.029286 -2.074958 -1.3368
-0.134406 -1.945277 -1.2968
-0.180007 -1.957282 -1.3368
-0.172784 -1.9685 -1.309403
-0.37 -2.083958 -1.30723
0.438254 -2.0935 -1.302952
-0.22769 -1.9685 -1.299244
-0.23422 -1.9435 -1.310463
-0.411983 -2.01224 -1.3368
-0.38606 -2.013558 -1.2968
0.40854 -1.9685 -1.304995
0.02406 -2.041736 -1.2968
-0.453414 -1.9435 -1.33286
0.008641 -2.083079 -1.3368
0.428496 -1.9435 -1.309135
-0.371045 -1.9435 -1.303093
-0.468633 -1.992503 -1.3368
0.09 -2.079798 -1.30421
0.173346 -1.9435 -1.301697
0.499373 -2.034654 -1.2968
0.129579 -1.9685 -1.312455
0.023593 -1.955576 -1.2968
-0.417627 -2.0935 -1.325412
0.277224 -1.952691 -1.2968
0.519516 -1.98743 -1.2968
-0.378035 -2.02084 -1.3368
0.033132 -2.010022 -1.3368
-0.03 -1.979719 -1.318454
-0.334017 -1.9435 -1.308824
0.504148 -2.0935 -1.303235
-0.442076 -2.077787 -1.2968
0.09 -2.017081 -1.329862
-0.444947 -2.044393 -1.3368
0.392037 -1.9685 -1.306543
0.010536 -1.956391 -1.3368
-0.424896 -1.9435 -1.312531
-0.37 -2.050137 -1.311002
0.42573 -1.956636 -1.2968
-0.003333 -2.011386 -1.2968
-0.47 -1.957141 -1.313348
0.057541 -2.089932 -1.2968
0.009703 -1.952496 -1.3368
-0.314597 -1.9685 -1.308836
0.055098 -2.091065 -1.3368
0.067775 -1.960884 -1.2968
-0.038187 -1.9685 -1.297112
-0.03 -1.978394 -1.309011
-0.47 -2.056678 -1.334638
0.516378 -2.08183 -1.2968
0.256636 -1.9435 -1.315797
-0.432512 -2.074267 -1.2968
0.43 -1.982747 -1.321372
-0.47 -1.954938 -1.310323
0.43 -2.009824 -1.321245
0.047631 -2.0935 -1.305517
-0.361175 -1.9685 -1.321641
-0.398508 -2.0935 -1.304705
-0.013974 -2.069589 -1.3368
-0.37 -2.073888 -1.314833
-0.195808 -1.9685 -1.311052
0.345723 -1.964587 -1.3368
0.467549 -2.093187 -1.2968
-0.464279 -2.0935 -1.315296
0.086364 -2.046448 -1.3368
-0.03 -1.981189 -1.303274
0.501853 -2.074409 -1.3368
-0.449779 -2.044304 -1.2968
0.09 -2.085327 -1.312516
0.466584 -1.9435 -1.330589
0.240698 -1.9584 -1.2968
-0.094245 -1.9435 -1.297298
-0.290896 -1.966848 -1.3368
-0.412897 -2.0935 -1.336227
0.267776 -1.951267 -1.3368
0.287672 -1.9435 -1.31269
0.51967 -2.053862 -1.3368
-0.26411 -1.9435 -1.303926
-0.37 -2.051932 -1.307448
0.09 -2.066729 -1.333715
-0.03 -2.042154 -1.297612
0.013423 -1.946224 -1.3368
0.025015 -2.037619 -1.3368
-0.141709 -1.9685 -1.314018
0.382015 -1.9435 -1.333543
-0.226787 -1.9685 -1.318528
-0.47 -2.043664 -1.297543
0.441857 -1.948986 -1.2968
-0.431815 -1.997492 -1.2968
-0.045252 -1.9685 -1.326754
-0.219638 -1.9685 -1.299719
-0.188158 -1.9685 -1.32719
0.09 -2.082511 -1.30911
-0.10025 -1.9685 -1.31364
0.040287 -1.994349 -1.2968
0.020482 -2.014395 -1.3368
0.481911 -1.9435 -1.333987
-0.0197 -2.077988 -1.2968
0.09 -2.035631 -1.335835
0.517589 -2.008738 -1.3368
-0.47 -1.944386 -1.322701
0.1963 -1.9685 -1.330111
0.523817 -1.9435 -1.332188
0.272084 -1.954871 -1.3368
0.53 -1.993142 -1.321749
-0.148582 -1.9435 -1.332459
0.09 -2.070885 -1.308303
0.53 -2.069189 -1.33004
0.502707 -1.945666 -1.2968
-0.029815 -2.048319 -1.2968
0.298335 -1.9685 -1.299273
-0.408154 -2.004438 -1.2968
0.464802 -2.089381 -1.3368
-0.44844 -2.085108 -1.3368
0.051679 -2.083245 -1.2968
-0.280453 -1.9435 -1.324205
-0.134644 -1.9685 -1.307524
0.477249 -1.9435 -1.300556
-0.03 -2.064355 -1.323892
-0.008187 -2.049674 -1.3368
-0.391212 -1.960606 -1.2968
-0.022444 -2.003032 -1.3368
-0.392721 -2.050543 -1.2968
-0.030756 -1.946309 -1.2968
0.472021 -2.021812 -1.3368
-0.362843 -1.966328 -1.3368
0.017238 -1.9435 -1.317059
-0.272939 -1.965432 -1.3368
0.043832 -2.041982 -1.2968
0.482872 -1.986366 -1.3368
-0.120812 -1.954096 -1.2968
-0.03 -2.019352 -1.327883
0.065489 -1.952411 -1.2968
0.235344 -1.949506 -1.2968
-0.17871 -1.957614 -1.2968
-0.419881 -2.066246 -1.2968
0.48389 -2.06682 -1.3368
-0.013504 -2.050057 -1.3368
-0.437159 -2.004092 -1.3368
0.102148 -1.961994 -1.2968
-0.318246 -1.963779 -1.2968
0.332442 -1.9435 -1.336219
-0.009488 -2.0935 -1.305646
0.232432 -1.959015 -1.2968
0.322176 -1.953544 -1.2968
0.45825 -1.991775 -1.3368
-0.183192 -1.9685 -1.332072
-0.020428 -1.965366 -1.3368
-0.02211 -1.991948 -1.2968
0.417274 -1.957235 -1.2968
0.43 -1.988286 -1.307594
0.18376 -1.9435 -1.305655
-0.023292 -1.976138 -1.3368
0.432397 -1.99531 -1.3368
-0.055466 -1.958832 -1.2968
0.042672 -1.961273 -1.2968
0.08537 -1.976097 -1.2968
0.434544 -2.030617 -1.2968
0.075687 -2.028722 -1.2968
0.09 -2.072853 -1.326949
-0.110679 -1.9685 -1.31802
-0.010861 -2.015089 -1.2968
0.482488 -2.0935 -1.314059
0.059492 -2.069396 -1.3368
0.457133 -1.956234 -1.3368
-0.47 -2.047629 -1.312833
0.085126 -2.0935 -1.335968
-0.27396 -1.9435 -1.332269
-0.311662 -1.9571 -1.3368
-0.070384 -1.9435 -1.327961
0.23474 -1.9435 -1.300671
0.504269 -2.021997 -1.2968
-0.016225 -2.0892 -1.3368
0.458559 -1.950496 -1.3368
0.53 -2.03366 -1.321555
-0.47 -2.0763 -1.31268
0.069289 -2.00937 -1.3368
0.069965 -2.092431 -1.3368
0.054526 -1.981329 -1.3368
0.307448 -1.9685 -1.335264
0.528813 -2.005363 -1.3368
0.43 -1.974121 -1.3156
-0.37 -1.972908 -1.297054
0.371093 -1.9435 -1.335543
0.24319 -1.9685 -1.327215
0.125442 -1.9435 -1.331829
-0.03 -2.085694 -1.310863
0.473203 -2.082314 -1.2968
0.083374 -2.082538 -1.2968
-0.289628 -1.9435 -1.312412
0.074407 -2.026085 -1.2968
-0.47 -2.051697 -1.326676
0.476875 -2.073524 -1.3368
-0.115575 -1.963983 -1.2968
-0.028331 -2.020004 -1.3368
-0.370107 -1.957786 -1.2968
-0.450165 -1.948404 -1.2968
-0.022079 -2.041544 -1.3368
0.43 -2.040456 -1.309208
0.09 -1.994078 -1.309176
-0.147994 -1.946282 -1.3368
0.526015 -2.050336 -1.2968
0.024662 -2.06425 -1.3368
-0.384087 -2.065767 -1.3368
0.087429 -2.0935 -1.298628
-0.03 -2.007524 -1.304769
-0.384549 -2.0935 -1.320355
-0.47 -2.000061 -1.334182
0.112156 -1.944821 -1.2968
0.260418 -1.963983 -1.3368
-0.156546 -1.9435 -1.322332
0.49569 -2.023676 -1.2968
0.026534 -2.068184 -1.3368
-0.001698 -2.055219 -1.2968
-0.215121 -1.9435 -1.334967
0.203927 -1.9435 -1.331195
0.103951 -1.9685 -1.32558
0.53 -2.054979 -1.331557
-0.271153 -1.958348 -1.2968
0.521144 -1.944065 -1.2968
0.511053 -2.030008 -1.3368
0.43 -2.088954 -1.328526
-0.015006 -1.997379 -1.2968
-0.251432 -1.9685 -1.327014
0.09 -2.018495 -1.325439
0.53 -2.07199 -1.30438
0.09 -1.981838 -1.319089
0.185202 -1.9435 -1.306517
-0.467583 -1.971144 -1.3368
-0.052745 -1.963364 -1.2968
0.53 -2.050923 -1.310009
-0.246191 -1.961147 -1.3368
0.171926 -1.9685 -1.321048
0.433814 -2.0935 -1.302366
0.306634 -1.9685 -1.309291
-0.368362 -1.9435 -1.304497
-0.431719 -2.0935 -1.302721
-0.350738 -1.9435 -1.298212
0.141201 -1.9685 -1.318232
0.006577 -1.963375 -1.3368
0.087645 -1.961712 -1.2968
0.09 -2.078014 -1.300765
0.514436 -2.0935 -1.306161
0.009746 -2.085808 -1.2968
-0.47 -1.999143 -1.329787
0.405397 -1.958873 -1.3368
0.2508 -1.9435 -1.32719
-0.47 -2.039794 -1.336063
-0.089255 -1.952207 -1.3368
-0.03 -2.006858 -1.319212
-0.096105 -1.9435 -1.332446
0.455531 -1.948218 -1.2968
-0.101173 -1.9435 -1.31982
-0.439065 -1.949142 -1.2968
0.53 -2.044713 -1.301721
0.246506 -1.951302 -1.3368
-0.46 -2.067297 -1.2968
-0.385452 -2.0935 -1.311716
-0.170277 -1.9685 -1.318312
0.52772 -1.9435 -1.306196
-0.160886 -1.960943 -1.3368
0.501677 -2.0935 -1.311622
-0.314778 -1.945522 -1.2968
0.300757 -1.9435 -1.308559
0.486709 -2.0935 -1.312157
-0.352689 -1.9435 -1.331342
0.1891 -1.9685 -1.320184
0.269329 -1.9435 -1.317554
-0.20195 -1.9685 -1.302874
0.383095 -1.9435 -1.317092
-0.41355 -1.990425 -1.3368
0.227284 -1.945501 -1.2968
0.108491 -1.961219 -1.2968
0.495259 -2.02803 -1.3368
-0.302463 -1.9685 -1.309138
0.076002 -1.963758 -1.3368
-0.03 -2.080164 -1.296815
0.445726 -1.976223 -1.2968
-0.37 -2.070604 -1.299297
0.518317 -2.04036 -1.2968
0.397994 -1.9435 -1.302149
0.000881 -2.041627 -1.3368
-0.228544 -1.9435 -1.325284
0.054975 -1.9435 -1.32628
0.43 -2.043024 -1.31368
0.09 -2.035118 -1.329711
0.180737 -1.962074 -1.2968
-0.174984 -1.954164 -1.3368
0.075078 -1.9435 -1.326009
-0.39691 -2.045022 -1.2968
-0.000116 -2.048115 -1.2968
0.481911 -1.978451 -1.2968
-0.416486 -1.984016 -1.2968
0.009075 -1.963356 -1.3368
-0.255773 -1.9685 -1.314937
-0.394606 -1.967133 -1.2968
0.07937 -1.945096 -1.3368
0.440866 -2.010123 -1.3368
0.382959 -1.9435 -1.322273
-0.392743 -2.031746 -1.2968
0.450462 -1.97957 -1.3368
-0.198816 -1.955016 -1.3368
-0.47 -2.067388 -1.301018
0.198241 -1.964409 -1.3368
0.09 -2.035178 -1.317502
0.53 -2.029866 -1.304924
-0.436015 -2.070463 -1.3368
-0.379185 -2.031166 -1.2968
-0.383229 -1.9435 -1.319203
0.406996 -1.9685 -1.33627
-0.305606 -1.9435 -1.333971
-0.388073 -1.9435 -1.299135
0.471148 -1.9435 -1.29875
-0.413699 -1.970559 -1.3368
0.385388 -1.9685 -1.328417
0.45235 -2.033809 -1.2968
-0.232828 -1.962883 -1.3368
-0.433066 -1.969498 -1.2968
-0.03 -2.000362 -1.307424
0.045886 -2.034428 -1.2968
-0.426592 -2.041078 -1.3368
0.508981 -2.068713 -1.2968
-0.03 -1.997732 -1.329005
0.025031 -1.982614 -1.2968
-0.030125 -1.9685 -1.31261
-0.190571 -1.9435 -1.323299
-0.291596 -1.9435 -1.310655
-0.37 -1.995586 -1.325533
0.09 -2.080437 -1.298854
0.498538 -2.032374 -1.2968
0.370896 -1.954856 -1.3368
-0.03 -1.998305 -1.336588
0.53 -2.060191 -1.299076
0.474755 -2.087097 -1.2968
-0.184802 -1.965454 -1.2968
-0.125626 -1.9435 -1.325835
-0.397289 -1.966751 -1.3368
-0.263099 -1.9435 -1.33029
0.461064 -2.022344 -1.2968
-0.37 -2.074807 -1.328141
0.517328 -2.072171 -1.2968
-0.37 -2.064769 -1.323203
0.115656 -1.947073 -1.3368
-0.155262 -1.9685 -1.314961
0.036637 -2.0935 -1.309351
0.502673 -2.072432 -1.2968
-0.466238 -1.9435 -1.335005
0.443891 -1.968719 -1.2968
-0.393107 -2.085222 -1.2968
0.117658 -1.9435 -1.324345
-0.177 -1.966314 -1.2968
0.021909 -2.054457 -1.2968
-0.032565 -1.944322 -1.2968
-0.33333 -1.9435 -1.330785
0.427527 -1.9435 -1.302916
0.388453 -1.9685 -1.323983
0.198173 -1.953048 -1.3368
-0.419592 -1.960556 -1.2968
0.070903 -2.056947 -1.2968
0.43 -2.027995 -1.332112
0.447107 -1.989045 -1.3368
0.427292 -1.946709 -1.3368
-0.03 -2.088697 -1.335654
0.53 -2.004503 -1.329873
0.470663 -2.026853 -1.2968
-0.140969 -1.968316 -1.2968
0.441739 -2.005211 -1.3368
-0.029958 -1.992029 -1.2968
0.053589 -2.037827 -1.2968
0.232925 -1.955221 -1.2968
0.09 -2.029503 -1.322618
-0.447263 -2.0935 -1.334827
0.131273 -1.955765 -1.2968
0.038069 -2.063939 -1.3368
-0.035953 -1.9435 -1.333726
-0.424887 -2.047621 -1.2968
0.52565 -2.063779 -1.3368
-0.03 -2.005233 -1.321551
-0.091087 -1.9685 -1.318054
0.054004 -2.088518 -1.2968
-0.336255 -1.955722 -1.2968
0.142349 -1.953431 -1.3368
-0.374665 -1.997195 -1.2968
-0.424357 -1.9435 -1.32007
0.09 -1.971819 -1.326001
0.53 -2.00842 -1.305652
0.029076 -1.947596 -1.2968
-0.143129 -1.951593 -1.3368
0.344978 -1.957558 -1.3368
0.092228 -1.9685 -1.335222
0.53 -1.954877 -1.302351
0.376078 -1.94949 -1.3368
0.428935 -1.961697 -1.3368
-0.47 -2.045278 -1.330738
-0.162635 -1.956333 -1.2968
-0.438302 -1.976653 -1.2968
-0.444739 -2.021081 -1.2968
0.110066 -1.9435 -1.324445
0.469501 -2.0935 -1.329429
-0.03 -2.074057 -1.321452
0.441209 -2.01726 -1.2968
0.045821 -2.042876 -1.3368
-0.104329 -1.9685 -1.326592
-0.395988 -1.984956 -1.2968
0.510811 -2.065758 -1.2968
-0.013289 -2.045062 -1.2968
-0.244291 -1.947099 -1.3368
0.122521 -1.9435 -1.305588
0.192079 -1.9435 -1.336414
0.46777 -2.060626 -1.2968
0.477823 -2.032211 -1.3368
-0.335855 -1.9685 -1.327112
-0.392139 -2.064128 -1.2968
-0.067424 -1.9685 -1.297814
-0.438117 -2.006525 -1.2968
0.37849 -1.9435 -1.315046
-0.442452 -1.958068 -1.3368
-0.225167 -1.9685 -1.329838
0.213971 -1.959634 -1.3368
-0.37422 -2.0935 -1.309948
-0.234011 -1.9685 -1.335259
0.089442 -1.944563 -1.3368
-0.239611 -1.9435 -1.313913
-0.356133 -1.964039 -1.2968
-0.47 -2.029641 -1.307275
0.47363 -1.968011 -1.2968
-0.326366 -1.953047 -1.3368
0.214606 -1.9435 -1.304163
-0.385629 -2.0935 -1.307681
0.082016 -2.020617 -1.2968
0.403405 -1.953528 -1.3368
-0.461062 -1.973455 -1.2968
0.192994 -1.9435 -1.331994
-0.37 -2.06736 -1.302696
-0.003167 -2.0935 -1.304811
0.469651 -2.085233 -1.2968
0.455362 -1.965907 -1.2968
-0.000727 -2.087599 -1.3368
-0.003661 -1.996173 -1.2968
-0.31643 -1.9435 -1.303224
-0.234735 -1.9435 -1.317772
0.368935 -1.96693 -1.2968
-0.425265 -1.957654 -1.3368
-0.451641 -1.989981 -1.3368
0.019562 -2.006828 -1.2968
-0.15527 -1.9685 -1.332645
0.487857 -1.961181 -1.3368
0.253861 -1.9685 -1.335482
-0.42252 -2.0935 -1.335764
0.506223 -2.020662 -1.3368
-0.031173 -1.967105 -1.2968
0.466692 -2.057064 -1.2968
0.151389 -1.9435 -1.32973
-0.450402 -2.03936 -1.2968
0.257907 -1.9685 -1.305996
0.449647 -1.996396 -1.2968
0.44239 -1.998425 -1.3368
-0.038084 -1.962373 -1.2968
-0.467552 -1.9435 -1.305033
-0.3429 -1.9435 -1.308621
0.43 -2.050906 -1.320371
0.057453 -1.999455 -1.3368
-0.21482 -1.9685 -1.322033
0.023101 -2.011121 -1.2968
0.082769 -2.09032 -1.3368
0.015869 -2.076206 -1.3368
0.451277 -1.9435 -1.317462
0.432155 -1.971391 -1.3368
0.458952 -1.966004 -1.2968
0.012276 -2.024167 -1.3368
-0.326962 -1.961709 -1.3368
-0.409879 -2.076825 -1.2968
0.032046 -2.046405 -1.2968
0.46844 -1.974783 -1.3368
0.216915 -1.9435 -1.326619
-0.421033 -2.084058 -1.2968
0.09 -1.998273 -1.299777
-0.345446 -1.9435 -1.307595
-0.37 -1.987312 -1.30812
0.53 -2.067981 -1.321506
-0.040948 -1.955705 -1.3368
0.040899 -2.005721 -1.2968
0.53 -2.067865 -1.30294
0.482367 -1.967629 -1.2968
-0.469523 -1.9435 -1.328781
0.324427 -1.966116 -1.3368
0.45601 -2.082809 -1.3368
0.461868 -2.033688 -1.3368
-0.415313 -1.958764 -1.3368
0.37307 -1.966675 -1.2968
0.488874 -2.039271 -1.3368
-0.068559 -1.9685 -1.317766
0.439098 -2.0935 -1.318413
-0.03 -2.021694 -1.322402
0.466587 -1.94519 -1.2968
0.015942 -2.043518 -1.2968
-0.422071 -2.002554 -1.3368
-0.463813 -2.016632 -1.3368
-0.287676 -1.956893 -1.2968
0.461064 -1.995244 -1.3368
-0.240213 -1.9685 -1.307132
0.381014 -1.9685 -1.335827
-0.03 -2.053264 -1.336343
0.478121 -2.004819 -1.3368
0.083362 -2.051941 -1.2968
0.419246 -1.9685 -1.328563
0.349287 -1.965582 -1.2968
0.373854 -1.953837 -1.2968
0.433335 -2.015141 -1.3368
0.223026 -1.960373 -1.2968
-0.040644 -1.95878 -1.3368
-0.430417 -1.969253 -1.3368
-0.420456 -1.960004 -1.2968
0.079023 -2.00027 -1.2968
-0.37 -1.992248 -1.319313
-0.435843 -2.084174 -1.3368
0.204569 -1.9435 -1.300486
-0.140769 -1.9685 -1.298739
0.028445 -2.032775 -1.2968
0.53 -1.991668 -1.317758
0.53 -2.03974 -1.312957
-0.45975 -2.0935 -1.311451
0.016552 -2.088724 -1.3368
-0.094139 -1.948435 -1.3368
-0.028907 -1.969237 -1.2968
-0.453961 -2.023803 -1.3368
-0.006102 -1.976818 -1.2968
0.405025 -1.95522 -1.3368
0.163134 -1.9638 -1.3368
-0.191268 -1.964766 -1.2968
0.085127 -1.976312 -1.3368
-0.47 -2.005527 -1.302382
-0.283928 -1.9685 -1.334495
-0.162668 -1.9685 -1.333004
0.003756 -1.990349 -1.3368
0.071393 -1.985368 -1.3368
0.478863 -1.953789 -1.2968
0.266782 -1.9435 -1.322876
-0.38204 -2.0935 -1.296984
0.436938 -1.983087 -1.3368
-0.03 -2.050112 -1.304921
0.255957 -1.9685 -1.320867
0.055397 -2.061322 -1.2968
-0.113517 -1.9685 -1.309568
-0.232425 -1.9685 -1.311138
0.016673 -1.967739 -1.3368
-0.37 -2.089587 -1.313909
-0.343916 -1.962896 -1.3368
-0.415185 -1.9435 -1.332255
0.009649 -2.026398 -1.2968
-0.100872 -1.9685 -1.335519
-0.074807 -1.9435 -1.312672
-0.075431 -1.949649 -1.3368
0.285545 -1.9685 -1.301301
-0.47 -2.028854 -1.316662
0.078528 -2.053368 -1.3368
-0.37 -2.0439 -1.320938
-0.099829 -1.966342 -1.2968
0.404962 -1.9435 -1.309308
0.351085 -1.952541 -1.3368
0.43 -2.046817 -1.3169
0.446928 -2.0935 -1.334668
0.032808 -2.048964 -1.3368
0.434392 -1.992029 -1.2968
-0.411177 -2.0935 -1.302639
-0.257043 -1.9685 -1.299617
0.506849 -2.0935 -1.331524
0.012649 -2.0935 -1.333263
0.488233 -2.000392 -1.3368
0.504328 -2.035724 -1.3368
0.305632 -1.965775 -1.3368
0.342959 -1.968458 -1.2968
-0.386646 -1.980148 -1.2968
-0.370777 -2.0935 -1.319756
0.05078 -2.040987 -1.2968
0.02507 -1.982993 -1.3368
0.09 -2.066847 -1.313319
0.53 -2.031668 -1.304165
-0.032076 -1.9685 -1.301969
0.53 -2.090167 -1.315946
-0.270695 -1.9435 -1.336715
0.472821 -1.967109 -1.2968
0.089785 -2.081244 -1.2968
-0.417326 -2.027534 -1.3368
-0.37734 -2.0935 -1.329052
-0.029497 -2.0935 -1.32803
0.283988 -1.9435 -1.312642
0.525297 -2.045101 -1.3368
-0.47 -2.053812 -1.30716
0.503046 -2.057783 -1.2968
0.506712 -1.981976 -1.3368
-0.03 -2.0542 -1.300554
-0.391398 -2.0935 -1.326675
0.510932 -1.997374 -1.3368
0.53 -2.005609 -1.309548
0.53 -1.960357 -1.314578
-0.054064 -1.9435 -1.315215
-0.41544 -2.0935 -1.312663
0.501946 -2.068701 -1.2968
-0.47 -2.03367 -1.330826
0.153061 -1.9685 -1.316569
0.449887 -1.954301 -1.2968
0.024076 -2.038179 -1.2968
-0.392725 -1.977722 -1.3368
0.498936 -1.960155 -1.3368
0.083102 -1.9797 -1.2968
0.483513 -1.984717 -1.2968
-0.37 -1.971014 -1.334461
-0.47 -1.959801 -1.333835
-0.424438 -1.9435 -1.334058
-0.098806 -1.949347 -1.2968
-0.25488 -1.957014 -1.3368
0.480326 -1.9435 -1.326957
-0.47 -1.953678 -1.307452
-0.03 -1.971948 -1.298149
-0.132412 -1.9685 -1.3067
0.167333 -1.9685 -1.298015
0.479037 -2.092171 -1.2968
-0.37 -2.050252 -1.303464
0.40886 -1.9435 -1.298048
0.29954 -1.948688 -1.2968
-0.112276 -1.959577 -1.2968
0.171923 -1.950138 -1.3368
0.418973 -1.956015 -1.3368
0.345124 -1.9685 -1.331915
0.025373 -2.065357 -1.3368
-0.029741 -1.949387 -1.2968
0.330292 -1.9685 -1.323483
0.495406 -1.974724 -1.3368
-0.393725 -1.959824 -1.3368
-0.436862 -2.0935 -1.30852
0.44894 -2.028521 -1.2968
0.197479 -1.9435 -1.313935
0.459312 -2.018055 -1.2968
0.026574 -1.991689 -1.3368
-0.393537 -2.029055 -1.3368
0.515669 -1.9435 -1.329987
0.468718 -1.9435 -1.298082
0.072462 -2.0935 -1.309843
0.170604 -1.9685 -1.29939
-0.456414 -2.001704 -1.3368
0.44747 -1.990592 -1.3368
0.347748 -1.9435 -1.32824
-0.025336 -2.075782 -1.2968
-0.067076 -1.9435 -1.298169
-0.469032 -1.957963 -1.2968
0.012031 -2.0935 -1.325943
-0.322488 -1.953579 -1.3368
0.466317 -1.9435 -1.299578
-0.434293 -1.984827 -1.2968
-0.148445 -1.9435 -1.299633
0.391499 -1.9685 -1.308344
0.424281 -1.9685 -1.332164
0.113019 -1.958559 -1.3368
-0.384107 -2.037315 -1.3368
-0.346533 -1.95525 -1.3368
-0.43567 -1.9435 -1.311306
0.43 -1.995907 -1.321907
-0.228146 -1.9435 -1.328273
-0.049816 -1.9435 -1.320453
0.503474 -1.95131 -1.2968
-0.108902 -1.9435 -1.29781
-0.448521 -1.967215 -1.3368
-0.25501 -1.958205 -1.3368
0.081308 -2.002463 -1.3368
-0.412053 -1.971604 -1.2968
-0.156183 -1.94903 -1.3368
-0.028834 -2.07294 -1.2968
0.07148 -2.025183 -1.2968
0.53 -1.986805 -1.328026
0.085895 -1.953476 -1.2968
0.521495 -1.975054 -1.2968
-0.113772 -1.9685 -1.320449
-0.222566 -1.948045 -1.3368
-0.163557 -1.95879 -1.3368
-0.405548 -1.988212 -1.3368
-0.453477 -2.045543 -1.2968
0.451231 -2.0935 -1.33425
0.501713 -2.007454 -1.2968
0.018147 -1.9435 -1.33393
-0.3796 -2.025806 -1.3368
-0.136283 -1.9685 -1.304897
0.43 -2.074482 -1.316959
0.111776 -1.9435 -1.297467
-0.428104 -2.006687 -1.3368
0.049315 -2.046052 -1.3368
-0.453665 -2.004171 -1.3368
0.53 -2.066161 -1.312095
-0.218252 -1.95316 -1.3368
-0.399016 -2.007231 -1.3368
0.43529 -1.990987 -1.3368
0.026018 -1.981755 -1.3368
-0.47 -2.075311 -1.329815
0.008864 -1.9435 -1.305999
0.43 -1.99585 -1.326061
0.41007 -1.9685 -1.333736
-0.37 -2.015649 -1.311025
-0.08013 -1.944497 -1.2968
-0.087465 -1.949943 -1.3368
-0.123996 -1.953554 -1.2968
-0.411341 -2.0935 -1.324653
0.333585 -1.946648 -1.2968
-0.390798 -2.014025 -1.2968
-0.154322 -1.965032 -1.3368
0.473561 -1.981786 -1.3368
-0.427352 -1.970371 -1.3368
0.077713 -2.0935 -1.325023
0.09 -2.067997 -1.299098
0.448904 -1.973445 -1.2968
0.412355 -1.967518 -1.3368
0.204042 -1.964924 -1.3368
0.048045 -2.056826 -1.2968
0.286968 -1.96149 -1.2968
0.51917 -2.005507 -1.2968
-0.006013 -2.057792 -1.3368
0.268888 -1.9685 -1.323426
-0.47 -2.071744 -1.328064
-0.013777 -1.996921 -1.2968
0.006183 -2.008857 -1.3368
0.031831 -2.077105 -1.3368
0.018489 -2.066088 -1.2968
0.061713 -2.025259 -1.2968
-0.454776 -1.972132 -1.3368
0.006364 -1.9435 -1.306079
0.520625 -2.092075 -1.3368
-0.109869 -1.9435 -1.317141
-0.379436 -2.0805 -1.2968
-0.406473 -1.999921 -1.2968
0.240037 -1.9685 -1.327597
0.430431 -1.983936 -1.3368
-0.312251 -1.96177 -1.3368
0.155904 -1.9685 -1.298119
-0.396939 -1.9435 -1.316068
-0.425836 -1.95675 -1.3368
0.131588 -1.9685 -1.30092
0.223252 -1.948322 -1.3368
0.160333 -1.9435 -1.299774
0.43 -2.046977 -1.310979
0.171817 -1.950492 -1.3368
0.00062 -2.0935 -1.32585
-0.385076 -2.086325 -1.3368
0.036873 -1.950702 -1.2968
-0.37 -2.08201 -1.319666
-0.243229 -1.9685 -1.314212
0.43 -2.066769 -1.327415
-0.272584 -1.9685 -1.335817
-0.194869 -1.9685 -1.324658
-0.47 -2.077161 -1.320756
0.034629 -1.963207 -1.2968
0.173494 -1.952038 -1.3368
0.476613 -1.9435 -1.319994
0.100159 -1.9685 -1.314627
0.52776 -2.036572 -1.2968
-0.030246 -1.959737 -1.3368
0.3691 -1.9435 -1.297783
0.073578 -2.0935 -1.303825
-0.273302 -1.955604 -1.3368
0.242551 -1.9685 -1.301855
-0.43834 -2.084467 -1.3368
-0.47 -1.948462 -1.327131
0.09 -2.037616 -1.299999
0.258166 -1.9435 -1.325541
0.09867 -1.9435 -1.312508
-0.424228 -2.001889 -1.2968
0.526056 -1.995083 -1.3368
-0.463629 -1.998237 -1.3368
-0.215568 -1.959105 -1.3368
0.443037 -2.057331 -1.3368
-0.075729 -1.962174 -1.2968
0.209996 -1.959726 -1.2968
0.038131 -1.983382 -1.2968
-0.411729 -1.993589 -1.3368
0.228569 -1.9435 -1.306772
0.038241 -1.947285 -1.2968
0.461028 -2.069823 -1.3368
-0.24139 -1.964956 -1.3368
-0.401998 -2.055211 -1.3368
0.000611 -2.068758 -1.3368
-0.169229 -1.9685 -1.335126
0.010391 -2.0856 -1.3368
-0.04465 -1.9685 -1.308727
0.401059 -1.9685 -1.312871
0.509206 -1.9435 -1.336763
0.429864 -1.9435 -1.30883
0.24032 -1.967696 -1.3368
-0.208875 -1.9685 -1.335289
-0.425864 -2.029091 -1.3368
0.255893 -1.9435 -1.326974
0.326714 -1.9435 -1.330969
0.249242 -1.9685 -1.326615
0.446206 -1.995861 -1.2968
0.440032 -1.967858 -1.2968
-0.410308 -1.997413 -1.3368
0.213591 -1.958554 -1.3368
0.016941 -2.04194 -1.2968
-0.025049 -2.035777 -1.2968
-0.460357 -1.983383 -1.3368
0.368816 -1.954179 -1.2968
0.09 -2.010573 -1.333493
-0.47 -2.066614 -1.328955
0.483906 -2.087977 -1.3368
-0.03 -2.028302 -1.319326
-0.415555 -2.00147 -1.3368
0.187193 -1.9435 -1.312887
-0.461624 -2.040766 -1.3368
0.334642 -1.9685 -1.308246
0.040869 -1.99267 -1.2968
-0.067283 -1.944748 -1.2968
-0.097818 -1.9435 -1.31571
-0.137728 -1.9435 -1.336334
-0.396548 -2.068602 -1.2968
0.47098 -1.972912 -1.3368
-0.400968 -2.037336 -1.3368
-0.37 -1.991049 -1.305827
0.088453 -1.9435 -1.327209
-0.019969 -2.08355 -1.3368
-0.37 -2.060621 -1.33331
0.339803 -1.9435 -1.332317
0.507549 -1.961018 -1.2968
-0.144435 -1.9435 -1.32899
0.022704 -1.990395 -1.3368
0.430994 -2.053115 -1.2968
0.285031 -1.944397 -1.2968
0.09 -1.987535 -1.320606
0.419418 -1.9435 -1.328461
0.354497 -1.9435 -1.310097
0.392544 -1.9435 -1.325892
0.021328 -1.973755 -1.3368
0.270384 -1.945427 -1.2968
0.040668 -2.0935 -1.32549
0.060045 -2.028964 -1.3368
-0.411049 -1.9435 -1.310311
0.451928 -2.037456 -1.3368
-0.016696 -2.0935 -1.315985
0.002994 -2.031445 -1.2968
-0.358393 -1.9435 -1.331307
0.308776 -1.955696 -1.2968
-0.218518 -1.9435 -1.334446
0.036112 -1.9435 -1.309162
0.048177 -1.951783 -1.2968
-0.153325 -1.965121 -1.3368
0.179833 -1.9685 -1.317404
0.054999 -1.988784 -1.2968
-0.446596 -2.0935 -1.2976
-0.171942 -1.9435 -1.306508
0.087573 -2.00605 -1.3368
-0.37 -2.044184 -1.320978
-0.318065 -1.94855 -1.2968
0.09 -2.065059 -1.316353
-0.397132 -2.073394 -1.2968
0.361666 -1.9685 -1.3368
-0.37 -2.032696 -1.333629
0.527704 -1.9435 -1.301253
0.465889 -2.001124 -1.2968
-0.424238 -2.044668 -1.2968
0.494096 -2.000199 -1.3368
0.53 -2.034602 -1.335892
-0.441072 -2.05393 -1.3368
-0.384051 -2.06631 -1.3368
-0.115199 -1.9435 -1.331219
0.333641 -1.9435 -1.333869
-0.445388 -2.005945 -1.2968
0.408163 -1.9435 -1.323301
-0.376882 -2.072027 -1.2968
0.51048 -1.995676 -1.2968
0.260188 -1.962678 -1.3368
-0.255739 -1.957045 -1.3368
0.045651 -1.958454 -1.2968
-0.373959 -2.0935 -1.316865
0.115026 -1.945566 -1.3368
-0.439643 -1.972236 -1.3368
0.319119 -1.9685 -1.29832
0.457516 -2.0935 -1.315745
-0.175594 -1.9685 -1.318909
-0.410356 -2.0935 -1.325084
0.09 -2.041039 -1.301732
-0.399384 -2.0935 -1.318143
-0.37 -2.042863 -1.303117
-0.335324 -1.9685 -1.320091
0.511614 -1.977297 -1.3368
-0.120212 -1.9435 -1.298975
-0.378865 -2.073086 -1.3368
0.436293 -1.9435 -1.313997
0.09 -2.038935 -1.313468
0.006344 -2.091905 -1.3368
0.420418 -1.9685 -1.324665
-0.136945 -1.9435 -1.331385
0.09 -2.058364 -1.329648
0.247935 -1.94836 -1.3368
-0.161954 -1.9685 -1.335543
0.319793 -1.967784 -1.3368
-0.310144 -1.9435 -1.305782
0.172728 -1.9685 -1.333057
-0.27158 -1.9685 -1.309161
-0.47 -2.051288 -1.305869
0.493955 -1.990592 -1.2968
-0.03 -2.087759 -1.313188
0.43 -2.071015 -1.304901
-0.138693 -1.9685 -1.314479
0.016453 -1.976351 -1.3368
0.004074 -1.94852 -1.2968
-0.110237 -1.9435 -1.323141
-0.388597 -2.044575 -1.3368
-0.414948 -1.973261 -1.3368
-0.019919 -1.982567 -1.2968
-0.055658 -1.9685 -1.332792
0.159836 -1.964085 -1.2968
0.524985 -1.958315 -1.3368
0.030855 -2.0935 -1.32508
0.13364 -1.944948 -1.3368
0.331244 -1.9685 -1.322298
0.054647 -1.973399 -1.3368
0.073857 -1.954839 -1.3368
-0.020729 -2.059334 -1.3368
0.43 -2.093391 -1.303276
0.048122 -2.055682 -1.2968
-0.47 -2.022813 -1.303849
-0.007608 -2.026312 -1.3368
0.48145 -2.062082 -1.2968
0.09 -2.059632 -1.303264
0.032411 -2.002015 -1.3368
-0.222458 -1.9435 -1.302657
0.183097 -1.9685 -1.30881
0.261611 -1.948733 -1.2968
0.487842 -2.028463 -1.3368
0.199115 -1.94908 -1.3368
0.472108 -2.0935 -1.310465
-0.413634 -1.966399 -1.3368
-0.000992 -1.971032 -1.3368
0.332704 -1.966581 -1.2968
-0.178039 -1.958197 -1.3368
-0.309683 -1.9435 -1.331198
0.432896 -2.030383 -1.2968
-0.456134 -2.0935 -1.312672
0.491887 -1.9435 -1.324203
0.249925 -1.9435 -1.315615
0.420311 -1.9685 -1.324578
0.415915 -1.9435 -1.313643
0.492828 -2.056985 -1.2968
-0.026616 -2.065982 -1.3368
-0.404138 -2.081883 -1.2968
0.491729 -1.9435 -1.308681
-0.220793 -1.960214 -1.3368
0.494212 -2.039296 -1.2968
0.018323 -1.955057 -1.3368
0.431755 -2.023507 -1.3368
-0.348661 -1.9435 -1.326766
-0.388586 -2.000422 -1.3368
-0.379668 -2.026867 -1.2968
0.045403 -2.017108 -1.3368
-0.22502 -1.9435 -1.333037
0.489831 -1.974568 -1.3368
-0.185227 -1.962039 -1.3368
0.006175 -1.951216 -1.3368
0.086984 -1.988117 -1.3368
0.441064 -2.026861 -1.2968
0.019088 -1.9435 -1.33625
0.2311 -1.9685 -1.311064
0.065476 -2.001351 -1.2968
-0.328338 -1.9685 -1.332869
0.09 -2.000783 -1.333178
0.238168 -1.9685 -1.320781
0.480006 -1.9435 -1.311133
-0.389921 -2.065029 -1.3368
-0.029085 -1.978118 -1.2968
-0.37633 -2.038547 -1.2968
0.462131 -2.035289 -1.2968
0.43 -2.010531 -1.333811
0.373833 -1.963535 -1.2968
0.433836 -1.962202 -1.2968
0.044533 -2.023422 -1.2968
0.07024 -1.98016 -1.3368
-0.456057 -2.091274 -1.2968
0.043343 -1.9435 -1.33269
-0.224436 -1.9435 -1.299795
0.497733 -2.092173 -1.2968
-0.419872 -2.052636 -1.2968
0.273023 -1.9685 -1.300368
0.001034 -2.079918 -1.3368
0.443353 -1.948849 -1.3368
-0.209105 -1.9685 -1.323509
0.526931 -1.9435 -1.312699
-0.412732 -1.945356 -1.2968
-0.271529 -1.967598 -1.2968
-0.385526 -2.019529 -1.2968
0.027659 -2.054368 -1.2968
-0.47 -2.07362 -1.323577
-0.046778 -1.962028 -1.3368
-0.008053 -2.0935 -1.29788
0.345639 -1.9435 -1.31602
0.53 -2.010091 -1.299254
0.43 -2.091261 -1.299175
-0.1248 -1.9435 -1.307964
0.468402 -2.049005 -1.3368
-0.37 -2.053863 -1.304124
0.158808 -1.962562 -1.2968
0.055176 -2.06467 -1.3368
0.09 -1.9696 -1.324065
0.063095 -2.034094 -1.2968
-0.027831 -2.0935 -1.331588
0.170431 -1.957902 -1.3368
0.53 -2.053024 -1.331328
0.499278 -2.024295 -1.2968
-0.452102 -1.986616 -1.3368
0.465861 -2.085812 -1.3368
0.454953 -2.091482 -1.3368
0.188599 -1.950875 -1.3368
-0.381253 -1.948192 -1.2968
-0.400944 -2.086459 -1.2968
0.18711 -1.9435 -1.314296
-0.39854 -2.0935 -1.299565
0.374727 -1.9685 -1.324362
0.0331 -2.022826 -1.2968
0.255314 -1.9435 -1.33614
-0.376935 -1.953333 -1.2968
0.059293 -1.9435 -1.32201
0.43 -1.97585 -1.32163
-0.37 -2.067845 -1.308867
-0.37 -2.062196 -1.303709
0.09 -2.046605 -1.330501
-0.084186 -1.9435 -1.325642
-0.456453 -1.961879 -1.3368
0.083811 -1.971976 -1.3368
0.043364 -2.026833 -1.3368
0.356268 -1.9685 -1.310724
0.09 -2.022229 -1.304064
0.324308 -1.9685 -1.313919
-0.008623 -2.052322 -1.3368
0.441651 -2.003839 -1.2968
-0.03 -2.028541 -1.332082
-0.184481 -1.945402 -1.2968
-0.109261 -1.9685 -1.312745
0.388559 -1.9685 -1.327773
0.029008 -2.04825 -1.3368
0.089835 -2.01658 -1.3368
-0.47 -2.081351 -1.336425
-0.47 -1.997099 -1.306704
0.41594 -1.9685 -1.311989
0.53 -2.002772 -1.334716
-0.017226 -2.021337 -1.3368
-0.03 -2.042907 -1.310901
-0.380347 -2.050911 -1.2968
-0.365179 -1.946644 -1.2968
-0.008182 -2.064208 -1.2968
-0.2464 -1.953023 -1.2968
0.061863 -2.03323 -1.3368
-0.429578 -2.038025 -1.2968
0.031996 -1.947651 -1.3368
-0.424228 -2.067006 -1.2968
0.259043 -1.9685 -1.328929
0.490013 -2.002886 -1.2968
-0.47 -2.068006 -1.323451
-0.37 -1.973347 -1.329216
-0.232199 -1.9435 -1.329097
0.078628 -2.064767 -1.3368
-0.47 -2.051421 -1.322921
-0.401989 -2.006344 -1.3368
0.42834 -1.9435 -1.3178
0.052772 -1.987447 -1.2968
0.436581 -2.009961 -1.3368
-0.038064 -1.9685 -1.317105
0.464365 -2.08217 -1.2968
0.43 -1.980496 -1.299101
0.279711 -1.9435 -1.326515
0.359542 -1.958903 -1.3368
-0.394175 -1.975346 -1.2968
0.447342 -2.050249 -1.2968
0.351786 -1.9685 -1.327333
0.184544 -1.956402 -1.2968
-0.44246 -1.998631 -1.3368
-0.448304 -1.9435 -1.300013
0.2203 -1.9435 -1.334607
0.054567 -2.012837 -1.2968
0.4603 -2.0935 -1.308666
-0.016375 -2.020617 -1.3368
-0.47 -1.983653 -1.318428
0.498227 -2.0935 -1.304502
0.406489 -1.965597 -1.3368
0.48054 -2.028571 -1.3368
0.519111 -1.986138 -1.2968
-0.078304 -1.959078 -1.2968
0.070201 -2.016089 -1.2968
0.33107 -1.9435 -1.319948
-0.197491 -1.9685 -1.299469
-0.47 -1.997298 -1.335328
0.107653 -1.9435 -1.320787
-0.327232 -1.9435 -1.323986
-0.242936 -1.9435 -1.326272
0.447503 -1.990102 -1.2968
0.451456 -1.945411 -1.2968
0.165256 -1.956589 -1.3368
0.075661 -1.978231 -1.3368
-0.261988 -1.9685 -1.327452
-0.461495 -2.085421 -1.2968
-0.338263 -1.9435 -1.318664
-0.402121 -2.0935 -1.323817
0.43 -2.035507 -1.335044
0.053085 -2.075724 -1.2968
-0.21197 -1.9685 -1.322073
0.168187 -1.9435 -1.336146
0.227663 -1.950987 -1.2968
0.357932 -1.9435 -1.332701
-0.425609 -2.001018 -1.3368
-0.3275 -1.9685 -1.336072
0.286066 -1.961569 -1.2968
-0.125294 -1.957209 -1.2968
-0.177614 -1.943986 -1.3368
-0.003204 -1.991306 -1.3368
0.228875 -1.9435 -1.326874
-0.28681 -1.956201 -1.2968
0.173939 -1.946 -1.2968
-0.149036 -1.9685 -1.311242
0.332142 -1.9435 -1.305275
0.433216 -1.960719 -1.3368
0.43 -1.9733 -1.318026
-0.20137 -1.9435 -1.328146
-0.14633 -1.9685 -1.301438
0.505347 -1.981061 -1.3368
0.43 -2.060849 -1.306033
0.480929 -2.089619 -1.2968
-0.387457 -2.068058 -1.2968
0.0194 -2.069193 -1.2968
0.516639 -1.993174 -1.2968
-0.340761 -1.9435 -1.314928
-0.015246 -1.980379 -1.2968
0.523297 -2.065576 -1.2968
0.118856 -1.9685 -1.310539
-0.453738 -2.047881 -1.2968
0.459837 -2.022973 -1.2968
0.53 -2.067109 -1.302791
-0.47 -2.013679 -1.297303
-0.091548 -1.9435 -1.310828
-0.383361 -2.025077 -1.3368
0.53 -1.976797 -1.311787
0.121995 -1.9435 -1.297714
0.53 -2.002914 -1.297084
-0.383385 -2.062603 -1.3368
-0.03 -2.052915 -1.318627
0.013085 -2.01076 -1.3368
0.060583 -2.016367 -1.2968
-0.183364 -1.9435 -1.315824
-0.425699 -2.055263 -1.3368
0.53 -1.997336 -1.303798
-0.101449 -1.9685 -1.307939
0.064482 -1.9435 -1.303659
-0.467018 -2.070344 -1.3368
-0.37 -2.006686 -1.3345
0.030209 -1.967175 -1.3368
-0.054619 -1.9435 -1.302704
-0.400498 -1.958375 -1.3368
-0.03 -2.040766 -1.319863
-0.436984 -2.091855 -1.3368
-0.47 -1.955604 -1.310268
-0.412255 -1.954771 -1.3368
-0.36898 -1.9435 -1.305579
-0.430357 -2.077289 -1.3368
0.350049 -1.946012 -1.3368
0.476976 -2.025207 -1.3368
-0.404571 -1.958668 -1.3368
0.168082 -1.9435 -1.323361
-0.37 -2.036014 -1.335341
-0.380474 -1.949912 -1.3368
0.506413 -2.0935 -1.300858
0.040244 -1.947747 -1.3368
0.065863 -1.981338 -1.3368
0.460288 -2.000613 -1.2968
0.43 -1.9733 -1.311342
0.504512 -2.059454 -1.3368
-0.044522 -1.957201 -1.2968
-0.417928 -2.041836 -1.2968
0.255019 -1.9685 -1.330704
0.53 -2.004403 -1.31726
0.500859 -1.9435 -1.311508
-0.442513 -2.022939 -1.3368
-0.439151 -1.989802 -1.2968
0.09 -2.024616 -1.306035
0.079961 -1.946977 -1.3368
-0.467023 -2.053599 -1.3368
-0.263022 -1.9435 -1.311197
-0.163811 -1.951444 -1.2968
0.192229 -1.96105 -1.3368
-0.13886 -1.9435 -1.319854
0.522781 -1.964461 -1.2968
0.125358 -1.9685 -1.303473
-0.099196 -1.951708 -1.3368
0.53 -1.989397 -1.320621
-0.306842 -1.954075 -1.3368
-0.391395 -1.982924 -1.2968
-0.174112 -1.9685 -1.31038
-0.243348 -1.966981 -1.2968
-0.362143 -1.9685 -1.299834
-0.299626 -1.9685 -1.316483
-0.47 -1.962977 -1.324836
0.53 -1.945032 -1.303106
0.053418 -1.948876 -1.3368
0.391323 -1.9685 -1.307614
0.437934 -2.012909 -1.2968
-0.166994 -1.957748 -1.3368
0.130399 -1.965206 -1.3368
0.464774 -2.028429 -1.2968
-0.049809 -1.9685 -1.323042
0.484225 -2.0935 -1.300518
-0.37 -2.00847 -1.324385
0.07596 -1.95004 -1.2968
-0.437609 -2.0935 -1.318831
0.414967 -1.9435 -1.32386
-0.394869 -2.034723 -1.3368
0.09 -2.093181 -1.297467
0.108691 -1.9435 -1.301246
