# .PCD v0.7 - Point Cloud Data file format
VERSION 0.7
FIELDS x y z
SIZE 4 4 4
TYPE F F F
COUNT 1 1 1
WIDTH 1859
HEIGHT 1
VIEWPOINT 0 0 0 1 0 0 0
POINTS 1859
DATA ascii
-0.439617 -2.095468 1.0612
-0.404551 -2.054456 1.0212
-0.429578 -2.1295 1.059524
0.404207 -2.118733 1.0612
-0.001213 -2.1295 1.038794
-0.410795 -2.072411 1.0612
-0.48047 -2.028316 1.0612
0.06 -2.120602 1.038801
-0.492346 -2.083678 1.0212
0.487596 -2.055771 1.0612
0.008253 -2.042675 1.0612
-0.00338 -2.049981 1.0612
0.042478 -2.127798 1.0612
-0.06 -2.061627 1.026935
-0.459739 -2.064982 1.0612
0.056863 -2.112616 1.0212
0.048179 -2.0195 1.034664
-0.017636 -2.1295 1.031351
0.473792 -2.108172 1.0612
0.06 -2.039228 1.055651
0.5 -2.11993 1.021996
0.4 -2.085972 1.046654
0.43718 -2.075291 1.0212
0.05822 -2.078677 1.0612
0.028092 -2.072052 1.0212
0.050764 -2.1295 1.033443
0.413427 -2.129046 1.0212
-0.002736 -2.0195 1.045686
0.402118 -2.086128 1.0612
0.492445 -2.088884 1.0212
0.480897 -2.025204 1.0612
0.023958 -2.0906 1.0612
0.042209 -2.056075 1.0612
0.029804 -2.0195 1.04252
0.4 -2.115379 1.056763
-0.415097 -2.1295 1.041884
0.02621 -2.047078 1.0212
0.411219 -2.0195 1.036211
0.043189 -2.1295 1.02587
0.400099 -2.113912 1.0212
-0.002549 -2.083059 1.0212
0.5 -2.115892 1.05943
0.415547 -2.0195 1.056956
-3.8e-05 -2.097315 1.0612
-0.458636 -2.029749 1.0612
0.451343 -2.1295 1.038538
0.5 -2.034355 1.033364
-0.430969 -2.0195 1.043902
0.401711 -2.087629 1.0612
-0.431718 -2.104481 1.0612
0.4 -2.125666 1.035985
0.490223 -2.030539 1.0212
0.06 -2.05675 1.039708
0.461309 -2.044129 1.0612
0.492531 -2.041224 1.0212
-0.483212 -2.023003 1.0612
-0.005324 -2.105328 1.0612
-0.480523 -2.059323 1.0212
0.424749 -2.098378 1.0212
-0.417533 -2.116742 1.0612
0.446499 -2.1295 1.026395
0.476617 -2.12236 1.0212
-0.426106 -2.113298 1.0612
-0.419511 -2.081463 1.0612
0.06 -2.102862 1.060328
-0.041917 -2.046272 1.0612
-0.404785 -2.084169 1.0612
-0.467518 -2.052118 1.0612
-0.490473 -2.098461 1.0212
-0.464779 -2.098481 1.0612
0.4 -2.023724 1.038081
-0.472297 -2.095371 1.0612
0.014189 -2.100955 1.0612
-0.047441 -2.1295 1.039968
0.06 -2.067464 1.042386
-0.469808 -2.022664 1.0612
-0.458375 -2.1295 1.025989
-0.4 -2.037465 1.060928
0.5 -2.027356 1.026255
-0.453873 -2.0195 1.046098
-0.045956 -2.1295 1.037943
-0.418544 -2.116737 1.0612
-0.06 -2.073682 1.031026
-0.427516 -2.0195 1.02154
0.465342 -2.036467 1.0612
-0.4 -2.07954 1.057224
0.057435 -2.059877 1.0212
0.451675 -2.085395 1.0212
-0.4 -2.025154 1.026201
-0.442594 -2.0195 1.035138
-0.426205 -2.046403 1.0612
0.429 -2.109195 1.0212
0.047727 -2.022554 1.0612
-0.459774 -2.1295 1.051079
0.031814 -2.09988 1.0612
-0.06 -2.060957 1.047522
-0.020581 -2.0195 1.028758
0.026579 -2.128512 1.0612
0.452189 -2.1295 1.023955
-0.5 -2.044259 1.046094
0.47706 -2.076755 1.0612
0.018417 -2.022391 1.0212
-0.029966 -2.073109 1.0612
-0.445898 -2.02526 1.0612
0.458155 -2.048856 1.0612
0.490015 -2.064596 1.0612
-0.456789 -2.071009 1.0612
-0.010114 -2.118315 1.0212
-0.012177 -2.072334 1.0212
-0.42702 -2.036049 1.0212
0.489799 -2.106329 1.0612
-0.491551 -2.0195 1.04385
0.455804 -2.104992 1.0212
-0.006886 -2.107501 1.0212
0.042337 -2.121982 1.0212
0.4 -2.031951 1.06044
0.4 -2.042082 1.025357
-0.406397 -2.100759 1.0612
-0.007437 -2.097781 1.0612
-0.442076 -2.062817 1.0212
0.06 -2.065599 1.026821
-0.47759 -2.044333 1.0612
-0.4 -2.100624 1.023511
-0.442378 -2.117074 1.0612
-0.406996 -2.075886 1.0212
-0.5 -2.102004 1.026548
0.432696 -2.0195 1.055266
0.05602 -2.083053 1.0212
-0.42724 -2.111155 1.0612
0.492432 -2.122011 1.0212
-0.059978 -2.1295 1.035805
0.47712 -2.0195 1.042904
-0.5 -2.020669 1.052038
-0.487526 -2.075719 1.0212
0.424292 -2.117574 1.0612
0.006223 -2.061743 1.0612
-0.5 -2.104189 1.055636
0.459846 -2.063387 1.0612
-0.009168 -2.071519 1.0612
0.435055 -2.022089 1.0612
-0.5 -2.07105 1.053645
0.488134 -2.078837 1.0212
-0.423172 -2.055435 1.0212
-0.06 -2.109663 1.048056
-0.429905 -2.0195 1.044248
0.02081 -2.0702 1.0612
-0.042325 -2.122326 1.0212
-0.06 -2.043877 1.051708
0.013506 -2.1295 1.052791
0.014868 -2.060399 1.0212
-0.40176 -2.090071 1.0212
-0.049681 -2.073532 1.0212
-0.437482 -2.081679 1.0612
0.047348 -2.043501 1.0212
-0.491667 -2.021654 1.0212
0.443697 -2.127419 1.0212
0.06 -2.089822 1.050891
0.4 -2.040237 1.034475
0.059858 -2.070971 1.0612
0.477765 -2.0195 1.027035
0.4 -2.022033 1.037599
-0.5 -2.058691 1.052431
0.48991 -2.0195 1.061025
-0.417387 -2.088582 1.0212
-0.422515 -2.119365 1.0612
-0.474895 -2.068405 1.0612
0.5 -2.129229 1.043914
0.424905 -2.090683 1.0612
0.406313 -2.1295 1.048556
0.44965 -2.126772 1.0612
0.4 -2.043709 1.036968
-0.408084 -2.062271 1.0212
-0.426575 -2.081459 1.0212
0.457686 -2.0195 1.05937
0.462208 -2.0195 1.025443
-0.06 -2.056613 1.034844
-0.5 -2.055537 1.028001
-0.404942 -2.120066 1.0612
0.021866 -2.055568 1.0212
0.449601 -2.124084 1.0612
-0.5 -2.080011 1.031728
-0.450773 -2.090311 1.0612
-0.06 -2.088115 1.031866
-0.050598 -2.035201 1.0212
-0.473497 -2.114956 1.0212
0.011962 -2.0195 1.049806
-0.412138 -2.090387 1.0212
0.478085 -2.024373 1.0612
-0.486586 -2.062704 1.0612
-0.4 -2.076898 1.056902
-0.4 -2.065808 1.022716
0.479439 -2.021518 1.0212
0.5 -2.024396 1.028051
0.448042 -2.053921 1.0212
-0.426851 -2.02304 1.0612
-0.425672 -2.119256 1.0612
0.489165 -2.0195 1.060943
-0.451275 -2.070312 1.0612
0.06 -2.050374 1.041556
-0.447144 -2.023933 1.0612
-0.40697 -2.11947 1.0212
-0.460147 -2.087651 1.0612
0.409244 -2.057241 1.0212
-0.05983 -2.049547 1.0612
0.001847 -2.058924 1.0612
-0.4 -2.054582 1.055802
0.011826 -2.049615 1.0212
-0.06 -2.072185 1.05079
0.06 -2.087041 1.036188
0.496865 -2.071173 1.0212
-0.5 -2.080587 1.057769
-0.5 -2.021905 1.03798
0.015739 -2.079182 1.0212
-0.055181 -2.1295 1.025555
-0.06 -2.075478 1.023346
-0.4859 -2.024928 1.0212
-0.008823 -2.063555 1.0612
0.43941 -2.082829 1.0612
0.06 -2.087317 1.050515
-0.030057 -2.072651 1.0212
0.428884 -2.118012 1.0212
-0.009295 -2.096237 1.0212
0.48167 -2.077579 1.0212
-0.427177 -2.024496 1.0212
0.411225 -2.077953 1.0612
0.480259 -2.104869 1.0612
-0.409206 -2.0596 1.0612
0.06 -2.105278 1.036757
-0.5 -2.055571 1.040722
0.4 -2.107255 1.046874
-0.4 -2.081984 1.039316
-0.01398 -2.08061 1.0212
-0.496893 -2.03467 1.0212
-0.484138 -2.1295 1.04972
0.426994 -2.1295 1.054808
-0.496443 -2.068791 1.0212
0.4 -2.089279 1.057519
-0.06 -2.05104 1.053533
-0.046015 -2.124808 1.0612
-0.460405 -2.111988 1.0612
-0.469175 -2.084076 1.0612
0.026301 -2.1295 1.023137
-0.06 -2.047597 1.058113
0.470353 -2.022474 1.0212
0.5 -2.093396 1.036509
0.446553 -2.085981 1.0212
0.017995 -2.0195 1.028304
-0.428904 -2.077684 1.0212
-0.012911 -2.1295 1.040345
0.030607 -2.094416 1.0212
0.4 -2.103699 1.032805
0.474672 -2.0195 1.046786
-0.06 -2.082098 1.061033
-0.40447 -2.04167 1.0212
-0.445323 -2.059042 1.0612
0.4 -2.059624 1.029138
0.06 -2.030707 1.029041
0.050379 -2.067924 1.0612
0.489859 -2.0195 1.025076
0.499229 -2.087919 1.0212
-0.455755 -2.025978 1.0612
-0.406883 -2.1295 1.026344
0.038239 -2.04063 1.0612
0.40954 -2.127602 1.0612
0.423853 -2.097755 1.0612
0.480169 -2.04251 1.0612
-0.434361 -2.099846 1.0612
0.5 -2.082513 1.045743
0.5 -2.045529 1.033803
0.032257 -2.091241 1.0612
-0.405549 -2.1295 1.041095
-0.468622 -2.110839 1.0212
0.444014 -2.055404 1.0212
0.4 -2.041507 1.058025
-0.06 -2.062714 1.039879
0.438716 -2.021596 1.0212
-0.02435 -2.04215 1.0212
0.0508 -2.1295 1.023561
0.042981 -2.085717 1.0212
0.046232 -2.1295 1.0309
0.494807 -2.065479 1.0212
0.038431 -2.090259 1.0212
-0.4 -2.048354 1.028319
0.468783 -2.077314 1.0612
0.003199 -2.039446 1.0212
-0.445341 -2.066358 1.0212
0.490961 -2.06849 1.0612
0.450531 -2.077334 1.0612
-0.431909 -2.073324 1.0612
0.035174 -2.103475 1.0212
-0.010188 -2.065559 1.0212
-0.483698 -2.0195 1.042315
-0.467684 -2.1295 1.027262
0.444977 -2.121753 1.0212
0.411788 -2.110198 1.0212
0.466147 -2.084538 1.0212
0.059988 -2.036053 1.0212
0.47559 -2.114639 1.0212
-0.049667 -2.1295 1.034741
-0.470234 -2.100231 1.0612
-0.406035 -2.08814 1.0212
0.011726 -2.0195 1.032318
-0.043123 -2.0195 1.051732
0.036009 -2.102511 1.0212
-0.437906 -2.076352 1.0212
-0.041987 -2.096334 1.0612
0.033944 -2.1295 1.032113
0.437337 -2.019584 1.0212
-0.024477 -2.071166 1.0612
0.461851 -2.1295 1.04701
0.5 -2.041342 1.02276
-0.043393 -2.0195 1.024646
-0.00639 -2.0195 1.057012
-0.030242 -2.129197 1.0212
-0.019191 -2.048097 1.0612
0.06 -2.04317 1.043799
0.024631 -2.062374 1.0212
-0.439091 -2.1295 1.046647
0.036861 -2.029288 1.0212
-0.462076 -2.060388 1.0212
0.451179 -2.055599 1.0212
0.442058 -2.1295 1.047687
0.492947 -2.034255 1.0612
-0.40444 -2.129337 1.0212
0.413648 -2.05568 1.0612
0.4 -2.076627 1.030611
-0.5 -2.075731 1.034322
0.009452 -2.026373 1.0612
0.4 -2.076511 1.042617
0.009282 -2.083801 1.0212
0.421169 -2.0195 1.049396
-0.053663 -2.076105 1.0212
0.451961 -2.112545 1.0212
-0.428523 -2.0195 1.048093
0.019496 -2.123251 1.0612
-0.408581 -2.094104 1.0612
0.5 -2.105184 1.059671
0.434089 -2.057068 1.0612
0.059893 -2.041728 1.0212
0.022923 -2.021925 1.0212
0.029429 -2.060817 1.0212
0.418577 -2.0195 1.052987
-0.417956 -2.024718 1.0212
0.494286 -2.0195 1.039509
-0.454401 -2.1295 1.059118
-0.426193 -2.083421 1.0612
-0.06 -2.039444 1.033082
0.5 -2.020442 1.047378
-0.036373 -2.102956 1.0212
-0.038934 -2.128067 1.0212
-0.492951 -2.05723 1.0612
-0.417983 -2.126588 1.0612
-0.440247 -2.078387 1.0612
0.4 -2.069392 1.038049
0.031919 -2.088194 1.0212
0.425265 -2.106859 1.0212
0.019983 -2.113871 1.0212
0.437829 -2.128405 1.0212
0.458863 -2.057366 1.0612
-0.003851 -2.052491 1.0212
-0.40211 -2.093901 1.0612
-0.412146 -2.1295 1.04815
0.051073 -2.0195 1.051348
0.034859 -2.1295 1.050188
-0.425064 -2.074958 1.0212
-0.048965 -2.037198 1.0212
0.466703 -2.095852 1.0612
-0.406281 -2.093658 1.0212
0.445132 -2.066698 1.0212
-0.06 -2.035016 1.041824
-0.457113 -2.081888 1.0212
0.4 -2.107734 1.044346
-0.040843 -2.028508 1.0612
0.450391 -2.053306 1.0212
0.004635 -2.087659 1.0212
-0.498119 -2.085764 1.0612
-0.06 -2.033739 1.046064
-0.5 -2.051087 1.024252
0.487592 -2.0195 1.049773
-0.452359 -2.052897 1.0612
0.458931 -2.084381 1.0212
-0.039262 -2.089215 1.0612
0.06 -2.10416 1.042525
0.425721 -2.031027 1.0612
0.018083 -2.1295 1.023315
0.499122 -2.0195 1.033896
0.42435 -2.082281 1.0212
-0.426823 -2.027373 1.0612
-0.016265 -2.119104 1.0612
0.458482 -2.060047 1.0612
0.028321 -2.024922 1.0612
-0.02285 -2.099255 1.0212
0.055392 -2.041333 1.0612
-0.442574 -2.070403 1.0612
-0.418853 -2.070569 1.0612
0.033578 -2.029985 1.0612
0.453922 -2.076766 1.0612
-0.479032 -2.023217 1.0612
-0.417274 -2.103074 1.0212
0.434435 -2.067625 1.0612
0.056385 -2.06833 1.0612
0.003163 -2.112791 1.0212
0.493358 -2.086283 1.0212
-0.497604 -2.032781 1.0212
0.491951 -2.068421 1.0612
0.457631 -2.082422 1.0212
0.476127 -2.1295 1.049393
-0.041098 -2.0195 1.040788
-0.499206 -2.069781 1.0212
-0.009453 -2.129357 1.0212
-0.490698 -2.09532 1.0612
0.423779 -2.081904 1.0212
0.448413 -2.098127 1.0612
0.002161 -2.036966 1.0212
-0.428528 -2.1295 1.022071
-0.476186 -2.076983 1.0212
-0.454933 -2.1295 1.021725
-0.033893 -2.1295 1.036954
0.408384 -2.0195 1.031782
-0.022461 -2.121368 1.0612
-0.4 -2.093401 1.03384
-0.049558 -2.103589 1.0612
-0.477091 -2.066221 1.0212
0.4 -2.113767 1.048779
0.493706 -2.1295 1.042327
0.047519 -2.079586 1.0612
-0.4 -2.092415 1.052705
-0.5 -2.119999 1.049839
-0.06 -2.088899 1.032384
-0.039338 -2.043524 1.0612
-0.484075 -2.098782 1.0612
-0.004586 -2.0195 1.024913
0.06 -2.053902 1.044368
0.045376 -2.045347 1.0612
0.5 -2.038658 1.048215
0.000656 -2.127581 1.0612
-0.412991 -2.044273 1.0212
0.06 -2.044818 1.039779
0.446803 -2.1295 1.044419
0.411224 -2.122783 1.0612
-0.047946 -2.045932 1.0612
0.499881 -2.063633 1.0612
0.46404 -2.078906 1.0612
0.421979 -2.102304 1.0212
0.433571 -2.102444 1.0612
-0.00706 -2.046558 1.0212
0.455782 -2.0195 1.027836
-0.004444 -2.12419 1.0212
0.047255 -2.1295 1.0551
0.026437 -2.068337 1.0212
0.47577 -2.028486 1.0212
-0.0017 -2.110913 1.0212
0.492105 -2.122593 1.0612
0.469819 -2.074828 1.0212
0.031318 -2.041447 1.0212
0.473427 -2.076795 1.0212
-0.5 -2.026549 1.054841
-0.45876 -2.1295 1.05519
0.421406 -2.106263 1.0212
-0.012303 -2.104576 1.0612
0.482204 -2.043011 1.0212
0.037107 -2.047841 1.0612
-0.403395 -2.0195 1.029611
-0.430906 -2.059287 1.0212
0.405697 -2.115541 1.0612
0.499045 -2.11551 1.0612
0.40182 -2.028201 1.0612
0.413604 -2.1295 1.048943
0.4 -2.056762 1.032405
0.452838 -2.081711 1.0612
0.475124 -2.1295 1.047424
0.45138 -2.1295 1.054946
-0.451887 -2.042414 1.0612
-0.044642 -2.0195 1.038626
0.417591 -2.083413 1.0212
0.5 -2.128636 1.025999
-0.427069 -2.0195 1.022203
0.452502 -2.08145 1.0612
-0.06 -2.046198 1.046231
0.450055 -2.124992 1.0612
-0.438776 -2.121565 1.0212
0.032601 -2.129263 1.0212
-0.468215 -2.0195 1.02443
0.44494 -2.065337 1.0612
-0.497069 -2.0195 1.051532
-0.019369 -2.116415 1.0212
0.479015 -2.0195 1.021643
0.488698 -2.111379 1.0212
-0.471771 -2.113575 1.0612
0.434925 -2.050962 1.0612
-0.0394 -2.02371 1.0612
0.403062 -2.1295 1.034378
-0.457683 -2.128997 1.0612
0.014181 -2.043963 1.0612
-0.4 -2.035866 1.022867
0.484431 -2.051505 1.0612
-0.460325 -2.0195 1.052681
-0.449707 -2.120835 1.0612
0.499593 -2.125657 1.0612
-0.499941 -2.100971 1.0612
0.029569 -2.049902 1.0212
-0.005174 -2.1295 1.02821
0.5 -2.032663 1.051978
0.003264 -2.048767 1.0612
-0.450375 -2.043384 1.0612
0.006826 -2.022078 1.0212
-0.450589 -2.1295 1.044774
-0.037281 -2.114182 1.0212
-0.020419 -2.1295 1.022759
-0.497084 -2.0195 1.038299
-0.5 -2.041673 1.054886
0.443401 -2.033563 1.0612
-0.030143 -2.062662 1.0612
-0.4 -2.091027 1.0592
0.466692 -2.115144 1.0612
-0.06 -2.037996 1.047658
0.406687 -2.041438 1.0212
-0.49011 -2.066468 1.0612
0.418079 -2.0195 1.05412
0.447763 -2.020551 1.0612
-0.468694 -2.046362 1.0212
-0.409621 -2.1295 1.04643
-0.49755 -2.070926 1.0612
-0.466094 -2.044559 1.0612
0.429559 -2.045512 1.0612
0.044848 -2.037102 1.0212
-0.025907 -2.0195 1.060023
0.466276 -2.104671 1.0212
-0.481681 -2.0195 1.053178
0.4 -2.099238 1.057426
-0.06 -2.093335 1.049317
0.484283 -2.1295 1.027502
0.479323 -2.0195 1.023491
0.450353 -2.1058 1.0212
-0.06 -2.100889 1.040292
0.402069 -2.1295 1.048453
-0.483349 -2.040243 1.0212
-0.050331 -2.1295 1.052265
0.06 -2.09637 1.045463
0.047293 -2.035393 1.0212
0.5 -2.07875 1.051999
-0.024031 -2.0195 1.050128
-0.44641 -2.0195 1.035161
0.499793 -2.08229 1.0212
0.032697 -2.03726 1.0612
0.054364 -2.043981 1.0212
-0.401898 -2.048134 1.0612
-0.42805 -2.1295 1.050528
0.5 -2.028256 1.021986
0.4 -2.086133 1.049534
0.490168 -2.061702 1.0612
0.477831 -2.052099 1.0612
0.451953 -2.101328 1.0612
0.5 -2.062463 1.026305
-0.042822 -2.062828 1.0612
0.5 -2.078939 1.036397
0.016432 -2.037294 1.0612
-0.029059 -2.070547 1.0212
-0.4 -2.094927 1.052263
0.4 -2.113377 1.058554
-0.498907 -2.082916 1.0612
0.429277 -2.120699 1.0212
0.474112 -2.0195 1.041219
0.016927 -2.095449 1.0612
0.011739 -2.040656 1.0212
0.024808 -2.047728 1.0612
0.417328 -2.117612 1.0612
-0.489512 -2.049504 1.0612
0.49538 -2.056788 1.0612
0.5 -2.051825 1.023403
0.014883 -2.1295 1.051343
0.017838 -2.1295 1.026932
0.06 -2.03338 1.032749
-0.405593 -2.046594 1.0212
0.437417 -2.058525 1.0212
0.440793 -2.024066 1.0212
-0.5 -2.102172 1.04857
0.484517 -2.104922 1.0212
0.467215 -2.0195 1.039551
-0.460058 -2.102913 1.0612
-0.044377 -2.021444 1.0212
-0.499934 -2.040436 1.0612
0.406778 -2.060674 1.0612
0.414149 -2.0195 1.05606
0.01922 -2.121926 1.0212
0.430854 -2.046318 1.0212
0.010806 -2.1295 1.057193
0.459245 -2.083091 1.0212
0.4 -2.1155 1.03765
-0.433125 -2.050239 1.0212
0.5 -2.041315 1.028141
-0.487799 -2.03265 1.0612
0.4 -2.077322 1.057572
-0.06 -2.094603 1.039142
-0.442694 -2.0195 1.057374
0.00261 -2.129435 1.0612
-0.06 -2.049584 1.027194
0.06 -2.038208 1.034896
0.484518 -2.1295 1.044407
-0.442049 -2.121978 1.0612
0.4 -2.108413 1.049426
0.49391 -2.059624 1.0212
0.427443 -2.042169 1.0612
0.45687 -2.056269 1.0612
-0.45456 -2.0195 1.051278
0.035338 -2.030333 1.0612
-0.035298 -2.1295 1.052938
-0.5 -2.074393 1.031893
0.055808 -2.119519 1.0212
0.04333 -2.12767 1.0212
-0.407039 -2.0195 1.036184
0.449648 -2.089811 1.0612
-0.43482 -2.125566 1.0212
-0.06 -2.1192 1.049558
-0.5 -2.040882 1.035851
0.043368 -2.0195 1.044039
0.443019 -2.113654 1.0612
0.020421 -2.079416 1.0212
0.06 -2.095064 1.039179
-0.008023 -2.058133 1.0612
0.416142 -2.1295 1.029082
0.015349 -2.097854 1.0212
-0.465694 -2.042241 1.0212
0.002764 -2.1295 1.033429
0.433038 -2.1295 1.036135
-0.031831 -2.060215 1.0212
-0.002395 -2.0195 1.046271
-0.5 -2.065932 1.048589
-0.403647 -2.031046 1.0212
-0.4273 -2.064522 1.0612
0.013086 -2.032343 1.0612
0.452915 -2.11342 1.0612
0.403266 -2.042479 1.0612
-0.5 -2.090714 1.059329
0.4 -2.102454 1.053601
0.024614 -2.1295 1.036341
-0.417939 -2.119577 1.0212
0.481724 -2.021716 1.0212
0.06 -2.049414 1.036567
-0.448414 -2.057141 1.0612
-0.496205 -2.043748 1.0212
-0.471597 -2.082682 1.0212
-0.5 -2.12727 1.054578
0.4 -2.100984 1.031602
-0.005271 -2.1295 1.022248
0.017835 -2.064092 1.0212
-0.4 -2.049905 1.046534
0.5 -2.074895 1.060053
-0.406727 -2.089239 1.0212
-0.037157 -2.129493 1.0612
-0.06 -2.046993 1.029168
-0.490985 -2.1295 1.057718
-0.49912 -2.125076 1.0212
0.483305 -2.0195 1.038289
0.4 -2.034735 1.034078
0.4 -2.065773 1.04947
0.015585 -2.0195 1.03007
0.010696 -2.073846 1.0612
0.409363 -2.1295 1.040998
-0.4 -2.092948 1.038281
-0.039913 -2.0195 1.027603
0.026059 -2.0195 1.051169
0.043959 -2.0195 1.028622
0.000154 -2.055439 1.0612
-0.013503 -2.1295 1.052187
-0.05199 -2.1295 1.021545
0.481822 -2.067446 1.0612
0.018728 -2.025269 1.0212
0.449349 -2.062842 1.0212
-0.413441 -2.032789 1.0212
-0.051462 -2.100946 1.0212
-0.034913 -2.019941 1.0212
0.405791 -2.045967 1.0612
-0.5 -2.056405 1.03623
0.481506 -2.111246 1.0212
0.435792 -2.1295 1.041953
-0.412643 -2.031264 1.0212
0.49516 -2.086779 1.0212
0.459114 -2.109001 1.0212
-0.029772 -2.047656 1.0212
0.403046 -2.06321 1.0612
-0.4 -2.078887 1.059424
-0.041605 -2.0195 1.043207
0.40834 -2.0195 1.021886
-0.036546 -2.109036 1.0212
-0.4 -2.083185 1.035995
-0.03728 -2.102908 1.0612
0.06 -2.081962 1.035651
-0.5 -2.05517 1.049475
0.436419 -2.118993 1.0612
-0.414337 -2.055791 1.0612
0.454806 -2.1295 1.050352
-0.05288 -2.1295 1.040804
0.4 -2.119251 1.054308
-0.481505 -2.0195 1.047689
-0.052359 -2.075305 1.0212
-0.442409 -2.055992 1.0212
-0.442819 -2.054762 1.0212
-0.050075 -2.100105 1.0212
0.5 -2.121906 1.053747
0.022771 -2.0195 1.025341
0.427414 -2.083098 1.0212
-0.437765 -2.095454 1.0212
-0.48527 -2.121235 1.0212
0.44913 -2.063619 1.0212
0.420627 -2.054371 1.0612
0.047971 -2.0195 1.04973
0.008723 -2.06707 1.0612
-0.486356 -2.071957 1.0612
0.5 -2.05853 1.028236
0.45656 -2.073804 1.0212
0.4 -2.043339 1.02881
0.412432 -2.081208 1.0612
-0.025069 -2.126026 1.0212
0.007991 -2.129145 1.0212
0.044341 -2.043198 1.0612
-0.06 -2.077577 1.05354
0.001151 -2.11232 1.0212
-0.054568 -2.024763 1.0612
0.432283 -2.1295 1.049573
0.453448 -2.043991 1.0612
0.4 -2.116739 1.060721
0.449157 -2.1295 1.023396
-0.48801 -2.061213 1.0212
-0.475335 -2.026278 1.0212
0.058164 -2.102306 1.0212
-0.477933 -2.028588 1.0612
-0.459701 -2.111888 1.0212
-0.473394 -2.096934 1.0212
0.025927 -2.065325 1.0612
0.045523 -2.115959 1.0212
-0.022647 -2.049317 1.0212
-0.408834 -2.030055 1.0612
0.427597 -2.11525 1.0212
-0.06 -2.077036 1.032708
0.459792 -2.0195 1.046418
0.031777 -2.113018 1.0612
-0.05751 -2.109304 1.0612
0.490605 -2.1295 1.033331
0.023773 -2.097871 1.0212
-0.425308 -2.0195 1.044759
0.431699 -2.024406 1.0212
-0.467926 -2.113445 1.0612
0.426842 -2.04829 1.0612
0.045741 -2.078164 1.0612
-0.488683 -2.121605 1.0612
0.06 -2.072486 1.044182
0.453559 -2.073439 1.0212
0.5 -2.034204 1.021761
0.4 -2.112125 1.031744
0.009055 -2.0195 1.02389
0.4 -2.067302 1.037235
-0.042801 -2.118392 1.0612
0.403626 -2.1295 1.045643
0.06 -2.093131 1.024779
-0.427874 -2.039358 1.0612
-0.00648 -2.097767 1.0612
0.452194 -2.111357 1.0212
-0.406257 -2.122904 1.0612
-0.482214 -2.027741 1.0212
0.425765 -2.085575 1.0212
-0.036102 -2.0195 1.047219
0.06 -2.107572 1.033474
-0.057541 -2.125338 1.0612
-0.420506 -2.027251 1.0212
-0.001414 -2.034156 1.0212
0.467538 -2.074991 1.0212
-0.01154 -2.073326 1.0612
-0.022577 -2.088547 1.0612
0.028178 -2.030844 1.0212
0.06 -2.03862 1.060378
-0.496598 -2.1295 1.048291
-0.00476 -2.087363 1.0612
0.493516 -2.060897 1.0212
-0.002831 -2.027431 1.0212
0.460066 -2.076163 1.0212
0.439289 -2.073828 1.0612
-0.02544 -2.088107 1.0212
-0.471552 -2.10131 1.0612
-0.412546 -2.1295 1.054712
0.02515 -2.120622 1.0612
-0.4 -2.076118 1.033287
-0.423992 -2.100785 1.0212
0.06 -2.119212 1.034612
0.442728 -2.0195 1.023192
-0.02495 -2.030683 1.0212
-0.022002 -2.03467 1.0212
-0.057559 -2.108282 1.0612
0.410784 -2.091532 1.0212
0.454651 -2.119139 1.0212
-0.4 -2.039253 1.032946
-0.497915 -2.092283 1.0212
0.425543 -2.0195 1.026396
-0.026669 -2.1295 1.05839
-0.482476 -2.037519 1.0212
0.06 -2.020045 1.057514
-0.475742 -2.094444 1.0212
-0.5 -2.045051 1.029641
0.024625 -2.1295 1.030895
0.431399 -2.04093 1.0612
-0.456818 -2.108018 1.0612
0.48152 -2.083186 1.0212
0.412523 -2.098763 1.0612
0.416564 -2.062606 1.0612
-0.476913 -2.029994 1.0212
-0.414297 -2.1295 1.028915
-0.037615 -2.1295 1.029506
0.049435 -2.1295 1.025192
-0.02022 -2.11795 1.0612
-0.491957 -2.116987 1.0212
0.407317 -2.0195 1.057396
-0.420194 -2.123465 1.0612
-0.47982 -2.0195 1.022188
0.487847 -2.1295 1.060763
0.496431 -2.03 1.0612
0.06 -2.069602 1.060094
0.482528 -2.055349 1.0612
0.06 -2.043416 1.057544
-0.442367 -2.105808 1.0612
0.06 -2.1191 1.042594
0.5 -2.105246 1.04859
-0.5 -2.080478 1.047519
-0.046051 -2.062257 1.0212
-0.020808 -2.080588 1.0612
0.420612 -2.068193 1.0612
-0.491751 -2.1295 1.039497
0.453595 -2.113879 1.0212
-0.475555 -2.0195 1.030597
0.463728 -2.023645 1.0612
-0.5 -2.070768 1.03915
-0.480575 -2.06339 1.0212
0.4 -2.088691 1.04951
0.5 -2.031742 1.051406
0.039985 -2.072965 1.0212
0.5 -2.086751 1.031497
0.033744 -2.104974 1.0212
-0.462702 -2.049796 1.0612
0.059114 -2.067452 1.0212
-0.460771 -2.092131 1.0612
0.465796 -2.071919 1.0612
0.423589 -2.082528 1.0612
0.001582 -2.027076 1.0612
-0.06 -2.029104 1.047886
-0.024045 -2.043301 1.0212
-0.449527 -2.031826 1.0612
-0.4 -2.057661 1.029706
-0.494666 -2.129305 1.0612
-0.022454 -2.044099 1.0612
-0.428626 -2.0195 1.048068
0.465007 -2.069299 1.0212
-0.464229 -2.020585 1.0212
-0.06 -2.045873 1.050487
-0.462563 -2.0195 1.031054
0.043948 -2.1295 1.033911
0.011552 -2.057323 1.0212
0.46735 -2.109589 1.0612
0.407989 -2.041241 1.0612
0.034988 -2.09156 1.0212
-0.450677 -2.1295 1.044033
-0.454017 -2.1295 1.035256
-0.5 -2.076127 1.034996
0.45716 -2.055801 1.0212
-0.025603 -2.052767 1.0212
0.44112 -2.039655 1.0212
0.493105 -2.063278 1.0212
-0.06 -2.10757 1.028907
-0.023665 -2.046458 1.0212
0.451663 -2.080661 1.0212
0.039397 -2.1295 1.046734
0.5 -2.028265 1.021525
-0.021425 -2.115993 1.0612
-0.042758 -2.038131 1.0612
-0.414042 -2.07937 1.0212
-0.449863 -2.0195 1.054783
0.487605 -2.126132 1.0612
-0.0241 -2.102558 1.0612
0.5 -2.096674 1.046523
-0.469212 -2.1295 1.04967
-0.040244 -2.063331 1.0212
-0.42077 -2.039433 1.0212
-0.434917 -2.120695 1.0212
0.400615 -2.019952 1.0612
-0.040063 -2.026764 1.0612
0.448286 -2.1295 1.028324
0.5 -2.058089 1.025812
0.5 -2.104719 1.024119
-0.030596 -2.1295 1.058643
-0.445339 -2.120368 1.0612
0.06 -2.048554 1.052938
-0.434789 -2.101197 1.0212
-0.04177 -2.029679 1.0612
-0.06 -2.068507 1.036875
-0.498929 -2.1295 1.030811
-0.009267 -2.105618 1.0212
0.003339 -2.117584 1.0612
0.449448 -2.044101 1.0612
0.4 -2.091039 1.059095
0.038091 -2.02872 1.0212
-0.461257 -2.068864 1.0612
-0.488652 -2.110428 1.0212
-0.492319 -2.114715 1.0212
-0.427677 -2.124497 1.0612
0.5 -2.099523 1.048387
-0.046544 -2.022955 1.0612
-0.4 -2.079512 1.024003
-0.431272 -2.122095 1.0612
-0.439496 -2.091205 1.0212
0.001348 -2.062273 1.0612
0.018455 -2.095135 1.0212
0.431509 -2.126553 1.0212
0.4 -2.053558 1.04012
0.023094 -2.1295 1.04478
-0.050611 -2.0195 1.04385
-0.487317 -2.077257 1.0612
-0.5 -2.093432 1.052928
-0.432781 -2.019554 1.0212
-0.4 -2.082852 1.022209
0.012016 -2.066221 1.0612
0.489418 -2.1295 1.037125
-0.451431 -2.121771 1.0612
-0.006311 -2.1295 1.054637
0.059451 -2.092777 1.0212
0.5 -2.086012 1.060671
-0.012133 -2.054129 1.0612
0.492333 -2.0195 1.054207
0.461449 -2.076794 1.0612
-0.499466 -2.052539 1.0212
0.443768 -2.03638 1.0612
0.409447 -2.098101 1.0212
0.462624 -2.07157 1.0612
0.049227 -2.074748 1.0212
-0.029447 -2.05709 1.0212
0.4 -2.115947 1.030822
0.020923 -2.022754 1.0612
-0.488751 -2.121708 1.0612
-0.45679 -2.074359 1.0212
0.480653 -2.044857 1.0612
-0.471999 -2.103471 1.0212
-0.407866 -2.067679 1.0612
-0.4 -2.048481 1.044416
-0.5 -2.128713 1.040364
-0.4 -2.053681 1.058409
-0.021782 -2.066719 1.0612
-0.438862 -2.097701 1.0612
0.4355 -2.125873 1.0212
0.494849 -2.050764 1.0212
0.446755 -2.0195 1.032543
-0.499771 -2.0195 1.047286
-0.014131 -2.110212 1.0212
0.012856 -2.05342 1.0612
0.436121 -2.1295 1.038866
0.443775 -2.08113 1.0212
-0.046961 -2.0195 1.040925
-0.034879 -2.0195 1.053925
-0.043612 -2.026906 1.0212
-0.496828 -2.1295 1.027612
0.5 -2.043423 1.033156
0.4 -2.095347 1.028795
-0.477784 -2.103927 1.0212
-0.467218 -2.067116 1.0612
0.06 -2.054289 1.025865
-0.4 -2.047388 1.0402
-0.046529 -2.112223 1.0612
-0.06 -2.09615 1.060021
-0.041625 -2.0195 1.031097
0.06 -2.062722 1.047907
-0.06 -2.068849 1.03682
0.015551 -2.106327 1.0212
-0.413131 -2.0195 1.024388
-0.436267 -2.0195 1.044888
0.5 -2.058149 1.042756
0.440685 -2.097412 1.0212
-0.5 -2.030013 1.03047
0.497954 -2.1295 1.031809
-0.005173 -2.105382 1.0612
-0.4 -2.042213 1.024339
-0.4 -2.101068 1.033126
-0.057625 -2.045185 1.0212
-0.481238 -2.116583 1.0612
0.5 -2.074339 1.04158
0.030286 -2.054345 1.0612
0.058583 -2.040594 1.0212
-0.459621 -2.1295 1.021894
0.415818 -2.038408 1.0212
-0.054201 -2.043098 1.0212
-0.465211 -2.056015 1.0212
-0.038322 -2.04017 1.0612
-0.45203 -2.070977 1.0612
0.482408 -2.124381 1.0212
-0.482821 -2.082418 1.0212
-0.006184 -2.074948 1.0612
0.032924 -2.0195 1.032511
0.497304 -2.034684 1.0612
0.06 -2.092258 1.057328
-0.490076 -2.084162 1.0612
0.06 -2.096115 1.058471
0.481494 -2.065346 1.0212
0.5 -2.090872 1.050229
0.484572 -2.074911 1.0212
0.047615 -2.092239 1.0612
-0.405134 -2.098911 1.0612
0.06 -2.050723 1.022892
0.014573 -2.082622 1.0212
0.06 -2.103407 1.039676
-0.5 -2.070506 1.052623
-0.4 -2.080697 1.032022
0.06 -2.08571 1.034339
0.417018 -2.088317 1.0212
0.44148 -2.0195 1.048457
0.481238 -2.059556 1.0212
-0.038025 -2.114995 1.0212
0.448796 -2.038082 1.0612
0.466907 -2.10583 1.0212
-0.042246 -2.079564 1.0212
0.485677 -2.082064 1.0212
0.5 -2.105138 1.059156
0.06 -2.026083 1.030166
0.5 -2.025034 1.05769
-0.458492 -2.0195 1.039357
-0.458395 -2.052717 1.0212
0.019151 -2.066648 1.0612
-0.008734 -2.12043 1.0612
-0.041398 -2.0889 1.0212
-0.49213 -2.022602 1.0612
-0.411502 -2.059777 1.0612
0.4 -2.029102 1.05224
0.4 -2.112046 1.034124
-0.401813 -2.129411 1.0612
-0.405444 -2.020617 1.0212
0.045529 -2.076611 1.0212
0.488746 -2.1295 1.060287
0.022187 -2.081061 1.0612
-0.004754 -2.088995 1.0212
-0.002239 -2.1295 1.039766
-0.039656 -2.058872 1.0212
-0.485829 -2.0195 1.058757
-0.000718 -2.1295 1.027833
-0.498572 -2.090495 1.0212
-0.04705 -2.098693 1.0612
-0.44916 -2.035452 1.0212
0.45579 -2.0195 1.053322
-0.457923 -2.1295 1.042919
0.030172 -2.087054 1.0612
0.468572 -2.063567 1.0212
-0.027973 -2.113787 1.0212
0.408212 -2.0195 1.041115
-0.458709 -2.105712 1.0212
-0.428262 -2.106465 1.0212
0.414119 -2.0195 1.035183
0.490424 -2.0195 1.035256
-0.487348 -2.104467 1.0212
0.405095 -2.051111 1.0212
-0.058765 -2.1295 1.06038
0.477251 -2.0195 1.037028
-0.494729 -2.110968 1.0212
0.421332 -2.0195 1.033192
-0.03399 -2.127785 1.0212
-0.009042 -2.118796 1.0612
0.480831 -2.059026 1.0212
0.403903 -2.0195 1.045264
-0.467384 -2.097927 1.0612
0.494044 -2.1295 1.038933
-0.4 -2.034156 1.038203
-0.042828 -2.1295 1.032728
0.06 -2.107539 1.048662
-0.414198 -2.105476 1.0612
-0.409348 -2.0195 1.027204
0.020734 -2.12726 1.0212
0.06 -2.100856 1.023961
-0.4 -2.112806 1.047901
0.41891 -2.1295 1.048094
-0.429117 -2.0195 1.033751
0.471289 -2.0195 1.037558
0.06 -2.054446 1.022421
-0.475014 -2.1295 1.054354
-0.400275 -2.089319 1.0212
0.057667 -2.0195 1.022057
0.437452 -2.055019 1.0612
0.000212 -2.1295 1.029454
0.490521 -2.0195 1.03999
-0.4 -2.064278 1.040092
0.413007 -2.0195 1.050819
0.454499 -2.1295 1.044401
0.457463 -2.092577 1.0612
0.480582 -2.098401 1.0212
0.4 -2.074433 1.035119
0.01672 -2.100306 1.0212
-0.01837 -2.0195 1.035961
0.496706 -2.023295 1.0212
-0.469484 -2.105431 1.0212
-0.4 -2.113 1.060248
-0.487541 -2.093974 1.0612
0.419499 -2.109087 1.0212
0.432589 -2.0195 1.056397
0.496039 -2.112464 1.0612
-0.051521 -2.033384 1.0612
0.024075 -2.0195 1.047761
-0.02777 -2.044134 1.0612
-0.455837 -2.052405 1.0212
-0.498933 -2.055694 1.0212
-0.483413 -2.109595 1.0612
-0.441011 -2.043737 1.0612
0.049059 -2.1295 1.042587
-0.421055 -2.1295 1.021984
0.009451 -2.0195 1.055868
0.418605 -2.112061 1.0612
-0.5 -2.026798 1.025255
-0.401898 -2.048369 1.0212
-0.057943 -2.0195 1.044426
0.466312 -2.077588 1.0612
-0.044565 -2.125643 1.0212
-0.0384 -2.1295 1.059523
0.452333 -2.125623 1.0612
-0.019483 -2.1295 1.035928
0.479486 -2.0195 1.056265
0.004664 -2.0195 1.045714
-0.037704 -2.093212 1.0212
0.4 -2.075316 1.033091
0.402479 -2.101848 1.0612
-0.003418 -2.103058 1.0612
-0.481082 -2.097265 1.0212
0.492091 -2.104903 1.0212
-0.457791 -2.061493 1.0612
0.050517 -2.036984 1.0612
-0.493093 -2.026307 1.0612
-0.412012 -2.057228 1.0612
-0.439439 -2.039699 1.0212
0.450606 -2.035828 1.0212
0.009409 -2.039429 1.0212
-0.06 -2.037929 1.054586
0.434855 -2.089059 1.0212
-0.06 -2.093083 1.030812
-0.4 -2.052016 1.03722
-0.048877 -2.099032 1.0212
-0.029358 -2.1295 1.035595
-0.058007 -2.113948 1.0212
0.4 -2.060386 1.048715
0.494765 -2.1295 1.03313
-0.470756 -2.020169 1.0612
0.405611 -2.036423 1.0212
-0.423926 -2.126667 1.0612
-0.03792 -2.127287 1.0612
-0.035134 -2.1295 1.059753
0.06 -2.049307 1.052147
-0.009476 -2.112267 1.0212
0.044723 -2.114076 1.0212
0.481958 -2.125658 1.0212
-0.464313 -2.021504 1.0612
-0.016991 -2.095018 1.0612
0.42648 -2.11381 1.0212
0.408933 -2.07316 1.0212
0.462699 -2.110634 1.0212
-0.469892 -2.028565 1.0612
0.4 -2.066098 1.055706
-0.4 -2.11689 1.026595
-0.417481 -2.0195 1.058747
-0.435377 -2.0195 1.025721
-0.057092 -2.116524 1.0212
-0.43102 -2.031377 1.0612
0.01236 -2.022037 1.0612
0.5 -2.023356 1.043091
-0.4 -2.077056 1.054776
0.4 -2.074439 1.024272
-0.452394 -2.030284 1.0212
-0.02639 -2.1295 1.055724
0.036775 -2.100791 1.0612
0.5 -2.10856 1.043995
0.5 -2.129389 1.033325
-0.473045 -2.081936 1.0612
0.026065 -2.062589 1.0212
0.021734 -2.1295 1.052211
0.468953 -2.11836 1.0212
-0.5 -2.107715 1.025103
-0.474575 -2.062396 1.0612
-0.06 -2.044179 1.035876
0.005768 -2.081545 1.0212
0.417321 -2.127294 1.0612
0.4 -2.110891 1.024121
-0.442709 -2.1295 1.049262
-0.45155 -2.1295 1.042255
-0.416263 -2.12043 1.0212
0.46396 -2.093489 1.0612
0.4904 -2.053982 1.0212
0.017941 -2.116453 1.0612
0.06 -2.124986 1.057267
-0.47033 -2.0195 1.048224
-0.020223 -2.061319 1.0212
-0.406789 -2.06967 1.0612
0.405324 -2.0195 1.029774
-0.014042 -2.03998 1.0612
0.489995 -2.0195 1.03856
0.488757 -2.079995 1.0612
-0.06 -2.103526 1.056828
0.453671 -2.093673 1.0212
0.494468 -2.092818 1.0612
0.005282 -2.067595 1.0212
0.485198 -2.073689 1.0212
-0.06 -2.082765 1.049278
0.055886 -2.071377 1.0212
0.06 -2.04285 1.024965
0.418822 -2.032167 1.0612
-0.467978 -2.114662 1.0612
-0.06 -2.102433 1.059737
-0.5 -2.112448 1.039793
-0.43197 -2.068122 1.0612
-0.4 -2.023088 1.038384
0.43761 -2.1295 1.052505
-0.036551 -2.093273 1.0212
-0.5 -2.020799 1.026915
-0.430708 -2.0195 1.034629
0.430576 -2.0195 1.039736
0.42701 -2.126793 1.0612
-0.4 -2.129051 1.022757
0.430767 -2.120078 1.0612
0.047488 -2.1295 1.056176
0.450259 -2.071621 1.0612
-0.499416 -2.021219 1.0612
-0.49707 -2.0195 1.039136
0.009873 -2.058107 1.0612
-0.432244 -2.062136 1.0612
0.038703 -2.077584 1.0612
-0.038593 -2.028543 1.0212
0.037783 -2.060941 1.0612
0.409761 -2.086823 1.0612
0.464959 -2.027575 1.0212
0.03534 -2.097445 1.0212
-0.450628 -2.032429 1.0212
-0.06 -2.042082 1.048415
-0.484042 -2.0195 1.039316
0.483591 -2.039559 1.0612
0.4 -2.042188 1.05772
-0.047733 -2.114272 1.0212
-0.5 -2.05376 1.047891
-0.475816 -2.092457 1.0212
-0.016502 -2.096743 1.0212
-0.000903 -2.112249 1.0212
0.443315 -2.114666 1.0612
-0.469747 -2.055166 1.0612
-0.048093 -2.0195 1.054779
0.47433 -2.0195 1.042257
0.429964 -2.0195 1.05498
0.021477 -2.055444 1.0612
0.475459 -2.120895 1.0212
-0.020988 -2.105727 1.0612
-0.465573 -2.071519 1.0612
-0.06 -2.127763 1.041515
0.462449 -2.1295 1.043385
-0.495329 -2.035485 1.0612
0.48322 -2.11767 1.0212
0.461416 -2.038542 1.0612
0.404791 -2.124679 1.0212
0.021293 -2.040964 1.0212
0.021922 -2.109176 1.0612
0.426126 -2.109935 1.0212
0.041478 -2.096665 1.0212
-0.484131 -2.1295 1.056566
0.034438 -2.06682 1.0212
-0.005706 -2.028768 1.0612
-0.039444 -2.052811 1.0612
0.5 -2.083536 1.041596
-0.018843 -2.05351 1.0612
-0.466562 -2.0195 1.028024
-0.430998 -2.1295 1.050438
0.4 -2.035403 1.037561
-0.425959 -2.090785 1.0612
-0.49138 -2.0195 1.048829
0.454793 -2.030545 1.0612
0.430298 -2.020554 1.0612
-0.00355 -2.1295 1.046857
-0.482793 -2.093025 1.0212
0.058155 -2.0195 1.060691
-0.053215 -2.064138 1.0612
-0.017874 -2.108943 1.0212
-0.024505 -2.056046 1.0612
-0.006023 -2.066736 1.0612
-0.001921 -2.117905 1.0612
0.013095 -2.1295 1.038618
-0.057936 -2.045054 1.0212
-0.460283 -2.0195 1.046867
-0.455339 -2.074436 1.0212
-0.5 -2.044636 1.021776
-0.421646 -2.1295 1.058804
0.5 -2.039873 1.051821
-0.479116 -2.034258 1.0612
-0.49519 -2.067909 1.0212
-0.06 -2.12621 1.032317
0.460227 -2.1295 1.031368
0.491593 -2.088107 1.0612
0.407835 -2.124543 1.0212
0.412953 -2.042326 1.0612
-0.03829 -2.1295 1.058843
0.006346 -2.023661 1.0212
-0.4 -2.108513 1.02919
-0.475526 -2.048857 1.0612
0.406589 -2.1295 1.025544
-0.029969 -2.037308 1.0612
0.5 -2.096646 1.056939
0.418989 -2.1295 1.061049
0.05414 -2.068725 1.0212
-0.426593 -2.1295 1.052506
-0.030565 -2.033323 1.0212
0.031472 -2.0195 1.027221
-0.048477 -2.074059 1.0612
0.493041 -2.0195 1.057923
0.4 -2.051181 1.024402
-0.4 -2.093273 1.034085
-0.5 -2.090883 1.046565
0.408301 -2.02234 1.0212
-0.451909 -2.117826 1.0212
0.044606 -2.053109 1.0212
-0.402864 -2.1295 1.054271
-0.436473 -2.043412 1.0612
-0.022566 -2.048472 1.0212
-0.000185 -2.027283 1.0612
-0.475929 -2.074299 1.0212
-0.010913 -2.077634 1.0212
0.400274 -2.031592 1.0212
-0.027769 -2.0195 1.052549
-0.06 -2.099095 1.023618
-0.426896 -2.1295 1.051609
0.413344 -2.022452 1.0212
-0.041106 -2.028048 1.0612
0.404164 -2.1295 1.037357
-0.046354 -2.0195 1.027241
-0.051911 -2.1295 1.042153
0.476858 -2.032573 1.0612
-0.5 -2.027298 1.031666
-0.056915 -2.071142 1.0212
0.406301 -2.062703 1.0212
0.464328 -2.053587 1.0612
0.479902 -2.1295 1.039114
0.421342 -2.044242 1.0212
0.423258 -2.0195 1.0487
-0.4 -2.036992 1.046039
-0.487163 -2.068769 1.0212
-0.42503 -2.128526 1.0212
-0.461378 -2.032427 1.0212
-0.001279 -2.1295 1.060169
-0.5 -2.091549 1.025833
-0.001964 -2.059312 1.0212
0.06 -2.0894 1.051368
0.42705 -2.0195 1.030068
0.010015 -2.029493 1.0612
-0.4 -2.085457 1.03133
0.0404 -2.09957 1.0612
0.5 -2.094693 1.030227
-0.5 -2.10719 1.058953
-0.026013 -2.1295 1.058074
0.06 -2.073969 1.038905
-0.06 -2.063459 1.036113
-0.06 -2.032408 1.042095
0.460405 -2.042831 1.0612
0.005734 -2.076776 1.0612
0.421166 -2.062465 1.0612
0.053357 -2.114853 1.0612
0.422421 -2.078185 1.0212
-0.010107 -2.078098 1.0612
-0.473239 -2.1295 1.034717
0.5 -2.120885 1.021814
0.023942 -2.071735 1.0212
-0.031123 -2.0195 1.047845
-0.4 -2.084617 1.040448
0.06 -2.026461 1.034148
0.407991 -2.0195 1.041703
-0.457816 -2.1295 1.028373
-0.47722 -2.095776 1.0612
-0.401342 -2.052672 1.0212
0.409129 -2.074271 1.0612
0.024127 -2.069117 1.0212
0.469535 -2.048906 1.0212
-0.405937 -2.1295 1.047224
0.01676 -2.0914 1.0212
0.06 -2.043382 1.040009
0.476411 -2.105665 1.0212
-0.442771 -2.035702 1.0612
0.454644 -2.084925 1.0212
0.430418 -2.1295 1.038086
0.025681 -2.071936 1.0212
-0.441966 -2.0195 1.032089
0.467805 -2.0207 1.0612
0.014618 -2.1295 1.031178
-0.417477 -2.126746 1.0212
0.004367 -2.1295 1.055864
-0.4 -2.079527 1.0323
-0.042557 -2.0195 1.028817
-0.488378 -2.01969 1.0212
0.055928 -2.0195 1.049243
0.441726 -2.091462 1.0612
-0.463953 -2.044999 1.0212
0.462726 -2.044809 1.0612
0.428678 -2.0195 1.054715
0.424086 -2.111359 1.0212
-0.018238 -2.021232 1.0612
-0.48613 -2.096535 1.0612
-0.010797 -2.093474 1.0612
-0.06 -2.085857 1.05306
-0.468497 -2.0195 1.03578
0.020701 -2.0195 1.036217
-0.436144 -2.11976 1.0612
-0.489539 -2.0195 1.028802
-0.477502 -2.120499 1.0612
-0.401162 -2.04694 1.0212
0.450901 -2.0195 1.042778
-0.06 -2.064636 1.033317
-0.052846 -2.08776 1.0612
0.053 -2.111638 1.0212
-0.010069 -2.030693 1.0612
0.0309 -2.0195 1.02128
0.035264 -2.041371 1.0612
-0.410806 -2.039972 1.0212
-0.4 -2.103438 1.043859
-0.445445 -2.1295 1.058646
-0.4 -2.089435 1.043997
0.050619 -2.028214 1.0612
-0.06 -2.080542 1.043885
0.5 -2.038969 1.034404
0.451661 -2.055646 1.0612
0.5 -2.045262 1.044956
-0.4 -2.090019 1.040289
0.404056 -2.049523 1.0212
0.492519 -2.032086 1.0212
0.455573 -2.091792 1.0212
-0.038075 -2.062644 1.0612
-0.447455 -2.072755 1.0612
0.016284 -2.057402 1.0612
-0.4 -2.072957 1.023837
-0.044737 -2.038859 1.0212
0.43736 -2.074844 1.0212
-0.5 -2.021829 1.031686
0.49434 -2.08483 1.0212
0.050845 -2.039106 1.0212
-0.480313 -2.081617 1.0212
-0.446361 -2.0195 1.028292
0.018591 -2.1295 1.057788
-0.018395 -2.046236 1.0212
-0.5 -2.037756 1.03206
0.492982 -2.07906 1.0612
-0.473026 -2.030106 1.0212
0.452227 -2.115942 1.0212
0.42241 -2.100903 1.0612
-0.014675 -2.055927 1.0612
-0.4 -2.09478 1.045675
0.057969 -2.0195 1.035054
-0.451336 -2.086839 1.0212
-0.054091 -2.045374 1.0612
0.5 -2.124481 1.052729
-0.030461 -2.087014 1.0612
0.433344 -2.032205 1.0212
-0.405609 -2.057888 1.0612
0.489963 -2.071053 1.0612
-0.410146 -2.020719 1.0612
-0.4 -2.100171 1.048597
-0.445381 -2.1295 1.043411
-0.410326 -2.0195 1.05458
0.424874 -2.0195 1.039739
0.446617 -2.12427 1.0612
-0.002866 -2.026604 1.0612
0.437376 -2.080807 1.0212
0.464608 -2.040471 1.0612
-0.414272 -2.0195 1.05556
0.022294 -2.108434 1.0212
-0.468601 -2.046478 1.0212
0.4 -2.053064 1.044233
-0.4 -2.063222 1.040427
-0.483308 -2.027036 1.0212
-0.014852 -2.061469 1.0612
-0.06 -2.032188 1.052431
-0.421524 -2.02058 1.0212
-0.5 -2.09306 1.055133
-0.456431 -2.041863 1.0612
-0.031186 -2.104469 1.0212
-0.429376 -2.0195 1.051001
-0.5 -2.029168 1.031811
-0.06 -2.042143 1.061119
0.06 -2.118902 1.053068
-0.432291 -2.048186 1.0212
0.4 -2.042955 1.032478
-0.050968 -2.1295 1.054042
-0.5 -2.038776 1.043556
-0.5 -2.039027 1.03411
-0.4 -2.11243 1.031507
-0.06 -2.104745 1.038481
0.056005 -2.126291 1.0612
0.461664 -2.0195 1.043055
-0.044799 -2.0195 1.050862
-0.06 -2.070399 1.025753
0.403114 -2.0195 1.055863
-0.401007 -2.024474 1.0212
-0.06 -2.074286 1.049472
-0.49458 -2.127616 1.0612
0.4 -2.075495 1.032857
0.017486 -2.061758 1.0212
0.055105 -2.044255 1.0612
-0.4 -2.08736 1.02901
-0.5 -2.074059 1.045322
0.476241 -2.110247 1.0612
-0.439872 -2.087407 1.0212
0.4 -2.113883 1.029091
-0.06 -2.051946 1.02624
0.00974 -2.02511 1.0212
0.050132 -2.041776 1.0612
0.055746 -2.096432 1.0212
-0.431354 -2.04746 1.0212
0.467756 -2.019671 1.0212
0.017824 -2.115289 1.0612
-0.5 -2.116661 1.051628
-0.045508 -2.05975 1.0212
-0.021288 -2.086473 1.0612
0.047963 -2.124182 1.0212
0.032499 -2.0195 1.027014
0.472205 -2.067333 1.0612
-0.032885 -2.023933 1.0612
0.016569 -2.090441 1.0212
-0.471639 -2.070356 1.0612
-0.013555 -2.060428 1.0612
-0.4 -2.025925 1.029915
-0.49802 -2.081016 1.0212
0.06 -2.119273 1.056573
0.06 -2.066519 1.055553
-0.441809 -2.0195 1.049412
-0.432524 -2.048762 1.0612
0.059953 -2.058968 1.0612
-0.487158 -2.086734 1.0212
-0.445786 -2.1295 1.05951
-0.447017 -2.086839 1.0212
0.402345 -2.032102 1.0212
-0.005653 -2.037688 1.0612
0.4 -2.124229 1.032182
0.439477 -2.1295 1.044274
-0.438161 -2.107616 1.0212
-0.431709 -2.0195 1.039198
0.46418 -2.073384 1.0212
-0.454885 -2.122264 1.0212
-0.06 -2.062709 1.058563
0.06 -2.081046 1.029394
-0.5 -2.099804 1.036757
-0.5 -2.077862 1.051503
-0.009105 -2.1295 1.046255
-0.485953 -2.116238 1.0612
0.042739 -2.1295 1.047696
0.4 -2.07523 1.031597
-0.027457 -2.0195 1.027322
-0.448429 -2.11703 1.0212
0.023438 -2.0195 1.056367
-0.440821 -2.1295 1.053627
0.439525 -2.022242 1.0612
-0.445178 -2.0195 1.024475
-0.440604 -2.117516 1.0212
0.5 -2.022147 1.025364
0.020232 -2.1295 1.024619
-0.492157 -2.096006 1.0612
0.483073 -2.092853 1.0612
0.474099 -2.034565 1.0212
0.020727 -2.049858 1.0612
0.487876 -2.0195 1.056377
-0.017979 -2.06146 1.0212
0.025351 -2.1295 1.050074
0.408482 -2.1295 1.037485
-0.404425 -2.056261 1.0612
0.405901 -2.078921 1.0212
0.5 -2.094559 1.056775
-0.433826 -2.115963 1.0612
0.02407 -2.110352 1.0612
0.039585 -2.1295 1.048703
0.453827 -2.092052 1.0612
0.466735 -2.024068 1.0212
0.4 -2.083444 1.041754
-0.406348 -2.1295 1.023786
0.4 -2.073749 1.036884
-0.43721 -2.027723 1.0612
0.466173 -2.033455 1.0612
0.498546 -2.091218 1.0212
-0.480282 -2.1295 1.03167
-0.4 -2.020868 1.045597
-0.5 -2.121132 1.025946
-0.043063 -2.1295 1.042174
-0.475765 -2.04462 1.0612
0.06 -2.117685 1.047902
-0.052469 -2.112442 1.0212
0.06 -2.114489 1.053303
-0.4 -2.124885 1.055742
-0.425132 -2.0195 1.043928
0.006843 -2.0195 1.048137
-0.055066 -2.1295 1.054419
0.443729 -2.124495 1.0612
-0.5 -2.055352 1.042006
-0.054648 -2.084093 1.0612
0.038499 -2.031826 1.0612
0.025705 -2.085948 1.0212
0.456558 -2.1295 1.023153
-0.06 -2.05926 1.060458
-0.419233 -2.08384 1.0612
0.5 -2.084818 1.043055
0.473384 -2.066354 1.0212
0.06 -2.071593 1.035463
0.035314 -2.120512 1.0612
-0.051769 -2.054166 1.0212
0.433624 -2.0195 1.038701
-0.468853 -2.0195 1.053727
-0.027732 -2.112454 1.0212
0.041782 -2.026116 1.0612
0.025881 -2.0195 1.029041
0.06 -2.128503 1.030106
-0.4 -2.087619 1.035388
0.458212 -2.0195 1.036334
-0.449867 -2.035804 1.0612
-0.5 -2.045995 1.036145
0.47573 -2.054608 1.0612
0.435201 -2.1295 1.056573
-0.481466 -2.1295 1.023402
-0.053793 -2.070519 1.0212
-0.06 -2.078872 1.035267
0.025052 -2.0195 1.042299
-0.005763 -2.06998 1.0212
0.483846 -2.09011 1.0212
0.487789 -2.0195 1.052677
0.425662 -2.093111 1.0212
0.06 -2.097831 1.043717
0.4 -2.026748 1.028112
-0.46355 -2.078322 1.0612
0.014842 -2.1295 1.034633
0.494854 -2.1295 1.024459
-0.4 -2.032034 1.046294
-0.487879 -2.0195 1.024504
-0.045614 -2.11362 1.0612
0.053273 -2.053998 1.0212
-0.405374 -2.102928 1.0212
0.403746 -2.06947 1.0612
-0.487302 -2.04066 1.0212
-0.039061 -2.123401 1.0212
-0.038678 -2.027388 1.0212
-0.450946 -2.062381 1.0212
0.495086 -2.072059 1.0212
-0.442484 -2.123241 1.0612
0.483455 -2.119507 1.0612
0.022864 -2.097039 1.0212
-0.06 -2.098218 1.056967
-0.032449 -2.032433 1.0612
0.479584 -2.078725 1.0212
-0.06 -2.028238 1.032735
-0.489206 -2.084671 1.0612
0.473284 -2.1295 1.049001
-0.4 -2.079203 1.027835
0.4 -2.123077 1.025229
0.44834 -2.040882 1.0212
0.036726 -2.057392 1.0612
0.490558 -2.1295 1.04894
0.427831 -2.1295 1.023619
-0.483253 -2.056269 1.0212
0.419842 -2.06124 1.0612
0.436013 -2.08829 1.0212
0.456356 -2.125719 1.0612
-0.407452 -2.0195 1.031342
0.440049 -2.12397 1.0612
0.032732 -2.0195 1.025059
0.461887 -2.089136 1.0212
0.001733 -2.065337 1.0612
-0.055571 -2.123602 1.0612
0.461764 -2.110322 1.0212
0.456766 -2.1295 1.061127
0.456013 -2.0195 1.023154
-0.423425 -2.025873 1.0612
0.478294 -2.080118 1.0212
0.430807 -2.1295 1.023666
-0.06 -2.060191 1.06089
-0.008058 -2.0195 1.039216
-0.059072 -2.053958 1.0212
0.475961 -2.129024 1.0612
-0.06 -2.113502 1.021798
0.046513 -2.1295 1.030826
0.478186 -2.0195 1.039626
-0.446143 -2.095861 1.0612
-0.479043 -2.041467 1.0612
-0.442769 -2.0195 1.021502
-0.042688 -2.116934 1.0212
-0.475544 -2.1295 1.023386
0.4 -2.119852 1.031031
0.475437 -2.058767 1.0612
-0.413325 -2.120715 1.0612
-0.468067 -2.040212 1.0212
0.053967 -2.105669 1.0612
0.4 -2.020437 1.047897
0.429972 -2.112473 1.0612
0.06 -2.038022 1.046709
0.433083 -2.019515 1.0212
0.450056 -2.080537 1.0212
0.017293 -2.021444 1.0212
-0.4 -2.121117 1.048247
-0.471928 -2.022607 1.0212
0.021091 -2.0195 1.025866
0.434349 -2.095948 1.0212
-0.043492 -2.054307 1.0612
-0.006152 -2.029124 1.0212
-0.439695 -2.111321 1.0612
0.5 -2.062073 1.023618
0.5 -2.059581 1.027227
-0.043297 -2.100306 1.0612
-0.030882 -2.0195 1.033445
-0.411742 -2.026664 1.0212
-0.491437 -2.1295 1.052702
-0.035065 -2.057711 1.0612
0.4 -2.046966 1.02721
0.00458 -2.056638 1.0212
0.49283 -2.06298 1.0612
0.015001 -2.046358 1.0612
0.5 -2.056481 1.029794
0.428914 -2.117341 1.0612
0.403952 -2.103339 1.0612
0.409797 -2.045918 1.0612
0.458518 -2.1295 1.03404
-0.033741 -2.051609 1.0612
-0.027229 -2.114145 1.0212
0.024741 -2.0195 1.032599
-0.008662 -2.117789 1.0612
0.475064 -2.022733 1.0212
-0.475534 -2.091902 1.0612
0.423709 -2.0195 1.038629
0.431168 -2.033928 1.0212
0.5 -2.102101 1.060142
0.026548 -2.08289 1.0212
0.44144 -2.0195 1.041431
0.5 -2.090376 1.039906
0.034684 -2.107972 1.0212
-0.481194 -2.084496 1.0212
0.06 -2.120381 1.05256
0.06 -2.074119 1.055921
-0.48027 -2.080944 1.0612
-0.442 -2.076962 1.0612
-0.032275 -2.028828 1.0612
0.5 -2.019641 1.026517
-0.4 -2.032871 1.030064
-0.4 -2.128459 1.055633
0.475521 -2.116716 1.0212
-0.475349 -2.0195 1.042845
-0.402447 -2.0195 1.023788
-0.431955 -2.124076 1.0212
0.4 -2.093914 1.035133
-0.5 -2.049944 1.024712
0.445664 -2.031911 1.0212
0.030043 -2.058028 1.0212
0.414398 -2.027362 1.0212
-0.026696 -2.127906 1.0612
-0.035809 -2.089984 1.0612
-0.5 -2.022099 1.044525
0.4 -2.033702 1.039462
0.465777 -2.098856 1.0612
0.008092 -2.022169 1.0212
0.420796 -2.02322 1.0612
-0.06 -2.123745 1.036109
0.451172 -2.048918 1.0612
-0.485521 -2.1295 1.044782
0.020048 -2.0195 1.03646
0.460488 -2.1295 1.040977
0.4 -2.03945 1.039753
-0.464623 -2.042724 1.0612
0.4 -2.098551 1.034018
0.048056 -2.035485 1.0212
-0.023464 -2.091459 1.0212
-0.03509 -2.1295 1.049742
-0.417099 -2.02503 1.0212
-0.494569 -2.051448 1.0212
0.406548 -2.054608 1.0612
-0.410582 -2.11047 1.0212
-0.059238 -2.11084 1.0212
-0.445264 -2.1295 1.026059
0.055467 -2.0195 1.041768
0.421852 -2.0195 1.036725
-0.4 -2.024706 1.049577
0.419689 -2.0195 1.04554
0.04641 -2.116797 1.0612
0.06 -2.092682 1.024764
-0.06 -2.044298 1.037997
0.056209 -2.067882 1.0612
0.484306 -2.0195 1.057879
0.4 -2.128324 1.057557
-0.5 -2.065764 1.043211
-0.485981 -2.070101 1.0212
-0.49396 -2.1295 1.041772
-0.464659 -2.040525 1.0612
0.031358 -2.026619 1.0212
-0.06 -2.032733 1.058752
0.007442 -2.104929 1.0612
0.018981 -2.087309 1.0212
0.03886 -2.069484 1.0212
0.052205 -2.0195 1.049356
0.006501 -2.026847 1.0212
0.479968 -2.0195 1.039622
0.442566 -2.0195 1.06049
-0.449486 -2.111968 1.0212
-0.5 -2.047562 1.043346
0.465342 -2.0195 1.027904
-0.011034 -2.0195 1.049045
0.411613 -2.0195 1.053612
-0.5 -2.101195 1.032373
-0.459944 -2.124511 1.0612
0.030149 -2.066945 1.0612
0.450602 -2.038499 1.0212
-0.456529 -2.090345 1.0212
0.462235 -2.063214 1.0212
0.019139 -2.104315 1.0212
-0.012357 -2.050941 1.0612
0.447508 -2.066331 1.0212
-0.049266 -2.123088 1.0212
-0.405094 -2.1295 1.021205
-0.410924 -2.0195 1.021479
0.443415 -2.106681 1.0612
0.499983 -2.071897 1.0212
-0.5 -2.066148 1.054054
-0.417544 -2.022555 1.0212
-0.494031 -2.081849 1.0212
0.049328 -2.034885 1.0612
-0.468874 -2.028344 1.0212
0.42096 -2.102293 1.0612
-0.5 -2.101861 1.03502
-0.421152 -2.098171 1.0612
0.493181 -2.040734 1.0212
-0.462101 -2.033575 1.0212
0.06 -2.083574 1.036596
-0.004984 -2.036817 1.0212
-0.405631 -2.094402 1.0612
-0.049322 -2.115558 1.0612
-0.020942 -2.055899 1.0212
-0.478048 -2.12189 1.0612
-0.433018 -2.1295 1.037643
0.427764 -2.126486 1.0612
0.06 -2.064541 1.045924
0.004516 -2.100011 1.0212
0.050299 -2.124249 1.0612
0.450023 -2.041386 1.0212
-0.401569 -2.0195 1.030345
0.034215 -2.0195 1.061197
0.476554 -2.103876 1.0212
0.5 -2.094167 1.053032
-0.453926 -2.073301 1.0212
-0.050771 -2.116696 1.0212
0.482198 -2.078459 1.0612
0.415819 -2.051986 1.0612
-0.433159 -2.0195 1.055603
-0.414388 -2.026685 1.0612
-0.5 -2.031637 1.053084
0.489919 -2.1295 1.060122
0.455584 -2.032671 1.0612
-0.021848 -2.110289 1.0212
-0.438461 -2.065259 1.0612
0.404243 -2.064105 1.0612
0.469043 -2.039364 1.0212
0.411602 -2.056899 1.0212
-0.41258 -2.0195 1.05794
0.042428 -2.126604 1.0212
0.009019 -2.123488 1.0212
0.06 -2.106554 1.035888
-0.057417 -2.058353 1.0612
0.439887 -2.045354 1.0612
0.462302 -2.064462 1.0612
0.486172 -2.077205 1.0612
0.490614 -2.054668 1.0612
0.059111 -2.068843 1.0612
0.055562 -2.0195 1.034503
0.464808 -2.0195 1.037213
