# .PCD v0.7 - Point Cloud Data file format
VERSION 0.7
FIELDS x y z
SIZE 4 4 4
TYPE F F F
COUNT 1 1 1
WIDTH 1716
HEIGHT 1
VIEWPOINT 0 0 0 1 0 0 0
POINTS 1716
DATA ascii
-400 -2066.668 1049.1609
-35.030422 -2118.0044 1021.2
-30.410982 -2031.4672 1061.2
464.83252 -2083.6138 1061.2
500 -2069.522 1037.2894
-447.87827 -2019.5 1057.2723
-443.85797 -2019.5 1037.4347
4.0399017 -2042.1792 1021.2001
-17.558437 -2114.7861 1021.2001
-400 -2080.7993 1058.7776
-400 -2118.2402 1057.9697
-500 -2070.5117 1034.8445
-400 -2102.4353 1042.1725
-437.92065 -2067.6978 1021.2
-400 -2028.307 1025.2281
24.130428 -2109.248 1021.2
493.36249 -2044.7239 1021.2
-461.41953 -2129.5 1023.3127
51.368271 -2059.1597 1061.2
-417.16351 -2097.6335 1061.2
-406.37115 -2127.0474 1061.2
498.52893 -2019.5 1052.5812
-471.4227 -2129.5 1033.222
498.49786 -2096.4448 1061.2
410.76193 -2054.9446 1021.2
-425.14371 -2118.4177 1061.2
441.1153 -2129.5 1054.7566
427.86447 -2107.7441 1021.2
-424.30823 -2064.1213 1021.2001
-468.59448 -2019.5 1042.2212
-424.12061 -2110.3584 1021.2001
406.71338 -2129.5 1034.6636
-490.72934 -2019.5 1052.2465
-492.07404 -2043.4486 1021.2
27.543831 -2104.6216 1021.2
-43.762238 -2019.5 1048.652
-497.13565 -2129.5 1055.3411
-19.682957 -2106.7742 1061.2
-421.52792 -2030.2227 1021.2
-408.15796 -2128.6255 1061.2
-60 -2100.2217 1032.3401
27.839973 -2105.5427 1021.2001
-45.588066 -2053.573 1061.2
-52.707306 -2022.8387 1061.2
-439.60938 -2104.4934 1061.2
7.3912964 -2019.5 1026.6801
14.065468 -2019.5 1059.7495
403.32208 -2019.5 1033.6777
9.3886795 -2035.8005 1021.2001
49.74889 -2025.4944 1021.2
-43.189064 -2101.8208 1061.2
-438.30896 -2032.402 1021.2001
56.035721 -2055.6313 1061.2
60 -2101.4614 1028.2839
-423.48276 -2087.6892 1021.2
-483.69193 -2122.9895 1061.2
400 -2048.7417 1039.9564
19.476665 -2019.8918 1021.2
-60 -2094.8389 1032.2668
-45.746033 -2117.0381 1021.2
-498.61514 -2026.0165 1061.2
401.65295 -2079.3794 1061.2
-434.17001 -2027.3391 1061.2
-60 -2090.9136 1023.9745
-40.976906 -2104.7842 1061.2
32.972206 -2082.1953 1061.2
410.78958 -2087.3555 1021.2
44.8694 -2035.3578 1021.2
46.680237 -2039.0023 1021.2
486.69424 -2110.3687 1021.2
-60 -2048.5591 1042.7638
-492.0119 -2126.0798 1021.2
-17.193432 -2047.1165 1061.2
-400 -2059.3911 1028.3134
-400.66385 -2129.5 1060.75
441.02679 -2077.6016 1061.2
500 -2070.3403 1036.4475
499.87936 -2129.5 1045.9467
-14.523274 -2043.4745 1021.2001
444.20667 -2040.6056 1061.2
-463.11929 -2116.4839 1061.2
47.041397 -2129.5 1045.5266
-486.39969 -2019.5 1045.021
-51.142147 -2124.9146 1061.2
-4.335556 -2075.0576 1061.2
50.621033 -2019.5 1058.9133
423.51904 -2042.1222 1021.2001
500 -2075.8354 1032.3209
-17.04347 -2019.5 1058.5768
-492.53601 -2121.6826 1021.2
22.583708 -2094.0774 1061.2
-6.453474 -2129.5 1044.6677
-400.14542 -2129.5 1023.0222
466.763 -2085.3528 1061.2
-60 -2047.7622 1050.6381
-408.70117 -2051.8667 1021.2
-400 -2022.6676 1029.8367
20.535786 -2077.8394 1021.2
500.00003 -2062.7727 1057.3918
411.98767 -2025.356 1021.2001
60 -2067.9729 1058.0558
-20.898317 -2076.9756 1061.2
400 -2026.6188 1044.7024
-482.99158 -2080.5684 1021.2001
29.781073 -2129.5 1059.2175
-445.98474 -2080.3218 1021.2001
9.7758942 -2019.5 1029.9692
403.89514 -2019.5 1053.24
478.33282 -2079.4014 1061.2
500 -2110.0225 1050.3718
494.46997 -2023.8353 1021.2
-1.3355875 -2038.2037 1061.2
44.947227 -2036.5471 1021.2
-500 -2118.8591 1045.0441
461.88568 -2093.3213 1061.2
-60 -2035.3445 1034.3793
38.465721 -2062.0513 1061.2
443.16513 -2086.4871 1021.2
-442.62622 -2074.8706 1061.2
462.09927 -2125.6284 1061.2
-3.5650311 -2085.8027 1021.2001
-412.58319 -2128.6152 1061.2
500 -2073.4526 1046.5551
-24.647627 -2113.166 1061.2
-60 -2063.2056 1057.9445
-500 -2120.1333 1042.8962
468.74069 -2086.7251 1061.2
461.50806 -2068.0984 1061.2
-400.91678 -2045.6016 1021.2001
-30.421379 -2129.5 1056.9762
-500 -2026.8721 1052.3428
12.087192 -2023.2064 1021.2001
-487.19305 -2129.5 1028.7565
-400 -2108.1865 1034.9253
472.62714 -2084.3386 1021.2001
468.97195 -2106.2246 1021.2
-57.992893 -2099.7427 1021.2
-482.18985 -2119.6348 1061.2
47.528896 -2022.6139 1021.2
400 -2077.627 1045.286
-7.0042934 -2019.5 1055.8661
435.69608 -2037.0422 1061.2
42.533104 -2129.5 1023.1838
480.02872 -2047.7942 1021.2
29.883041 -2019.5 1029.3306
-60 -2049.5105 1024.3882
-0.83744431 -2038.4468 1021.2
-470.03394 -2055.9043 1061.2
401.77307 -2054.6924 1061.2
26.042305 -2019.5 1029.1571
17.478018 -2071.3032 1061.2
-431.33966 -2123.9697 1021.2
-20.996679 -2085.1982 1021.2
-440.3573 -2029.439 1021.2
-458.56232 -2129.5 1046.5278
446.67926 -2129.5 1021.4473
500 -2046.3779 1046.6129
-60 -2097.4714 1036.4875
-60 -2052.7112 1023.244
-480.63986 -2037.5469 1021.2001
55.620773 -2019.5 1044.2692
490.97165 -2105.9346 1021.2
481.62097 -2099.7864 1061.2
-60 -2084.4382 1032.135
57.086281 -2027.9683 1061.2
500 -2054.2078 1035.42
472.37006 -2019.5 1039.3723
-467.45993 -2077.1804 1021.2001
-450.82474 -2088.9368 1061.2
446.44159 -2089.0352 1021.2001
484.18668 -2048.9204 1021.2001
476.94614 -2082.832 1061.2
60 -2087.0278 1047.3724
60 -2127.6653 1059.9036
-491.86865 -2053.2332 1021.2
-57.907166 -2129.5 1046.2277
-401.76657 -2072.031 1061.2
422.70166 -2019.5 1028.9298
-59.730537 -2019.5 1054.1482
-8.0542965 -2044.8157 1021.2
406.55969 -2019.5 1060.5532
491.41293 -2019.5 1041.2134
33.966312 -2118.5352 1021.2
54.322723 -2074.0347 1021.2
-3.2289791 -2129.5 1032.9504
-482.22095 -2116.0889 1021.2
50.802673 -2041.6859 1061.2
421.40262 -2105.9729 1021.2
-14.769741 -2088.2688 1061.2
43.386742 -2019.5 1038.3569
-474.32587 -2119.99 1021.2
60 -2120.446 1022.5041
-400 -2082.563 1041.3296
418.3089 -2024.5964 1061.2
27.659647 -2019.5 1025.4073
-499.99997 -2117.1956 1057.686
471.97418 -2096.2734 1021.2
-27.61541 -2031.7463 1021.2
-27.199366 -2019.552 1021.2
479.11389 -2066.7383 1021.2001
-28.641994 -2042.2617 1021.2
-21.409611 -2064.4849 1021.2
23.325455 -2122.4153 1021.2001
-60 -2055.1133 1042.2639
431.53766 -2085.655 1021.2
-500 -2114.5337 1021.8612
-461.51013 -2108.3821 1061.2
500 -2035.9484 1026.9609
21.337528 -2118.7307 1061.2
400 -2067.5266 1050.238
-400 -2093.8918 1057.5684
444.12604 -2061.5088 1061.2
-403.39948 -2019.5 1058.8074
405.0307 -2019.5 1037.1901
402.54553 -2129.5 1022.662
60 -2078.7241 1038.515
-60 -2038.0314 1025.4446
-419.52643 -2094.9429 1061.2
37.332462 -2099.8389 1021.2
435.63098 -2019.5 1036.3556
-497.05493 -2122.0649 1061.2
454.82501 -2048.113 1021.2001
406.43735 -2129.5 1061.0035
-51.220314 -2086.8547 1021.2001
400 -2118.3655 1036.2472
44.780342 -2029.321 1021.2
-500 -2036.7512 1041.2209
-60 -2093.6008 1041.5244
-495.69498 -2101.4724 1061.2
400 -2098.1533 1055.3287
500 -2089.0828 1038.6145
-448.80728 -2029.585 1021.2
-412.91037 -2089.0134 1061.2
500 -2124.7183 1048.767
42.055073 -2079.697 1061.2
51.799763 -2062.4578 1061.2
-60 -2076.9341 1048.3058
-485.96588 -2019.5 1034.6563
-468.98639 -2115.1516 1061.2
408.74579 -2019.5 1036.2716
-60 -2042.4207 1033.0465
-406.35571 -2099.8174 1061.2
-462.93954 -2110.0652 1061.2
-493.53592 -2065.9438 1021.2
44.967678 -2035.6349 1021.2001
-493.76102 -2126.6895 1061.2
-34.072914 -2120.3 1061.2
-417.72534 -2078.9976 1061.2
27.78109 -2120.157 1061.2
500.00003 -2126.7825 1022.0801
-15.649052 -2069.2102 1061.2
491.85339 -2034.0996 1061.2
-448.34781 -2083.114 1061.2
60 -2067.7534 1028.6538
-421.04031 -2114.0449 1061.2
-6.2795315 -2129.5 1023.8203
428.99823 -2111.3708 1021.2
-424.22232 -2109.4722 1021.2001
-444.84814 -2063.4314 1021.2
-51.071007 -2019.5 1042.1862
446.85968 -2066.3345 1061.2
500 -2070.7139 1055.9445
475.95425 -2061.2542 1061.2
-416.75287 -2107.0278 1021.2001
60 -2048.6174 1059.7546
-60 -2075.6396 1051.2129
-19.693016 -2129.5 1055.6119
53.580742 -2019.5 1038.1243
-400 -2101.3599 1059.4867
487.29318 -2042.8539 1021.2001
500 -2066.1943 1041.5948
402.89847 -2019.5 1056.704
-498.03976 -2129.5 1034.8479
-499.00961 -2129.5 1029.9954
-409.62439 -2031.3918 1061.2
-57.60675 -2019.5 1036.8292
46.972618 -2038.5828 1061.2
31.863281 -2103.583 1061.2
-417.11682 -2108.4651 1021.2001
6.1922512 -2030.9788 1061.2
-15.080515 -2111.1011 1021.2
484.53387 -2102.7795 1021.2001
-60 -2069.6545 1048.4727
-434.19388 -2019.5 1038.5319
437.13245 -2019.5 1023.9727
-25.722128 -2120.8406 1021.2
15.446642 -2128.4529 1061.2
-34.9268 -2061.3 1021.2001
-433.30637 -2019.5 1028.822
-479.13409 -2019.5 1021.9835
500 -2125.3569 1045.5831
-411.21957 -2102.1548 1061.2
53.395027 -2085.9419 1021.2001
435.54224 -2095.4224 1061.2
-435.33142 -2041.3188 1061.2
-487.33972 -2074.52 1061.2
60 -2062.9385 1036.6097
13.317055 -2019.5 1044.0857
469.06094 -2096.9224 1061.2
37.5 -2019.5 1059.4683
10.061562 -2061.2485 1021.2
436.03741 -2083.9814 1021.2
60 -2022.2777 1025.0254
-499.38617 -2129.5 1024.1243
485.99432 -2019.5 1047.0149
-453.3681 -2046.03 1021.2
441.21765 -2053.3035 1061.2
-18.755577 -2019.5 1021.4171
478.3006 -2129.5 1038.6981
-500 -2111.7219 1038.4669
32.776978 -2129.5 1022.7997
-473.39185 -2037.0262 1061.2
-500 -2058.1563 1041.3855
427.56204 -2119.0559 1061.2
-32.618908 -2020.2595 1061.2
29.350094 -2124.7041 1021.2
60 -2126.2649 1031.6273
-11.809074 -2019.5 1025.7976
-406.12561 -2067.4365 1021.2
-410.55276 -2129.5 1032.9198
60 -2022.7246 1046.5027
-447.78763 -2030.7859 1021.2
5.0573268 -2028.5499 1061.2
-449.80087 -2046.7498 1021.2001
500 -2052.0083 1043.6816
-500 -2048.1924 1034.4552
12.682785 -2123.4915 1061.2
-55.995117 -2053.7944 1021.2
60 -2114.0176 1045.4771
60 -2072.1982 1037.4248
53.136208 -2118.5725 1021.2
400 -2022.2742 1048.1085
400 -2074.8179 1030.8906
-400 -2110.3608 1022.7307
-500 -2078.3508 1043.84
-440.94394 -2100.571 1021.2001
500 -2119.5942 1027.269
-491.32184 -2129.5 1032.0269
-479.09818 -2129.5 1059.8143
416.28488 -2102.5132 1061.2
46.508415 -2019.5 1027.2217
462.30383 -2032.2823 1021.2
54.267365 -2019.5 1030.8129
-60 -2031.1044 1038.8013
479.00674 -2019.5 1036.8334
-39.289009 -2108.0051 1061.2
-57.777195 -2128.5964 1061.2
400 -2080.8625 1037.2556
-14.052933 -2019.5 1059.9342
467.75739 -2019.5 1048.0778
499.21106 -2129.5 1034.2699
-500 -2120.5889 1033.9337
400 -2027.0757 1030.9497
21.67448 -2070.7212 1021.2001
-498.67523 -2099.22 1021.2
-436.5271 -2050.0137 1061.2
459.22009 -2028.6213 1061.2
500 -2050.2368 1047.8151
5.3962979 -2123.2676 1021.2
475.38312 -2075.3198 1021.2
-417.3941 -2019.5 1032.7397
400 -2031.3542 1028.764
-400 -2063.25 1028.0461
-432.02451 -2036.9325 1061.2
497.80463 -2127.8257 1061.2
442.53271 -2126.2234 1061.2
60 -2033.3574 1029.524
-21.397583 -2092.5269 1021.2
-412.31879 -2033.2443 1061.2
400 -2126.1768 1055.5344
-446.06366 -2122.9165 1061.2
23.581848 -2027.6089 1061.2
35.151688 -2054.5173 1061.2
467.20575 -2103.6924 1021.2
16.029106 -2120.8169 1021.2
466.17538 -2019.5 1026.7968
60 -2038.0886 1033.2888
477.70111 -2026.7175 1061.2
-30.404846 -2049.5503 1021.2001
-10.531351 -2060.5676 1021.2001
468.44257 -2054.7542 1061.2
-413.97406 -2083.6138 1061.2
-500 -2032.646 1021.2034
-442.82709 -2085.1763 1061.2
400 -2083.8298 1031.3351
24.374121 -2116.4915 1021.2
410.93866 -2090.6851 1021.2001
60 -2034.8887 1031.105
-452.42569 -2031.2791 1061.2
-500 -2123.4932 1052.4019
-17.222916 -2019.5 1030.6423
482.90277 -2112.3047 1061.2
-3.4624939 -2095.3491 1021.2
454.66437 -2036.4412 1061.2
-429.03537 -2040.4271 1021.2001
-400 -2049.2368 1025.3578
400 -2106.7532 1051.1738
500 -2106.7891 1058.0188
60 -2073.5151 1036.7742
400 -2028.5225 1056.108
60 -2089.075 1054.98
-477.09009 -2083.957 1021.2
477.40491 -2019.5 1058.9917
-444.87723 -2091.9402 1021.2
-400 -2082.4888 1033.7196
24.205772 -2119.043 1021.2
-11.953854 -2036.0826 1061.2
13.725934 -2120.1846 1021.2
-469.97791 -2117.1138 1021.2
444.92133 -2070.8291 1061.2
-400 -2060.6909 1025.5891
-457.72018 -2045.3076 1021.2001
-435.84161 -2042.7776 1061.2
496.50253 -2129.5 1029.2728
415.6369 -2021.6493 1061.2
-28.042854 -2095.2324 1061.2
-442.85428 -2105.0823 1021.2001
6.8359299 -2019.5 1043.0374
-412.52753 -2114.9539 1061.2
482.72955 -2019.5 1049.0269
-34.6875 -2129.5 1029.1045
-451.11984 -2129.5 1030.8689
-468.13855 -2077.7698 1061.2
-484.21841 -2094.2185 1021.2
-22.285507 -2065.6348 1061.2
483.95258 -2019.5 1048.233
-10.94525 -2113.2861 1061.2
-417.68463 -2019.5 1041.1938
474.8786 -2105.1167 1061.2
-473.28748 -2071.9114 1061.2
46.885628 -2060.0498 1061.2
-422.54953 -2063.864 1021.2
51.981689 -2085.4678 1021.2
-403.20282 -2051.6541 1061.2
-436.65787 -2129.5 1023.8389
430.04007 -2129.5 1028.9641
-487.27826 -2019.5 1039.7957
16.785339 -2103.8918 1061.2
407.52496 -2019.5 1039.0673
35.396584 -2081.2136 1021.2001
45.818115 -2121.7385 1061.2
-414.0918 -2068.3545 1061.2
465.43729 -2122.4082 1021.2
58.386986 -2019.5 1025.4879
12.766578 -2041.3984 1021.2001
473.49112 -2046.772 1061.2
14.175345 -2048.8171 1061.2
-400 -2079.6191 1027.7019
24.56374 -2109.9551 1061.2
-450.45099 -2129.5 1050.7118
401.64258 -2081.2375 1061.2
-491.0235 -2053.4585 1021.2
28.453508 -2019.5 1050.5355
481.47629 -2026.653 1061.2
32.232719 -2065.8511 1061.2
492.3793 -2019.5 1042.8932
-56.24136 -2106.3457 1061.2
472.59491 -2064.9668 1061.2
-14.384096 -2019.4999 1059.0844
418.53619 -2045.2024 1061.2
-13.997121 -2047.5005 1061.2
-450.21722 -2076.7727 1061.2
-497.37863 -2124.4846 1061.2
-39.691517 -2040.1602 1021.2
-52.783028 -2103.8335 1021.2
-418.79144 -2056.1621 1021.2001
-56.564083 -2038.416 1061.2
60 -2071.5415 1034.3062
-455.0712 -2019.5 1024.5189
463.96954 -2019.5 1057.4019
-421.81448 -2019.5 1048.8326
489.40341 -2105.9023 1061.2
432.53625 -2108.1843 1061.2
34.316418 -2038.7393 1061.2
-484.64355 -2030.2673 1021.2
413.474 -2069.843 1021.2
48.541687 -2129.5 1029.5947
456.38818 -2019.5 1043.3342
-18.110859 -2052.6377 1021.2
-410.84427 -2112.5886 1021.2001
-458.27332 -2063.9419 1021.2
-27.970783 -2056.8606 1061.2
-498.97415 -2093.248 1021.2001
493.79291 -2025.2461 1021.2
-464.84442 -2048.9866 1061.2
405.91943 -2051.0283 1021.2001
467.33722 -2129.5 1044.9579
400.46063 -2048.5042 1021.2
434.79047 -2056.6558 1021.2001
465.22342 -2129.5 1060.2579
-56.734428 -2029.2416 1061.2
16.892241 -2072.3184 1021.2001
-17.407644 -2019.5 1033.5446
417.18085 -2111.9297 1061.2
-440.41092 -2047.5231 1021.2
427.65997 -2019.5 1054.4764
-60 -2109.9121 1049.52
60 -2096.3555 1028.3481
468.8476 -2125.4561 1061.2
-401.27811 -2054.6401 1021.2001
-7.7138824 -2019.5 1057.9114
-6.1406422 -2019.5 1056.5155
60 -2087.4775 1060.7964
451.38797 -2110.78 1021.2001
60 -2040.3153 1033.1527
463.9718 -2116.2322 1021.2
-417.60675 -2046.3025 1061.2
414.28549 -2126.3513 1061.2
485.40497 -2019.5 1030.6013
-400 -2120.0505 1048.9023
-39.603935 -2103.7932 1061.2
-427.58987 -2066.6304 1061.2
55.177521 -2071.5686 1021.2001
-60 -2046.8167 1053.798
-42.561493 -2019.5 1056.3494
-424.29889 -2087.2954 1021.2001
-449.07159 -2048.2993 1021.2
33.176369 -2129.5 1042.2534
-60 -2100.6643 1023.3834
400 -2024.8925 1039.5464
41.533394 -2019.5 1025.8176
400 -2091.4929 1041.043
38.362389 -2126.5759 1061.2
-400 -2057.4636 1035.6581
-400.64905 -2089.5457 1021.2
-493.9256 -2019.5 1021.3708
60 -2090.9333 1033.3612
500 -2080.9858 1043.0985
-6.9462776 -2129.5 1034.553
-19.131332 -2129.5 1037.5011
60 -2021.9698 1056.6908
-479.2645 -2082.302 1061.2
-411.83502 -2097.3796 1061.2
449.14758 -2078.9617 1021.2
-32.22113 -2019.5 1046.5574
31.680363 -2019.5001 1030.1809
-400 -2083.0103 1033.2975
-440.10153 -2023.248 1061.2
-44.054028 -2105.8633 1021.2001
36.760136 -2020.9871 1061.2
-444.57684 -2072.7568 1021.2
-500 -2065.1077 1030.7328
-36.097183 -2019.5 1021.7816
446.90234 -2050.6057 1061.2
36.439545 -2129.5 1042.8092
427.50159 -2065.239 1021.2
20.339685 -2069.4956 1021.2
-48.648109 -2116.8406 1021.2001
493.24152 -2062.1116 1061.2
-488.1767 -2038.3799 1021.2
20.595438 -2100.8574 1061.2
-423.72794 -2029.2104 1061.2
22.228373 -2101.9709 1061.2
-429.27713 -2102.2546 1021.2001
60 -2058.4619 1061.088
-32.433933 -2049.4834 1021.2
41.533394 -2019.5 1025.344
-500 -2101.5332 1046.1563
-19.291103 -2092.0906 1061.2
-474.13351 -2129.5 1035.1882
460.64383 -2129.5 1031.5773
-500 -2106.3286 1056.7631
-486.7157 -2109.6504 1021.2
-405.17834 -2062.7668 1061.2
-430.85248 -2023.1594 1021.2
-447.54608 -2058.6707 1061.2
400 -2111.0205 1028.0789
485.22919 -2091.9031 1061.2
452.18604 -2070.4873 1021.2
-500 -2058.8455 1054.3213
-500 -2039.8877 1035.3064
400 -2052.6167 1021.4752
-443.76147 -2129.5 1048.7249
477.90594 -2031.9354 1021.2
408.78232 -2052.6472 1021.2001
400 -2024.396 1032.5223
500 -2033.2942 1048.4597
44.25053 -2117.7905 1021.2
-31.355616 -2084.603 1061.2
-9.3257484 -2048.272 1061.2
-478.51971 -2056.4131 1061.2
500 -2111.2097 1047.2377
42.418861 -2057.228 1061.2
-441.78687 -2062.5459 1061.2
488.16699 -2114.5903 1061.2
-50.312042 -2034.8965 1021.2
-451.55304 -2019.5 1051.9866
-474.05359 -2019.5001 1059.3108
32.731804 -2019.5 1029.1486
490.81079 -2025.6827 1021.2
454.76273 -2084.2332 1061.2
-34.448181 -2129.5 1045.8612
414.71124 -2129.5 1060.3514
468.65115 -2113.2744 1061.2
33.698425 -2019.5 1042.5372
440.28998 -2068.9216 1021.2
481.37979 -2021.4919 1061.2
482.95117 -2112.0654 1061.2
-37.380135 -2065.229 1061.2
440.05295 -2129.3708 1061.2
408.34204 -2129.5 1049.3086
439.1001 -2019.5 1027.061
-14.290588 -2019.5 1036.9288
-418.75751 -2019.5 1051.9481
449.06754 -2026.9945 1021.2
470.51495 -2048.2288 1061.2
22.389397 -2019.6865 1021.2001
-60 -2068.05 1041.2385
-473.00626 -2097.8022 1061.2
500 -2068.3145 1056.8857
-478.7742 -2039.5403 1061.2
449.75854 -2061.7808 1061.2
-400 -2090.7993 1034.2654
60 -2127.9551 1052.201
-434.1546 -2080.2974 1061.2
40.852776 -2113.2212 1061.2
-400 -2088.5872 1023.2794
492.9126 -2046.7639 1021.2
60 -2097.2556 1052.1086
1.7654781 -2019.5 1027.4941
486.83554 -2047.8005 1061.2
25.684269 -2055.2969 1061.2
-38.008141 -2034.875 1021.2
14.828178 -2072.3242 1061.2
476.84897 -2129.5 1031.8896
-6.9297123 -2019.5 1055.1179
481.79654 -2019.5 1051.5415
479.73376 -2121.679 1061.2
-495.39996 -2038.6965 1021.2
20.939026 -2112.7314 1061.2
7.9023933 -2047.9385 1021.2
30.519695 -2128.407 1061.2
441.97229 -2095.0762 1061.2
39.590565 -2026.7122 1021.2
-400 -2037.7981 1035.2089
416.23849 -2019.5 1043.6812
-60 -2057.8987 1024.465
494.02438 -2112.9451 1021.2
-419.49741 -2101.0496 1061.2
-400 -2040.2822 1023.8336
407.74969 -2103.1335 1061.2
500 -2111.7659 1060.8989
487.14377 -2024.5699 1021.2
-462.4848 -2046.1782 1021.2001
60 -2045.7567 1053.7466
448.4227 -2019.5 1022.7444
-400 -2122.9949 1054.3893
-442.11731 -2129.5 1041.5052
-459.16949 -2093.2212 1021.2
1.2428694 -2101.0503 1021.2
-400 -2039.0634 1022.1664
-46.761471 -2026.1871 1061.2
-60 -2027.0667 1049.9906
-497.8269 -2077.3855 1021.2
-500 -2099.7515 1031.8281
-427.13684 -2025.1982 1061.2
60 -2103.7905 1029.1865
400 -2100.2371 1060.855
-485.09891 -2019.5 1022.5224
-465.89417 -2019.5 1022.6036
-434.78311 -2122.417 1061.2
436.97485 -2019.5 1022.7841
-13.155043 -2019.5 1027.0536
470.90463 -2129.5 1048.1501
474.46335 -2044.2008 1061.2
-54.770294 -2025.6755 1021.2
18.967588 -2106.1157 1061.2
-42.249565 -2025.6169 1061.2
3.9574108 -2129.5 1050.8242
460.4487 -2019.9103 1021.2
33.342796 -2106.8376 1021.2
-482.64673 -2044.7164 1061.2
-484.06042 -2054.3281 1021.2
-15.064423 -2019.5 1045.6129
-48.094368 -2084.8296 1061.2
-400 -2028.3745 1036.7606
400 -2028.5847 1055.3833
420.84174 -2035.3955 1021.2
-29.097031 -2019.5 1022.1653
25.237766 -2053.1221 1061.2
447.20425 -2075.4915 1061.2
-51.659744 -2090.0295 1021.2001
33.064205 -2019.5 1025.5852
35.348145 -2050.8096 1061.2
-400 -2106.3225 1057.3682
-466.99432 -2045.6901 1021.2
60 -2039.452 1030.7932
8.1527729 -2129.5 1045.9575
18.937605 -2129.4043 1061.2
-495.98715 -2026.4055 1021.2
-459.75641 -2129.5 1024.9844
476.88953 -2102.3174 1061.2
-1.5385008 -2043.1681 1061.2
400 -2054.7815 1027.1324
446.71851 -2129.5 1037.9187
15.278154 -2085.5374 1061.2
458.66452 -2057.6304 1061.2
5.1938477 -2069.0835 1061.2
482.16934 -2036.7532 1021.2
445.1843 -2046.9194 1061.2
-60 -2057.9985 1049.6255
-466.43768 -2056.2664 1021.2001
410.29211 -2040.8344 1021.2001
477.76669 -2115.0608 1061.2
-500 -2056.3015 1042.162
-3.90061 -2073.3225 1061.2
60 -2030.6532 1022.7412
400 -2046.819 1054.1578
417.02185 -2019.5 1027.1711
32.702084 -2125.6335 1061.2
-500 -2069.8865 1044.251
473.20303 -2129.5 1056.0425
500 -2108.7178 1036.7263
420.64832 -2019.5 1025.7469
466.03693 -2092.562 1061.2
500 -2078.2559 1048.1392
442.91019 -2035.832 1061.2
455.77325 -2129.5 1042.8931
-500 -2059.4492 1033.033
60 -2021.183 1050.7975
-428.52365 -2019.5001 1027.2515
-418.66656 -2044.3031 1021.2
-461.04187 -2099.7009 1061.2
-433.41476 -2019.5 1057.0887
-22.409525 -2073.9988 1021.2001
-434.9469 -2104.6865 1021.2001
60 -2037.4205 1042.7524
39.238583 -2037.3442 1061.2
496.38391 -2129.5 1033.9304
12.710415 -2025.7556 1021.2
-407.60019 -2104.5708 1061.2
-478.77289 -2037.0883 1061.2
499.30194 -2071.1194 1061.2
30.175611 -2019.5 1060.0103
402.26785 -2057.4148 1061.2
59.934898 -2082.9429 1061.2
-489.08643 -2047.478 1021.2
498.4743 -2089.3293 1061.2
-34.918739 -2043.1831 1021.2
400 -2033.5228 1040.4595
-403.55988 -2096.5903 1061.2
4.9010868 -2119.76 1061.2
-451.086 -2019.4999 1045.5698
-60 -2027.7484 1050.6547
436.0213 -2098.5298 1061.2
54.891571 -2031.7653 1061.2
500 -2080.6062 1025.6232
-403.08112 -2113.9717 1061.2
-408.1955 -2085.5713 1021.2
33.740623 -2129.5 1047.1716
437.38361 -2125.4126 1021.2
-467.3212 -2075.5198 1021.2
477.41101 -2114.4521 1061.2
45.947559 -2023.605 1061.2
-427.54205 -2021.3313 1021.2
437.95963 -2023.005 1021.2
429.4039 -2091.1069 1061.2
-60 -2046.0851 1023.7859
421.06796 -2054.7861 1021.2001
41.713642 -2108.5818 1061.2
51.869324 -2129.5 1054.2974
409.29828 -2084.0649 1061.2
-9.980072 -2075.2007 1061.2
401.83258 -2129.5 1047.8888
-34.754768 -2019.5 1037.8059
-500 -2074.9512 1026.6736
-36.893787 -2047.0537 1061.2
489.36993 -2123.676 1021.2
-500 -2107.3896 1046.1687
-51.603859 -2129.5 1038.5293
-478.15182 -2129.5 1053.4579
406.89392 -2091.6436 1021.2001
15.919786 -2030.0221 1061.2
33.03656 -2030.8027 1061.2
-28.117256 -2100.769 1061.2
443.59418 -2119.0317 1021.2
467.08344 -2052.7988 1021.2
60 -2074.6475 1046.6052
-483.88245 -2129.5 1043.3
7.8274708 -2019.5 1028.8143
413.68024 -2019.5806 1061.2
400 -2050.282 1031.9296
44.051682 -2053.6541 1021.2001
-500.00003 -2062.0239 1035.5481
13.579264 -2078.8625 1061.2
-413.33936 -2019.5 1028.6293
-477.52249 -2129.5 1056.1693
-474.52036 -2019.5 1031.9623
497.01617 -2040.7511 1021.2001
478.00775 -2103.4976 1061.2
-500 -2065.3459 1031.592
413.17636 -2077.2227 1021.2
-462.08795 -2031.7368 1021.2
482.55511 -2073.0652 1061.2
448.51114 -2095.0908 1021.2
-400 -2107.4211 1036.275
-23.670877 -2101.603 1061.2
-496.44592 -2118.8071 1061.2
500 -2100.1829 1037.2239
436.5452 -2041.8269 1061.2
24.940517 -2080.054 1021.2001
-488.5726 -2059.4863 1061.2
13.579602 -2067.7295 1061.2
58.613205 -2129.5 1052.0659
-460.51395 -2023.5387 1061.2
-60 -2107.0825 1026.9878
463.45941 -2129.5 1037.6125
-28.428259 -2054.6978 1061.2
497.87576 -2023.4849 1021.2
-34.367691 -2102.1812 1061.2
60 -2121.5759 1029.9152
-12.730726 -2023.8651 1061.2
437.70297 -2019.5 1030.0046
51.362148 -2112.9646 1021.2
457.51465 -2112.3145 1061.2
401.12265 -2126.1716 1021.2
51.633537 -2052.8589 1061.2
-2.9906702 -2109.855 1061.2
400 -2053.0872 1023.9478
57.95002 -2019.5 1029.5443
2.1968155 -2078.772 1021.2
60 -2046.072 1028.4927
483.88788 -2048.4678 1061.2
500 -2096.5303 1040.8687
49.184265 -2033.1691 1021.2
-438.49985 -2019.4999 1027.8115
1.190506 -2086.9841 1061.2
-39.609093 -2019.5 1025.7222
500 -2053.8579 1027.5686
57.397316 -2129.5 1058.9292
35.408768 -2129.5 1043.4109
491.97247 -2077.4744 1021.2
-406.52277 -2129.5 1022.3324
51.725773 -2048.7278 1061.2
-473.88907 -2019.5 1032.1318
-405.47665 -2065.9438 1061.2
-4.9382458 -2033.8928 1021.2001
-441.04944 -2051.4363 1061.2
-486.97321 -2110.3511 1021.2
406.513 -2129.5 1023.1246
-29.697109 -2071.7009 1021.2
443.13885 -2019.5 1059.4807
478.32831 -2090.8901 1061.2
-498.60373 -2121.4385 1021.2
480.38855 -2101.8499 1021.2001
500 -2022.0626 1049.3732
493.64578 -2019.5 1029.3135
418.26862 -2075.2568 1061.2
-54.938858 -2084.6343 1061.2
446.48636 -2033.9064 1061.2
21.279911 -2040.4934 1061.2
-435.13385 -2129.5 1049.3345
480.4726 -2108.8047 1061.2
-500 -2121.0581 1058.8075
17.765495 -2068.8213 1061.2
-18.116713 -2069.3696 1061.2
60 -2040.7532 1028.2377
-60 -2059.1965 1036.9287
400 -2065.8464 1024.4475
427.02982 -2113.3706 1061.2
-484.78683 -2106.8442 1021.2
439.96985 -2117.6609 1061.2
445.12009 -2094.4407 1021.2
-51.556595 -2129.5 1031.0265
-500 -2035.041 1050.9492
44.567261 -2104.4629 1021.2001
432.58951 -2030.571 1021.2001
414.34387 -2120.4336 1021.2
-54.934593 -2019.5 1021.3743
-400 -2120.5073 1022.5504
-500 -2038.7719 1039.4352
-424.70297 -2129.5 1021.6388
444.64966 -2019.5 1030.2126
-442.13449 -2095.4587 1061.2
-500 -2054.8184 1060.9049
-0.75711679 -2122.7288 1021.2001
490.98962 -2019.5 1046.5352
45.155651 -2044.7633 1061.2
400 -2035.7769 1051.5439
457.96713 -2049.0142 1021.2001
-400 -2086.7319 1041.5105
46.899048 -2021.9373 1021.2
14.290188 -2110.271 1021.2
-408.75934 -2129.5 1035.1842
-45.208401 -2123.9275 1021.2
14.538502 -2019.5 1034.9951
452.46881 -2129.5 1054.9395
453.54791 -2124.0457 1061.2
476.33896 -2019.5 1030.8032
-442.24249 -2063.5713 1061.2
-471.45096 -2105.8147 1061.2
495.74176 -2037.4854 1021.2
14.08102 -2070.937 1021.2001
-437.68079 -2027.7937 1021.2001
-8.5099945 -2129.5 1028.7216
60 -2104.0427 1032.4453
-500 -2107.4612 1034.6237
60 -2112.9094 1060.1156
431.89758 -2129.5 1026.5967
-410.69727 -2129.5 1057.2162
406.33496 -2080.9319 1061.2
-400 -2060.9287 1054.5869
422.47318 -2041.7953 1021.2
-35.569839 -2019.5 1046.993
-500 -2122.0576 1050.4586
400 -2111.8896 1036.1279
400 -2122.6824 1049.5764
419.59576 -2019.5 1025.4784
-500 -2116.896 1047.6101
-406.95743 -2019.5 1043.449
-415.02814 -2057.8105 1061.2
60 -2105.4419 1058.2625
-58.842003 -2123.9539 1061.2
-32.14875 -2087.2593 1021.2
-415.55334 -2125.8804 1061.2
14.959366 -2096.1965 1061.2
-400.00003 -2103.583 1024.2576
-433.89581 -2067.4482 1021.2001
432.58383 -2019.5 1052.7712
400 -2072.1467 1044.6869
-6.7810383 -2095.6118 1021.2
-60 -2077.6875 1046.4822
-26.941435 -2127.3984 1061.2
-471.48544 -2019.5 1048.0149
425.15698 -2072.9058 1061.2
400 -2046.7234 1027.2091
420.84454 -2128.03 1021.2001
-36.557671 -2118.4663 1061.2
-60 -2088.051 1042.6777
422.87524 -2076.0977 1021.2
-23.734093 -2126.9253 1021.2
477.14331 -2079.6082 1061.2
-497.7178 -2091.6436 1021.2001
500 -2067.8403 1025.491
-419.38004 -2069.9951 1021.2
428.76984 -2034.9434 1021.2001
0.28885651 -2049.9417 1061.2
478.43411 -2019.5 1022.4502
-495.09476 -2124.834 1021.2
-46.854721 -2045.8621 1061.2
455.07672 -2019.5 1052.0342
-466.66132 -2059.7236 1021.2
-464.8443 -2064.8926 1061.2
17.069115 -2129.5 1026.9656
-498.74509 -2047.2672 1061.2
-467.56635 -2019.4999 1059.6741
-415.59247 -2019.5 1044.335
-60 -2122.6982 1032.6259
18.485918 -2056.3672 1021.2
28.051495 -2034.0127 1061.2
-425.10712 -2032.6743 1021.2
-439.45892 -2019.5 1031.7988
-495.77426 -2117.1384 1061.2
-480.78998 -2090.7566 1021.2001
-400 -2034.8129 1059.6055
487.3988 -2129.5 1033.45
-56.067764 -2043.6614 1021.2
-43.935738 -2019.5 1055.5967
-399.99997 -2042.7826 1061.1176
400 -2110.7605 1055.1952
-400 -2097.5496 1038.0308
-20.124159 -2062.6233 1021.2
452.55951 -2057.7795 1021.2
-400 -2040.901 1052.5634
-47.178848 -2129.5 1052.9432
442.12158 -2129.5 1038.3645
43.978004 -2129.5 1048.7292
-414.76138 -2078.5354 1061.2
433.85965 -2105.2375 1021.2001
434.09814 -2103.332 1061.2
421.35684 -2107.5178 1061.2
57.47525 -2049.8396 1061.2
-448.76178 -2048.511 1021.2001
-4.4258347 -2073.5313 1061.2
409.28668 -2067.5596 1061.2
-39.827408 -2129.5 1025.7289
417.16547 -2033.0049 1061.2
-489.01672 -2098.1904 1061.2
443.89539 -2120.2212 1021.2
0.50326157 -2019.5 1053.6088
500 -2039.995 1048.7849
-37.405781 -2120.8242 1061.2
499.99997 -2053.043 1059.8781
500 -2101.4905 1032.8629
-60 -2034.8556 1034.1906
479.60287 -2054.2437 1021.2
54.612007 -2057.7783 1021.2
-50.062855 -2112.3555 1021.2
-472.44647 -2059.9133 1061.2
400 -2039.96 1049.5275
-52.411648 -2107.6414 1061.2
18.381325 -2124.676 1061.2
-51.521255 -2070.7505 1021.2
23.305126 -2075.4189 1021.2001
467.22473 -2019.5 1030.0244
400 -2058.3923 1049.7406
469.72214 -2019.5 1022.7982
-11.797464 -2090.9368 1021.2001
-401.43213 -2106.9917 1021.2
-60 -2060.7185 1025.3186
-432.2475 -2075.2402 1061.2
-492.35931 -2079.293 1061.2
-8.784668 -2040.874 1021.2
413.45471 -2056.7368 1061.2
497.7189 -2126.0037 1021.2
-400 -2029.4944 1026.527
-424.52277 -2114.5144 1021.2
13.541262 -2111.5754 1021.2
-60 -2112.2051 1033.6831
-468.06686 -2021.963 1061.2
27.574718 -2039.4418 1021.2001
-401.99731 -2070.4502 1021.2001
498.60501 -2044.4197 1061.2
-48.872169 -2123.5945 1021.2
-500 -2022.1177 1041.975
-428.05151 -2106.7043 1061.2
-500 -2084.3445 1038.4465
59.58007 -2096.6521 1061.2
464.93872 -2059.5095 1021.2001
-31.691525 -2081.8608 1021.2001
-53.319283 -2129.5 1055.2161
60 -2126.4758 1060.718
35.887833 -2019.5 1028.7098
453.48853 -2019.5 1041.7334
-471.63272 -2118.8386 1061.2
60 -2022.6346 1031.3372
30.606359 -2090.8472 1061.2
-9.0382156 -2093.0833 1021.2
406.88666 -2036.3621 1061.2
-13.252308 -2080.5195 1021.2
-468.1561 -2072.9604 1021.2001
400 -2034.1559 1052.6042
-49.808998 -2066.0574 1021.2001
-428.93793 -2019.5 1024.6082
472.76248 -2019.5 1022.7208
-47.328289 -2101.179 1061.2
-500 -2079.3459 1043.0813
-48.966934 -2019.5 1059.9661
433.57874 -2090.3584 1021.2001
44.276649 -2119.6458 1021.2
12.54373 -2063.6499 1061.2
55.850502 -2019.5 1060.7687
500 -2053.6809 1055.9779
-55.078236 -2112.616 1021.2
-451.47751 -2090.3032 1061.2
-500 -2112.937 1049.7074
-451.81311 -2129.5 1042.3059
-470.70819 -2110.7153 1061.2
16.110914 -2129.5 1027.778
39.276676 -2022.9237 1021.2
31.655617 -2093.2261 1021.2
47.677902 -2019.5 1043.7532
448.8172 -2019.5 1042.8458
-13.04538 -2129.5 1021.8901
23.913498 -2100.7915 1021.2001
465.07892 -2019.5 1026.4995
-451.14117 -2021.8704 1061.2
473.67667 -2062.2461 1061.2
400 -2058.75 1030.7037
411.59174 -2066.4895 1021.2
-57.755188 -2123.7168 1061.2
40.009766 -2019.5 1044.2987
500 -2051.511 1060.8369
400 -2056.6531 1039.6373
57.399254 -2047.269 1061.2
-400 -2114.46 1052.209
-31.178804 -2129.5 1035.0319
-440.47577 -2078.5789 1061.2
34.586727 -2064.1282 1061.2
47.712967 -2106.5208 1061.2
400 -2040.5059 1029.6227
-478.86615 -2129.5 1060.5602
-401.63849 -2019.5 1029.5591
-440.82925 -2120.4226 1061.2
-0.66426659 -2048.9041 1061.2
56.040108 -2104.7039 1021.2
-17.992664 -2101.4768 1061.2
-20.416777 -2047.2084 1061.2
51.382385 -2112.4312 1061.2
471.69757 -2068.998 1021.2
472.57449 -2053.4053 1061.2
-9.5204229 -2059.8374 1021.2001
-59.96154 -2019.5 1031.6726
485.95065 -2097.4429 1061.2
-400 -2118.8127 1027.8516
500 -2075.1245 1027.6162
400 -2097.0488 1027.7877
500 -2047.5276 1034.3501
-465.73187 -2085.041 1061.2
400 -2059.7 1053.6399
442.66937 -2080.1758 1061.2
60 -2080.4065 1050.5769
-454.74884 -2019.5 1039.5139
415.24454 -2084.2903 1061.2
6.6566353 -2102.1521 1021.2001
486.59903 -2129.5 1023.9749
459.26926 -2061.1162 1061.2
500 -2128.7117 1034.554
-451.26895 -2084.7305 1021.2
408.81842 -2060.5615 1061.2
500 -2040.5183 1021.8212
-25.585083 -2104.3435 1061.2
494.18362 -2038.5847 1061.2
-54.516624 -2029.2528 1021.2
-466.22629 -2046.267 1021.2
-9.1468735 -2129.0762 1061.2
-441.94962 -2126.2666 1061.2
-428.41193 -2050.2717 1061.2
-463.70871 -2129.5 1055.7902
33.334755 -2129.5 1052.6602
-9.6404514 -2129.5 1033.396
500 -2031.1851 1042.9224
60 -2125.6665 1029.2623
407.94104 -2089.0547 1021.2001
-56.093304 -2075.4482 1021.2
500 -2025.6791 1047.2773
51.688019 -2100.6143 1021.2001
423.48535 -2019.5 1036.6757
500 -2073.2095 1022.3819
49.590912 -2122.4529 1061.2
462.2431 -2057.0342 1021.2
500 -2117.3198 1049.4154
-462.21259 -2129.5 1036.84
4.1725464 -2129.5 1036.8723
-401.4957 -2095.2705 1061.2
-435.2381 -2129.5 1061.1577
-454.6572 -2019.5 1051.3027
-8.7338467 -2088.1292 1061.2
58.86116 -2046.7573 1021.2001
435.40619 -2129.5 1049.8322
425.34915 -2091.1543 1021.2001
412.29904 -2034.5083 1061.2
482.07773 -2129.5 1022.6849
455.2446 -2035.4249 1061.2
463.65448 -2104.4783 1061.2
-498.07416 -2078.0796 1061.2
411.60583 -2020.0706 1061.2
464.31534 -2104.5129 1021.2
-460.06873 -2031.454 1021.2
-403.99643 -2031.0936 1021.2
428.20364 -2129.4497 1061.2
431.45355 -2076.032 1021.2001
-10.969438 -2034.1211 1021.2
-1.0239754 -2019.5 1035.2996
-494.74728 -2019.5 1055.0184
3.169744 -2037.0582 1061.2
422.18924 -2064.2495 1061.2
425.96204 -2114.3218 1061.2
400 -2106.6089 1039.9805
497.39966 -2129.5 1022.0156
-421.05121 -2075.5132 1061.2
-471.2355 -2099.5811 1061.2
448.22549 -2089.1677 1061.2
-60 -2069.3103 1026.2826
-483.82779 -2129.5 1030.8706
-490.86377 -2019.5 1022.4157
-436.49945 -2129.5 1034.7563
-60 -2123.6353 1051.2091
-56.074032 -2100.3818 1061.2
-4.1577244 -2129.5 1036.0461
400 -2043.5325 1034.7225
-456.96542 -2047.3184 1061.2
-500 -2061.031 1027.7242
-474.26147 -2080.2412 1021.2001
-20.402355 -2075.0046 1061.2
-500 -2023.509 1050.8492
-433.41226 -2118.5894 1061.2
-425.91861 -2064.2695 1061.2
490.34845 -2019.5 1057.9994
44.742142 -2032.5658 1061.2
22.655605 -2055.5579 1021.2
60 -2021.4731 1024.5135
-476.52637 -2104.5693 1021.2
-426.39886 -2102.7131 1021.2
-473.07602 -2129.5 1025.4272
-459.20264 -2098.8259 1021.2
-21.660452 -2069.7749 1021.2
31.83433 -2019.5 1059.8949
447.92389 -2069.9856 1021.2
-451.70117 -2119.0039 1061.2
400 -2047.9725 1039.9188
-493.91818 -2098.2419 1061.2
29.637381 -2121.8323 1061.2
18.48452 -2129.5 1052.3123
60 -2073.8823 1045.1644
-50.086086 -2070.9048 1061.2
-419.54492 -2037.766 1021.2
-481.77313 -2088.1829 1021.2
-496.94257 -2129.5 1026.5632
-60 -2037.6694 1049.0822
-463.39777 -2019.5 1059.0699
-52.856407 -2074.6917 1021.2001
-408.19232 -2019.5 1046.28
-489.51605 -2119.8962 1061.2
483.45459 -2068.8936 1021.2
-483.04617 -2019.5 1054.165
-415.97348 -2098.9702 1021.2
-481.46353 -2129.5 1050.7979
480.20358 -2116.2798 1021.2
-453.62244 -2019.5 1052.6377
-434.34247 -2019.5 1043.8558
47.050713 -2047.4578 1061.2
-400 -2057.7332 1026.8943
12.489507 -2125.1523 1061.2
23.448799 -2056.7815 1021.2001
-500 -2124.7515 1030.4611
454.05725 -2059.9438 1061.2
-482.32092 -2019.5 1036.2664
-451.55148 -2029.781 1061.2
410.50388 -2086.7336 1021.2
7.0506601 -2109.9163 1061.2
-500 -2022.3345 1036.2329
-26.967257 -2019.5 1051.0405
-435.6293 -2027.4042 1021.2001
458.09317 -2044.4241 1061.2
-487.82941 -2129.5 1035.7903
454.17136 -2035.3112 1061.2
-500 -2068.2488 1053.8025
-42.761497 -2106.7307 1021.2
-407.18698 -2129.5 1034.113
413.63391 -2129.5 1030.4415
-8.638443 -2094.2139 1061.2
-500 -2045.6503 1036.4355
428.45569 -2108.6577 1021.2
458.90381 -2084.3301 1021.2
419.26682 -2046.2603 1021.2
-28.690269 -2105.8918 1061.2
461.66296 -2019.5 1035.3311
500 -2026.214 1031.6659
-450.92984 -2092.1973 1061.2
-500 -2127.4414 1044.6157
400 -2069.9768 1036.7953
-499.69742 -2019.5 1056.0685
461.24106 -2122.0288 1021.2
-470.55069 -2129.5 1057.5333
24.965836 -2019.5 1023.1041
463.30295 -2019.5 1055.9924
-479.39807 -2049.3843 1021.2001
-413.39191 -2039.927 1061.2
60 -2128.5137 1037.3859
500 -2021.7813 1026.7765
488.03873 -2038.3496 1061.2
-60 -2025.2637 1026.0918
-60 -2042.5608 1032.6084
-450.30728 -2019.5 1037.6499
-60 -2020.2325 1036.4138
55.909279 -2129.5 1056.5114
-402.65329 -2069.6145 1061.2
500 -2058.3843 1022.0508
-493.03439 -2019.5 1033.8571
-442.41602 -2093.9885 1021.2
400 -2075.2673 1053.0878
36.763062 -2090.5481 1021.2001
31.591633 -2040.3442 1021.2
-465.21875 -2051.0564 1061.2
500 -2032.8805 1051.0858
425.1561 -2052.1062 1021.2
-56.863369 -2116.4668 1021.2
-474.40656 -2129.5 1041.7057
-41.800735 -2123.2498 1061.2
407.4649 -2035.4506 1061.2
497.83069 -2035.5192 1061.2
-492.90161 -2025.8713 1021.2
408.8378 -2019.5 1053.0177
466.78888 -2129.5 1038.75
42.883263 -2101.2786 1021.2001
-3.4406333 -2124.5952 1021.2
-60 -2068.3726 1041.9036
35.820004 -2045.1345 1061.2
-406.20981 -2096.9287 1061.2
419.77289 -2035.3975 1061.2
471.47211 -2028.6506 1021.2
500 -2021.2921 1032.024
-2.6684456 -2061.4871 1061.2
-499.1759 -2049.5659 1061.2
16.332371 -2020.0417 1021.2
410.78467 -2089.8586 1061.2
-476.80762 -2070.7285 1021.2001
400 -2088.6382 1023.5586
430.02472 -2026.9404 1061.2
404.64783 -2106.8459 1061.2
-56.19223 -2065.731 1061.2
-477.90082 -2081.2825 1061.2
-34.325287 -2034.7463 1021.2001
55.525497 -2040.6292 1021.2001
-39.701859 -2063.1594 1061.2
417.33154 -2046.1274 1021.2
-60 -2098.9709 1057.6704
5.9414034 -2092.2988 1021.2001
38.100937 -2079.8035 1021.2001
19.992979 -2129.5 1036.009
-449.02307 -2025.6772 1021.2
-473.7872 -2129.5 1059.3275
499.7717 -2043.4934 1021.2
500 -2096.7534 1030.5953
60 -2113.2034 1049.8613
-442.19019 -2098.0425 1021.2
440.59161 -2129.5 1037.7188
-500 -2029.4446 1029.0789
-499.99997 -2055.2649 1033.6422
39.03619 -2052.7224 1021.2
-455.84741 -2039.8547 1021.2
-60 -2032.3679 1051.4589
60 -2118.8665 1059.2361
-60 -2025.6827 1038.9772
-500 -2083.1257 1040.4434
28.928944 -2027.9609 1021.2
-500 -2028.2577 1054.1791
435.16205 -2062.5374 1061.2
-18.293106 -2047.103 1021.2001
-45.681664 -2100.3887 1061.2
-34.098591 -2084.5291 1061.2
-23.47699 -2019.5 1021.8412
500 -2092.572 1042.7511
471.9429 -2019.5 1060.2479
-19.737116 -2019.5 1046.77
28.376814 -2063.4248 1021.2
451.01193 -2075.2605 1061.2
-24.133739 -2094.748 1061.2
405.12482 -2070.4863 1061.2
479.58185 -2055.9197 1021.2001
430.59174 -2129.5 1055.8486
39.728832 -2087.0151 1061.2
481.31491 -2032.3223 1021.2
53.881504 -2031.4823 1061.2
405.33163 -2019.5 1056.3378
428.68793 -2088.5962 1021.2
3.374867 -2037.4767 1061.2
-500 -2110.8003 1051.5845
-404.05405 -2019.5 1038.1235
-60 -2075.7942 1051.3154
454.01727 -2107.8174 1061.2
-400 -2105.0435 1035.7672
-449.96118 -2034.6841 1061.2
496.63269 -2031.2988 1021.2001
400 -2106.6768 1021.7273
473.16583 -2101.2332 1021.2001
-462.63403 -2100.7915 1021.2001
16.611593 -2019.5 1049.4063
424.38385 -2040.589 1061.2
-53.63324 -2062.1143 1021.2
-487.23495 -2036.3292 1061.2
47.514156 -2127.1467 1021.2
39.50518 -2091.3037 1061.2
-492.79837 -2026.7571 1061.2
-444.6109 -2129.5 1026.2426
469.97037 -2051.7041 1021.2001
29.21166 -2028.7715 1021.2
478.77466 -2019.5 1031.575
28.878078 -2104.7083 1021.2
412.19775 -2124.4072 1061.2
-458.05679 -2129.5 1060.8499
452.6167 -2129.5 1046.572
-448.92676 -2098.3215 1021.2001
489.16693 -2019.5 1040.0935
60 -2120.5706 1054.062
31.45314 -2069.709 1021.2
-60 -2081.7214 1047.4875
60 -2041.5178 1052.0092
484.5737 -2129.5 1035.7939
-400 -2076.4688 1050.3204
-409.84558 -2118.6843 1021.2
-400 -2064.7268 1034.6373
43.956871 -2019.5 1051.0986
-474.0177 -2093.8281 1021.2001
-481.28113 -2078.6624 1021.2001
-492.34482 -2039.9125 1021.2
23.020344 -2062.4517 1021.2
-12.810931 -2101.5938 1061.2
411.92499 -2125.3496 1021.2
9.2185688 -2093.2913 1021.2001
-479.63901 -2049.9695 1021.2
60 -2074.7927 1040.4451
31.179708 -2070.437 1061.2
-60 -2076.1047 1038.0654
-422.21219 -2036.0116 1061.2
452.38489 -2095.0371 1021.2001
424.07794 -2086.2529 1021.2
494.59924 -2072.2415 1021.2001
-56.88179 -2051.7751 1061.2
-468.19067 -2100.1187 1061.2
-2.699852 -2081.8003 1021.2
-435.73853 -2040.7532 1021.2001
463.48395 -2065.918 1061.2
34.137672 -2071.4492 1061.2
-450.91919 -2075.3396 1061.2
-450.47864 -2129.5 1045.0823
400 -2112.334 1059.4213
401.82327 -2019.5 1040.0179
-450.59869 -2019.5 1053.5498
-47.98251 -2071.9746 1061.2
-400 -2123.2656 1048.7095
454.47803 -2067.8701 1021.2001
-429.7244 -2019.5 1036.7158
-11.033175 -2026.0354 1061.2
-488.65744 -2024.8837 1021.2
-446.71127 -2028.0847 1061.2
453.70874 -2086.5588 1061.2
400 -2024.9352 1022.3147
57.963226 -2090.8877 1021.2
16.139633 -2070.0725 1061.2
481.74661 -2078.6567 1021.2001
-60 -2071.0125 1027.5681
-21.905697 -2071.7561 1061.2
-443.95587 -2077.6484 1061.2
-460.63345 -2087.1318 1021.2
-55.94384 -2056.353 1061.2
-469.05576 -2120.9626 1061.2
-500 -2114.0059 1038.4615
-445.88257 -2049.3843 1061.2
500 -2069.24 1049.2717
488.61462 -2129.1401 1021.2
438.64081 -2068.5085 1021.2
500 -2124.0933 1060.8053
9.7925739 -2095.3103 1061.2
441.17834 -2061.7346 1021.2001
-432.97961 -2100.9822 1021.2001
-434.04382 -2095.9312 1021.2001
29.845905 -2065.4578 1061.2
-400 -2124.9636 1055.5425
400 -2062.679 1027.4919
426.23764 -2031.8711 1021.2001
36.043453 -2102.364 1021.2001
-413.43536 -2129.5 1049.4211
-400 -2039.235 1036.4448
9.2481918 -2129.5 1033.3662
-60 -2092.0898 1052.4614
424.39319 -2075.145 1021.2
404.14343 -2061.8601 1021.2
462.49292 -2024.0486 1021.2001
466.91803 -2082.4519 1021.2
421.10922 -2129.5 1032.397
403.85071 -2019.5 1023.3843
-457.82324 -2063.748 1021.2001
-57.866795 -2096.2373 1061.2
443.43146 -2129.5 1031.0293
-409.75333 -2109.2363 1061.2
-33.292419 -2036.0946 1061.2
427.97092 -2082.6501 1021.2
5.1725235 -2063.6582 1021.2
456.49069 -2124.4441 1021.2001
38.12608 -2112.4734 1061.2
-500 -2093.5337 1029.0804
-496.07336 -2129.5 1054.7123
-18.690342 -2105.4719 1061.2
431.97809 -2073.9456 1021.2
29.325783 -2068.2007 1021.2
500 -2061.2297 1037.2524
-43.229355 -2053.1255 1061.2
492.91458 -2019.5 1024.835
500 -2116.6094 1026.255
21.57209 -2116.8657 1061.2
-17.112816 -2062.6274 1061.2
-400 -2126.7861 1027.2637
-459.70816 -2019.5 1039.9995
-453.88559 -2127.8069 1061.2
414.52588 -2128.1353 1021.2
-33.458923 -2019.5 1052.3235
46.934723 -2119.9734 1061.2
30.051254 -2019.5 1037.6786
400 -2098.0166 1043.2776
-485.94501 -2127.4961 1061.2
60 -2127.7471 1025.8976
53.698185 -2054.3921 1021.2001
436.45886 -2129.5 1046.6921
-423.31927 -2129.5 1026.3755
-500 -2101.4229 1036.9851
-466.53137 -2052.1587 1021.2
-438.60822 -2111.3989 1021.2
-418.76782 -2062.3914 1021.2001
404.25406 -2066.7969 1061.2
435.29663 -2074.8613 1061.2
-491.64026 -2019.5 1060.3743
487.64661 -2056.897 1061.2
-60 -2048.9888 1058.8135
-447.4187 -2068.6116 1061.2
465.97665 -2059.2334 1061.2
-482.76276 -2019.5 1041.2986
-39.477242 -2040.1726 1021.2
495.73462 -2032.7449 1061.2
60 -2034.0881 1044.6379
60 -2020.6016 1038.619
450.41681 -2129.5 1049.9917
400 -2099.4265 1025.9578
-14.917236 -2042.9694 1061.2
400 -2076.9209 1026.3448
-480.59119 -2066.9868 1021.2
405.57858 -2019.5 1027.0459
400 -2106.7847 1043.2817
18.56806 -2097.0393 1021.2001
400 -2062.9053 1051.4827
33.935421 -2068.1194 1061.2
441.21646 -2019.5 1022.8525
-408.07294 -2113.689 1061.2
489.99756 -2078.3342 1021.2
-459.71838 -2019.5 1021.9742
60 -2054.8975 1042.302
60.000004 -2112.0776 1021.2834
53.797531 -2073.7366 1061.2
400 -2026.1997 1026.196
9.3355656 -2050.873 1061.2
-21.429012 -2124.5513 1021.2
411.9465 -2027.0973 1061.2
481.44684 -2037.4244 1021.2
49.266014 -2019.5 1053.0715
-492.38962 -2066.3374 1021.2
463.03107 -2100.6484 1021.2
-470.76514 -2105.5427 1061.2
-497.00879 -2019.5 1059.9099
-54.55352 -2019.5 1041.4237
-43.367615 -2129.5 1031.4486
468.75989 -2058.2195 1021.2
437.77106 -2087.4346 1021.2
48.92765 -2067.2651 1061.2
-455.83734 -2120.1826 1021.2
20.981339 -2036.1716 1061.2
22.469332 -2096.2327 1061.2
-500 -2037.762 1049.7603
-60 -2077.1697 1053.5959
406.43097 -2120.3242 1021.2
-45.628593 -2119.5647 1061.2
414.71683 -2052.9827 1061.2
407.379 -2046.4868 1021.2
457.24225 -2044.6434 1021.2
429.07306 -2072.4697 1021.2001
-500 -2030.4885 1024.7777
-498.23004 -2109.7385 1061.2
406.35925 -2043.4316 1061.2
60 -2105.0305 1033.4086
458.81488 -2044.3741 1061.2
497.91061 -2129.5 1036.7388
400 -2114.5396 1038.3955
32.990883 -2129.5 1052.8146
419.48767 -2129.5 1047.9447
-56.832619 -2124.8325 1021.2001
485.36328 -2019.5 1024.1819
-60 -2021.8171 1045.9471
60 -2126.0554 1025.2279
-43.453323 -2094.4863 1021.2
-485.24295 -2087.0361 1061.2
401.34824 -2035.321 1021.2
31.142357 -2019.5 1028.6971
11.157425 -2019.5 1047.8688
-24.852825 -2084.0181 1021.2
-32.572796 -2038.9755 1061.2
14.665748 -2071.6309 1061.2
-442.34412 -2066.9063 1021.2
-13.616468 -2045.5447 1021.2
457.35861 -2020.8511 1021.2001
17.819641 -2102.6021 1061.2
-468.6055 -2027.645 1021.2
482.87732 -2070.49 1021.2001
-60 -2048.5681 1061.0203
-4.2286968 -2060.9221 1021.2
11.121206 -2029.1812 1021.2
500 -2083.2573 1026.3209
400 -2126.3237 1021.3268
-4.23176 -2073.5449 1021.2
474.33789 -2019.5 1035.0402
-400 -2128.7285 1051.0483
500 -2089.7917 1032.6033
43.800083 -2119.4595 1021.2
17.453869 -2101.5107 1021.2
-25.532936 -2088.3889 1021.2
-26.897676 -2083.3091 1021.2001
-60 -2058.7175 1056.7202
428.86584 -2088.7905 1061.2
452.29865 -2111.0627 1061.2
435.41125 -2115.2461 1061.2
415.76437 -2129.5 1028.1577
60 -2063.4036 1025.1799
-477.77527 -2129.5 1054.4816
-476.70587 -2019.5 1049.5433
9.8762741 -2108.4983 1021.2
484.39001 -2091.4236 1021.2001
-60 -2030.7355 1040.1201
-3.223505 -2099.4841 1021.2
-463.01624 -2086.9587 1021.2001
16.366631 -2055.5786 1021.2
400.21844 -2019.5 1046.9188
16.301006 -2103.6704 1061.2
-33.490135 -2040.4996 1021.2001
-49.598038 -2040.9844 1061.2
30.656784 -2019.5 1045.0696
-10.24192 -2049.8188 1061.2
-446.51147 -2019.5 1054.3022
426.98425 -2129.5 1021.7238
439.33157 -2053.6873 1021.2001
-39.001057 -2067.915 1021.2001
45.83326 -2097.2935 1021.2001
461.63464 -2129.5 1024.8271
-25.440975 -2060.9775 1061.2
-19.9939 -2129.5 1034.4613
-400 -2021.8104 1054.651
-455.60764 -2053.5972 1061.2
467.41687 -2115.9722 1021.2001
400 -2038.0015 1021.8467
-430.16928 -2039.5094 1061.2
-465.21475 -2123.2266 1021.2
47.293289 -2064.5562 1061.2
500 -2086.5342 1046.7639
-57.055332 -2019.6344 1061.2
-55.601936 -2119.2234 1021.2
444.79871 -2129.5 1039.8601
60 -2104.1953 1054.5907
-500 -2041.6417 1039.4285
429.0069 -2022.8423 1061.2
-403.62366 -2050.0532 1021.2
-60 -2039.7827 1054.4984
400.38843 -2061.2925 1061.2
409.97855 -2082.5457 1061.2
500 -2096.8962 1034.7616
54.648579 -2053.832 1021.2001
-26.21339 -2056.0056 1061.2
478.86176 -2129.5 1049.718
-35.657909 -2078.3467 1061.2
-14.187232 -2067.9932 1021.2
32.354454 -2019.5 1044.5111
-11.505365 -2034.6353 1061.2
-500 -2102.1699 1023.1733
500 -2105.147 1043.7687
60 -2122.3096 1024.2974
-48.918526 -2107.5576 1061.2
-41.768024 -2041.3984 1021.2001
456.10638 -2089.2683 1021.2
-60.000004 -2062.9263 1035.7649
-417.64572 -2019.5 1052.5865
-496.39761 -2129.4463 1021.2
60 -2111.0283 1026.1309
-400 -2071.3096 1024.3286
-427.44971 -2084.3843 1021.2001
447.91364 -2032.4591 1021.2
33.915527 -2035.8361 1021.2
33.369247 -2047.0872 1021.2
-410.91983 -2075.689 1021.2001
22.611391 -2105.9216 1061.2
-418.08932 -2129.5 1034.6647
11.024521 -2129.5 1044.812
29.184074 -2025.6523 1021.2
-420.68561 -2067.1702 1021.2
418.57117 -2119.8723 1021.2
-417.93964 -2062.3037 1061.2
485.04337 -2041.7112 1021.2
24.576199 -2076.9658 1021.2001
-493.96088 -2046.1938 1021.2001
-25.387159 -2129.5 1043.3519
457.32156 -2052.2495 1021.2
-485.39066 -2019.5 1040.0459
-35.627483 -2071.2446 1061.2
-59.761028 -2035.4158 1061.2
-49.103004 -2019.5 1035.041
-42.521179 -2065.8345 1061.2
8.8280792 -2129.5 1043.4993
-453.16049 -2129.5 1022.7379
-500 -2027.9191 1024.9075
400 -2115.771 1036.5116
-9.4254627 -2107.5156 1021.2
-430.49066 -2019.5 1035.9714
-490.11292 -2040.672 1021.2
-478.19528 -2120.8862 1061.2
493.75165 -2019.5 1053.2427
432.00229 -2098.665 1061.2
431.9754 -2039.2493 1061.2
-12.991962 -2125.4683 1021.2
-498.75677 -2129.5 1032.2048
-29.190403 -2049.0706 1061.2
-493.02618 -2019.5 1026.2806
416.97772 -2019.5 1029.0421
60 -2117.7681 1036.2742
-25.370445 -2048.625 1061.2
60 -2067.8853 1022.4328
479.02469 -2097.1392 1021.2
29.642845 -2019.5 1032.6877
-60 -2121.1716 1039.75
60 -2064.978 1024.251
-9.4271126 -2129.5 1033.4425
-440.21777 -2019.5 1052.5676
-48.563957 -2129.5 1045.5245
-486.21008 -2046.616 1021.2001
414.9126 -2057.8877 1021.2
-23.700325 -2084.3899 1061.2
472.50543 -2081.3213 1061.2
60 -2028.988 1033.1594
40.417587 -2129.5 1054.6306
1.7707539 -2076.7146 1021.2
-456.32748 -2129.5 1030.0815
-435.93549 -2102.1365 1061.2
50.421055 -2022.0677 1021.2
-0.88172531 -2129.5 1032.7152
-13.913788 -2024.4626 1061.2
-54.175446 -2058.2935 1021.2001
-48.837246 -2129.3406 1021.2
-475.35376 -2102.1543 1061.2
-424.26202 -2102.094 1061.2
500 -2031.3411 1047.5664
415.80505 -2123.8672 1021.2
-408.78998 -2129.5 1041.6204
422.56366 -2054.0571 1061.2
431.81616 -2019.5 1060.2648
431.57239 -2076.0215 1021.2
-450.13544 -2045.9836 1021.2001
452.89777 -2085.8335 1061.2
-2.5671539 -2019.5 1023.1375
442.70416 -2099.1765 1021.2
-408.35019 -2086.9282 1061.2
400 -2098.2395 1038.6864
-500 -2099.2183 1027.9093
6.8089199 -2036.5642 1021.2001
427.15332 -2019.5 1051.8335
-442.94879 -2057.5146 1021.2
-481.31488 -2117.4312 1021.2
500 -2044.2434 1060.1222
-496.98483 -2102.6531 1061.2
-455.85693 -2129.5 1029.4232
44.120544 -2118.7048 1021.2
-27.511372 -2083.2173 1021.2
