# .PCD v0.7 - Point Cloud Data file format
VERSION 0.7
FIELDS x y z
SIZE 4 4 4
TYPE F F F
COUNT 1 1 1
WIDTH 2489
HEIGHT 1
VIEWPOINT 0 0 0 1 0 0 0
POINTS 2489
DATA ascii
-0.085 -0.827 3.44
-0.065 -0.825 3.433
-0.045 -0.823 3.425
-0.025 -0.83 3.451
-0.005 -0.828 3.445
0.014 -0.829 3.447
0.034 -0.831 3.456
0.054 -0.83 3.453
0.074 -0.831 3.455
0.094 -0.831 3.454
0.114 -0.828 3.445
0.134 -0.829 3.445
0.154 -0.831 3.455
0.174 -0.831 3.454
0.194 -0.83 3.45
0.214 -0.828 3.44
0.234 -0.83 3.446
0.256 -0.835 3.466
0.275 -0.832 3.453
0.296 -0.834 3.46
0.315 -0.831 3.444
0.336 -0.835 3.461
0.355 -0.832 3.447
0.375 -0.832 3.445
0.398 -0.837 3.465
0.414 -0.83 3.43
0.437 -0.834 3.445
0.459 -0.838 3.461
0.479 -0.838 3.456
0.498 -0.836 3.446
0.518 -0.835 3.439
0.541 -0.84 3.459
0.563 -0.842 3.464
0.581 -0.839 3.45
0.603 -0.842 3.456
0.625 -0.844 3.462
0.645 -0.844 3.458
0.669 -0.848 3.471
0.686 -0.844 3.452
0.705 -0.842 3.442
0.729 -0.846 3.452
0.752 -0.85 3.464
0.772 -0.848 3.455
0.795 -0.852 3.464
0.816 -0.852 3.462
0.836 -0.851 3.453
0.859 -0.854 3.461
0.884 -0.858 3.472
0.905 -0.858 3.467
0.918 -0.851 3.436
0.942 -0.854 3.443
0.966 -0.857 3.45
0.991 -0.861 3.46
1.015 -0.863 3.464
1.038 -0.866 3.467
1.058 -0.865 3.457
1.085 -0.87 3.473
1.106 -0.87 3.467
1.133 -0.874 3.478
1.155 -0.875 3.476
1.175 -0.874 3.465
1.198 -0.876 3.465
1.222 -0.878 3.466
1.249 -0.882 3.476
1.272 -0.883 3.474
1.291 -0.881 3.459
1.32 -0.887 3.474
1.34 -0.886 3.464
1.365 -0.888 3.464
1.389 -0.89 3.464
1.416 -0.893 3.47
1.445 -0.898 3.48
1.468 -0.899 3.475
1.493 -0.9 3.473
1.508 -0.896 3.45
1.544 -0.905 3.475
1.57 -0.907 3.475
1.592 -0.907 3.466
1.617 -0.909 3.465
1.644 -0.912 3.467
1.667 -0.912 3.459
1.692 -0.914 3.457
1.734 -0.925 3.487
1.758 -0.926 3.481
1.785 -0.928 3.48
1.805 -0.927 3.465
1.838 -0.933 3.476
1.87 -0.937 3.484
1.887 -0.934 3.463
1.933 -0.946 3.495
1.945 -0.941 3.464
1.982 -0.947 3.478
2.019 -0.954 3.492
-1.944 -0.9 3.376
-1.909 -0.895 3.366
-1.888 -0.895 3.377
-1.865 -0.894 3.387
-1.827 -0.887 3.367
-1.796 -0.882 3.361
-1.777 -0.884 3.377
-1.744 -0.878 3.365
-1.722 -0.878 3.373
-1.69 -0.873 3.362
-1.677 -0.877 3.39
-1.637 -0.867 3.36
-1.629 -0.875 3.398
-1.604 -0.873 3.399
-1.578 -0.87 3.398
-1.553 -0.868 3.4
-1.517 -0.86 3.377
-1.5 -0.863 3.395
-1.478 -0.862 3.4
-1.443 -0.854 3.378
-1.414 -0.85 3.367
-1.407 -0.858 3.408
-1.38 -0.855 3.403
-1.351 -0.849 3.389
-1.335 -0.853 3.41
-1.313 -0.852 3.414
-1.28 -0.844 3.39
-1.263 -0.847 3.409
-1.235 -0.842 3.394
-1.216 -0.843 3.406
-1.186 -0.837 3.386
-1.166 -0.837 3.396
-1.143 -0.836 3.396
-1.117 -0.832 3.387
-1.104 -0.837 3.414
-1.076 -0.832 3.399
-1.06 -0.836 3.419
-1.032 -0.83 3.402
-1.016 -0.833 3.421
-0.99 -0.829 3.407
-0.969 -0.828 3.411
-0.945 -0.825 3.403
-0.923 -0.824 3.404
-0.905 -0.827 3.42
-0.885 -0.827 3.425
-0.861 -0.824 3.416
-0.839 -0.822 3.414
-0.82 -0.823 3.424
-0.798 -0.822 3.422
-0.78 -0.823 3.433
-0.752 -0.816 3.407
-0.734 -0.817 3.417
-0.712 -0.815 3.412
-0.692 -0.816 3.419
-0.67 -0.814 3.414
-0.651 -0.815 3.423
-0.631 -0.815 3.426
-0.609 -0.813 3.42
-0.59 -0.814 3.429
-0.569 -0.813 3.427
-0.55 -0.815 3.436
-0.528 -0.813 3.431
-0.507 -0.812 3.43
-0.488 -0.813 3.438
-0.466 -0.809 3.423
-0.446 -0.809 3.424
-0.425 -0.808 3.426
-0.405 -0.808 3.425
-0.388 -0.813 3.45
-0.367 -0.812 3.448
-0.347 -0.812 3.449
-0.325 -0.808 3.435
-0.304 -0.806 3.427
-0.286 -0.809 3.444
-0.265 -0.808 3.439
-0.246 -0.81 3.451
-0.224 -0.802 3.415
-0.205 -0.808 3.443
-0.184 -0.803 3.424
-0.165 -0.805 3.431
-0.145 -0.804 3.428
-0.125 -0.806 3.439
-0.105 -0.809 3.453
-0.086 -0.81 3.458
-0.065 -0.806 3.44
-0.045 -0.805 3.434
-0.025 -0.808 3.448
-0.005 -0.806 3.439
0.014 -0.805 3.435
0.034 -0.806 3.439
0.054 -0.806 3.439
0.073 -0.801 3.418
0.093 -0.806 3.44
0.114 -0.808 3.449
0.133 -0.806 3.437
0.154 -0.808 3.447
0.173 -0.807 3.44
0.194 -0.811 3.458
0.214 -0.81 3.451
0.234 -0.811 3.454
0.255 -0.811 3.455
0.275 -0.812 3.457
0.295 -0.811 3.451
0.313 -0.808 3.435
0.335 -0.813 3.455
0.357 -0.816 3.467
0.375 -0.812 3.449
0.396 -0.813 3.449
0.416 -0.812 3.447
0.437 -0.815 3.455
0.458 -0.816 3.459
0.479 -0.817 3.46
0.499 -0.817 3.457
0.52 -0.819 3.461
0.539 -0.817 3.451
0.562 -0.821 3.466
0.584 -0.823 3.469
0.604 -0.822 3.465
0.626 -0.824 3.469
0.645 -0.822 3.459
0.666 -0.824 3.462
0.689 -0.826 3.468
0.711 -0.829 3.477
0.729 -0.826 3.461
0.757 -0.835 3.492
0.775 -0.831 3.472
0.797 -0.833 3.478
0.816 -0.831 3.464
0.838 -0.832 3.466
0.86 -0.834 3.467
0.882 -0.835 3.468
0.905 -0.837 3.471
0.926 -0.837 3.468
0.948 -0.839 3.47
0.968 -0.838 3.462
0.994 -0.842 3.473
1.014 -0.842 3.467
1.034 -0.841 3.457
1.056 -0.842 3.457
1.082 -0.846 3.466
1.106 -0.849 3.471
1.131 -0.852 3.478
1.15 -0.85 3.466
1.178 -0.855 3.478
1.203 -0.858 3.485
1.222 -0.856 3.471
1.249 -0.86 3.481
1.271 -0.861 3.476
1.292 -0.861 3.469
1.312 -0.86 3.457
1.339 -0.864 3.465
1.371 -0.87 3.484
1.391 -0.869 3.473
1.418 -0.873 3.479
1.441 -0.873 3.474
1.462 -0.873 3.466
1.493 -0.879 3.478
1.516 -0.879 3.473
1.541 -0.881 3.473
1.568 -0.884 3.476
1.586 -0.882 3.459
1.617 -0.887 3.469
1.646 -0.891 3.475
1.674 -0.894 3.48
1.703 -0.898 3.483
1.721 -0.896 3.466
1.75 -0.899 3.47
1.775 -0.901 3.466
1.793 -0.899 3.448
1.843 -0.912 3.489
1.873 -0.916 3.495
1.888 -0.912 3.469
1.925 -0.919 3.485
1.944 -0.917 3.468
1.998 -0.932 3.512
2.027 -0.935 3.511
-1.931 -0.872 3.359
-1.918 -0.876 3.387
-1.879 -0.868 3.366
-1.853 -0.866 3.369
-1.83 -0.866 3.377
-1.792 -0.859 3.359
-1.774 -0.86 3.376
-1.762 -0.865 3.404
-1.721 -0.856 3.376
-1.692 -0.852 3.371
-1.678 -0.856 3.396
-1.648 -0.851 3.387
-1.614 -0.845 3.371
-1.596 -0.847 3.387
-1.584 -0.852 3.417
-1.551 -0.846 3.4
-1.525 -0.843 3.399
-1.491 -0.836 3.38
-1.47 -0.837 3.388
-1.453 -0.839 3.405
-1.427 -0.836 3.402
-1.409 -0.838 3.418
-1.383 -0.835 3.414
-1.352 -0.829 3.398
-1.34 -0.835 3.428
-1.306 -0.827 3.401
-1.279 -0.823 3.393
-1.261 -0.824 3.406
-1.234 -0.821 3.398
-1.215 -0.822 3.409
-1.191 -0.819 3.406
-1.171 -0.82 3.415
-1.144 -0.816 3.403
-1.125 -0.817 3.416
-1.101 -0.815 3.411
-1.079 -0.813 3.412
-1.058 -0.813 3.418
-1.035 -0.811 3.415
-1.014 -0.811 3.421
-0.991 -0.809 3.415
-0.968 -0.807 3.415
-0.947 -0.807 3.418
-0.921 -0.802 3.402
-0.905 -0.806 3.422
-0.884 -0.805 3.425
-0.856 -0.798 3.399
-0.843 -0.805 3.433
-0.821 -0.803 3.43
-0.795 -0.798 3.412
-0.776 -0.799 3.421
-0.755 -0.798 3.422
-0.734 -0.797 3.421
-0.71 -0.793 3.409
-0.694 -0.798 3.433
-0.672 -0.796 3.427
-0.65 -0.794 3.424
-0.631 -0.795 3.431
-0.61 -0.794 3.428
-0.585 -0.787 3.404
-0.57 -0.795 3.44
-0.548 -0.793 3.433
-0.525 -0.788 3.416
-0.505 -0.788 3.416
-0.486 -0.789 3.424
-0.465 -0.788 3.425
-0.447 -0.791 3.44
-0.426 -0.79 3.438
-0.404 -0.786 3.423
-0.385 -0.789 3.435
-0.364 -0.786 3.424
-0.345 -0.787 3.431
-0.326 -0.79 3.448
-0.304 -0.785 3.426
-0.286 -0.791 3.454
-0.266 -0.789 3.447
-0.245 -0.788 3.447
-0.225 -0.788 3.445
-0.205 -0.788 3.448
-0.185 -0.787 3.444
-0.165 -0.785 3.438
-0.145 -0.786 3.44
-0.125 -0.79 3.458
-0.105 -0.785 3.439
-0.085 -0.788 3.452
-0.065 -0.783 3.43
-0.045 -0.784 3.435
-0.025 -0.789 3.458
-0.005 -0.787 3.451
0.014 -0.787 3.45
0.034 -0.788 3.452
0.054 -0.786 3.446
0.074 -0.79 3.464
0.094 -0.787 3.45
0.113 -0.786 3.444
0.134 -0.791 3.465
0.153 -0.787 3.446
0.173 -0.785 3.436
0.195 -0.792 3.465
0.214 -0.788 3.45
0.234 -0.789 3.453
0.254 -0.791 3.457
0.275 -0.791 3.457
0.295 -0.792 3.459
0.315 -0.792 3.46
0.335 -0.792 3.459
0.356 -0.793 3.462
0.377 -0.794 3.464
0.399 -0.798 3.48
0.419 -0.798 3.478
0.437 -0.794 3.456
0.457 -0.793 3.451
0.48 -0.799 3.474
0.499 -0.796 3.459
0.518 -0.796 3.453
0.54 -0.797 3.459
0.561 -0.798 3.46
0.581 -0.798 3.455
0.601 -0.798 3.452
0.626 -0.804 3.476
0.646 -0.804 3.472
0.667 -0.804 3.47
0.685 -0.802 3.454
0.711 -0.808 3.479
0.73 -0.806 3.466
0.753 -0.809 3.475
0.772 -0.807 3.463
0.796 -0.811 3.477
0.816 -0.811 3.471
0.839 -0.813 3.476
0.86 -0.813 3.472
0.878 -0.81 3.456
0.904 -0.816 3.474
0.924 -0.815 3.465
0.945 -0.815 3.462
0.972 -0.821 3.48
0.99 -0.818 3.464
1.017 -0.824 3.482
1.036 -0.822 3.467
1.065 -0.828 3.488
1.082 -0.826 3.473
1.101 -0.824 3.459
1.127 -0.827 3.468
1.156 -0.833 3.488
1.173 -0.83 3.468
1.206 -0.838 3.496
1.219 -0.833 3.467
1.244 -0.836 3.471
1.262 -0.833 3.455
1.297 -0.843 3.486
1.318 -0.842 3.479
1.334 -0.839 3.457
1.373 -0.85 3.495
1.388 -0.846 3.471
1.421 -0.853 3.491
1.435 -0.848 3.465
1.467 -0.854 3.482
1.504 -0.863 3.511
1.519 -0.859 3.486
1.536 -0.857 3.467
1.562 -0.859 3.468
1.606 -0.871 3.507
1.631 -0.873 3.505
1.645 -0.869 3.479
1.659 -0.864 3.453
1.695 -0.871 3.473
1.744 -0.885 3.518
1.755 -0.88 3.486
1.772 -0.877 3.464
1.815 -0.887 3.494
1.845 -0.89 3.498
1.864 -0.889 3.482
1.88 -0.886 3.459
1.921 -0.894 3.483
1.942 -0.893 3.469
1.995 -0.907 3.512
2.008 -0.903 3.484
-1.939 -0.853 3.377
-1.909 -0.85 3.375
-1.884 -0.849 3.381
-1.857 -0.846 3.382
-1.841 -0.849 3.404
-1.799 -0.84 3.376
-1.788 -0.845 3.406
-1.744 -0.835 3.374
-1.727 -0.837 3.393
-1.709 -0.838 3.409
-1.673 -0.831 3.39
-1.641 -0.826 3.378
-1.617 -0.825 3.383
-1.594 -0.824 3.388
-1.566 -0.821 3.383
-1.549 -0.823 3.4
-1.524 -0.821 3.401
-1.495 -0.817 3.392
-1.479 -0.82 3.413
-1.452 -0.817 3.408
-1.427 -0.815 3.408
-1.389 -0.805 3.374
-1.383 -0.814 3.419
-1.349 -0.806 3.394
-1.328 -0.806 3.402
-1.304 -0.804 3.401
-1.286 -0.806 3.415
-1.257 -0.801 3.401
-1.231 -0.798 3.394
-1.215 -0.801 3.414
-1.191 -0.799 3.41
-1.168 -0.797 3.411
-1.144 -0.795 3.409
-1.126 -0.797 3.423
-1.105 -0.796 3.426
-1.071 -0.787 3.393
-1.06 -0.794 3.429
-1.034 -0.79 3.417
-1.009 -0.787 3.407
-0.984 -0.783 3.398
-0.967 -0.786 3.415
-0.949 -0.788 3.429
-0.927 -0.786 3.427
-0.907 -0.787 3.433
-0.881 -0.782 3.416
-0.857 -0.778 3.406
-0.834 -0.776 3.4
-0.815 -0.778 3.412
-0.795 -0.778 3.418
-0.775 -0.778 3.422
-0.754 -0.777 3.424
-0.734 -0.778 3.429
-0.711 -0.774 3.416
-0.69 -0.774 3.42
-0.671 -0.775 3.428
-0.65 -0.774 3.429
-0.629 -0.773 3.427
-0.61 -0.774 3.434
-0.588 -0.772 3.43
-0.57 -0.774 3.44
-0.547 -0.771 3.431
-0.525 -0.768 3.418
-0.508 -0.773 3.445
-0.49 -0.775 3.457
-0.467 -0.771 3.441
-0.446 -0.769 3.436
-0.426 -0.77 3.44
-0.405 -0.767 3.433
-0.386 -0.77 3.444
-0.363 -0.763 3.415
-0.344 -0.766 3.431
-0.326 -0.769 3.447
-0.305 -0.767 3.442
-0.285 -0.767 3.441
-0.266 -0.769 3.452
-0.245 -0.768 3.448
-0.224 -0.765 3.436
-0.204 -0.765 3.439
-0.185 -0.767 3.446
-0.165 -0.768 3.455
-0.146 -0.77 3.463
-0.125 -0.764 3.439
-0.105 -0.766 3.449
-0.085 -0.768 3.457
-0.065 -0.766 3.449
-0.045 -0.766 3.448
-0.025 -0.768 3.457
-0.005 -0.768 3.456
0.014 -0.768 3.457
0.034 -0.769 3.46
0.054 -0.77 3.467
0.074 -0.767 3.452
0.094 -0.771 3.469
0.113 -0.766 3.447
0.134 -0.768 3.454
0.154 -0.768 3.454
0.174 -0.771 3.469
0.194 -0.768 3.455
0.213 -0.765 3.441
0.234 -0.77 3.459
0.254 -0.77 3.46
0.274 -0.769 3.452
0.295 -0.77 3.458
0.315 -0.77 3.456
0.335 -0.77 3.455
0.355 -0.771 3.455
0.375 -0.771 3.452
0.397 -0.775 3.47
0.416 -0.773 3.459
0.439 -0.777 3.474
0.457 -0.774 3.461
0.478 -0.774 3.459
0.498 -0.775 3.458
0.519 -0.776 3.46
0.538 -0.774 3.451
0.563 -0.78 3.475
0.581 -0.778 3.463
0.602 -0.779 3.464
0.624 -0.781 3.467
0.645 -0.782 3.469
0.665 -0.782 3.465
0.686 -0.782 3.464
0.709 -0.786 3.475
0.726 -0.782 3.454
0.752 -0.788 3.476
0.773 -0.788 3.475
0.795 -0.789 3.474
0.816 -0.79 3.472
0.835 -0.789 3.465
0.859 -0.792 3.472
0.881 -0.793 3.472
0.905 -0.796 3.483
0.925 -0.795 3.474
0.946 -0.796 3.472
0.969 -0.797 3.474
0.99 -0.798 3.47
1.011 -0.798 3.465
1.035 -0.801 3.471
1.061 -0.804 3.48
1.081 -0.803 3.473
1.103 -0.804 3.47
1.127 -0.807 3.475
1.146 -0.805 3.463
1.177 -0.812 3.486
1.196 -0.81 3.472
1.222 -0.814 3.479
1.245 -0.815 3.478
1.265 -0.815 3.47
1.29 -0.816 3.47
1.317 -0.82 3.48
1.345 -0.824 3.49
1.374 -0.829 3.502
1.397 -0.83 3.498
1.419 -0.83 3.491
1.438 -0.828 3.477
1.471 -0.835 3.495
1.494 -0.836 3.491
1.523 -0.839 3.499
1.535 -0.835 3.47
1.569 -0.841 3.488
1.595 -0.843 3.487
1.622 -0.846 3.491
1.635 -0.841 3.462
1.665 -0.845 3.47
1.697 -0.85 3.482
1.715 -0.848 3.464
1.76 -0.859 3.499
1.78 -0.858 3.485
1.809 -0.861 3.488
1.85 -0.87 3.513
1.858 -0.863 3.475
1.903 -0.874 3.507
1.927 -0.874 3.498
1.954 -0.876 3.495
1.977 -0.876 3.485
2.023 -0.886 3.514
-1.948 -0.835 3.398
-1.915 -0.83 3.39
-1.891 -0.829 3.397
-1.861 -0.826 3.394
-1.837 -0.825 3.401
-1.808 -0.822 3.397
-1.767 -0.813 3.372
-1.756 -0.818 3.402
-1.724 -0.814 3.392
-1.709 -0.817 3.414
-1.677 -0.812 3.404
-1.648 -0.808 3.397
-1.619 -0.805 3.391
-1.601 -0.806 3.407
-1.572 -0.803 3.4
-1.542 -0.798 3.389
-1.524 -0.8 3.407
-1.496 -0.796 3.398
-1.479 -0.799 3.417
-1.446 -0.792 3.399
-1.422 -0.791 3.399
-1.401 -0.791 3.407
-1.376 -0.789 3.406
-1.349 -0.785 3.397
-1.325 -0.784 3.399
-1.301 -0.781 3.396
-1.28 -0.781 3.403
-1.263 -0.784 3.42
-1.231 -0.777 3.397
-1.212 -0.778 3.409
-1.193 -0.779 3.421
-1.167 -0.776 3.414
-1.148 -0.777 3.425
-1.126 -0.776 3.427
-1.099 -0.772 3.413
-1.083 -0.775 3.434
-1.06 -0.773 3.431
-1.035 -0.77 3.425
-1.014 -0.77 3.429
-0.991 -0.768 3.427
-0.969 -0.767 3.424
-0.95 -0.768 3.435
-0.925 -0.765 3.425
-0.9 -0.76 3.412
-0.88 -0.761 3.419
-0.862 -0.763 3.432
-0.841 -0.762 3.434
-0.816 -0.758 3.419
-0.796 -0.759 3.426
-0.776 -0.758 3.429
-0.752 -0.754 3.416
-0.732 -0.755 3.422
-0.711 -0.754 3.421
-0.688 -0.751 3.414
-0.673 -0.757 3.443
-0.652 -0.756 3.44
-0.629 -0.753 3.43
-0.607 -0.751 3.424
-0.591 -0.755 3.449
-0.569 -0.753 3.442
-0.546 -0.748 3.424
-0.528 -0.753 3.445
-0.506 -0.748 3.429
-0.485 -0.748 3.431
-0.467 -0.751 3.448
-0.447 -0.751 3.451
-0.426 -0.749 3.443
-0.407 -0.75 3.45
-0.385 -0.747 3.436
-0.365 -0.747 3.44
-0.347 -0.752 3.463
-0.324 -0.744 3.43
-0.304 -0.745 3.437
-0.283 -0.743 3.427
-0.264 -0.744 3.434
-0.244 -0.743 3.431
-0.226 -0.75 3.462
-0.204 -0.742 3.43
-0.185 -0.745 3.444
-0.165 -0.746 3.449
-0.145 -0.748 3.458
-0.125 -0.749 3.464
-0.105 -0.745 3.446
-0.085 -0.748 3.46
-0.065 -0.749 3.468
-0.045 -0.746 3.452
-0.025 -0.749 3.468
-0.005 -0.746 3.451
0.014 -0.745 3.447
0.034 -0.749 3.467
0.053 -0.745 3.446
0.074 -0.746 3.454
0.094 -0.749 3.465
0.114 -0.749 3.468
0.133 -0.747 3.454
0.154 -0.75 3.469
0.174 -0.747 3.455
0.194 -0.749 3.461
0.214 -0.75 3.466
0.235 -0.751 3.471
0.256 -0.754 3.481
0.274 -0.75 3.463
0.295 -0.751 3.466
0.315 -0.752 3.467
0.336 -0.753 3.473
0.356 -0.752 3.467
0.375 -0.75 3.456
0.394 -0.749 3.448
0.416 -0.752 3.46
0.437 -0.754 3.467
0.457 -0.753 3.459
0.478 -0.754 3.463
0.498 -0.755 3.463
0.517 -0.753 3.453
0.541 -0.758 3.472
0.559 -0.755 3.458
0.585 -0.763 3.49
0.603 -0.76 3.474
0.622 -0.758 3.462
0.644 -0.76 3.468
0.664 -0.76 3.462
0.689 -0.765 3.482
0.71 -0.766 3.482
0.729 -0.764 3.471
0.75 -0.765 3.472
0.778 -0.773 3.502
0.794 -0.768 3.474
0.816 -0.77 3.48
0.835 -0.768 3.466
0.858 -0.77 3.471
0.879 -0.77 3.468
0.906 -0.776 3.491
0.922 -0.772 3.468
0.948 -0.776 3.481
0.972 -0.779 3.489
0.989 -0.776 3.469
1.014 -0.779 3.479
1.033 -0.778 3.469
1.058 -0.781 3.476
1.08 -0.782 3.473
1.105 -0.784 3.48
1.125 -0.784 3.473
1.152 -0.788 3.483
1.176 -0.79 3.485
1.204 -0.795 3.5
1.218 -0.79 3.473
1.246 -0.794 3.486
1.265 -0.793 3.471
1.285 -0.792 3.462
1.315 -0.797 3.479
1.342 -0.801 3.486
1.364 -0.801 3.481
1.391 -0.805 3.487
1.416 -0.806 3.488
1.436 -0.806 3.477
1.46 -0.807 3.475
1.487 -0.81 3.48
1.518 -0.815 3.493
1.556 -0.824 3.521
1.559 -0.814 3.471
1.594 -0.82 3.49
1.633 -0.829 3.518
1.648 -0.826 3.495
1.669 -0.825 3.483
1.695 -0.827 3.481
1.722 -0.829 3.483
1.751 -0.833 3.487
1.78 -0.836 3.489
1.802 -0.836 3.479
1.829 -0.838 3.479
1.867 -0.845 3.497
1.896 -0.848 3.499
1.924 -0.85 3.498
1.942 -0.848 3.478
1.965 -0.848 3.469
2 -0.853 3.479
-1.943 -0.81 3.394
-1.918 -0.809 3.4
-1.877 -0.801 3.377
-1.855 -0.801 3.387
-1.831 -0.8 3.394
-1.8 -0.796 3.386
-1.779 -0.797 3.398
-1.753 -0.795 3.4
-1.733 -0.796 3.413
-1.699 -0.79 3.4
-1.672 -0.788 3.398
-1.647 -0.786 3.4
-1.616 -0.781 3.388
-1.598 -0.783 3.405
-1.573 -0.781 3.406
-1.555 -0.783 3.423
-1.522 -0.777 3.406
-1.492 -0.773 3.394
-1.476 -0.776 3.415
-1.448 -0.772 3.408
-1.428 -0.773 3.418
-1.406 -0.772 3.423
-1.377 -0.768 3.412
-1.353 -0.767 3.413
-1.331 -0.766 3.418
-1.301 -0.76 3.401
-1.275 -0.758 3.395
-1.265 -0.764 3.43
-1.24 -0.762 3.428
-1.218 -0.761 3.432
-1.195 -0.76 3.431
-1.165 -0.753 3.41
-1.142 -0.752 3.412
-1.118 -0.75 3.408
-1.098 -0.75 3.414
-1.078 -0.75 3.421
-1.056 -0.75 3.425
-1.035 -0.749 3.426
-1.012 -0.747 3.424
-0.986 -0.744 3.413
-0.968 -0.746 3.427
-0.943 -0.742 3.415
-0.925 -0.744 3.427
-0.902 -0.742 3.424
-0.885 -0.744 3.44
-0.862 -0.742 3.437
-0.835 -0.737 3.416
-0.821 -0.742 3.444
-0.798 -0.74 3.437
-0.776 -0.738 3.436
-0.75 -0.733 3.414
-0.732 -0.735 3.428
-0.716 -0.739 3.449
-0.695 -0.739 3.453
-0.672 -0.735 3.44
-0.652 -0.736 3.447
-0.63 -0.733 3.439
-0.611 -0.735 3.448
-0.589 -0.732 3.44
-0.57 -0.735 3.453
-0.549 -0.733 3.449
-0.527 -0.73 3.437
-0.508 -0.731 3.447
-0.485 -0.727 3.429
-0.466 -0.73 3.445
-0.445 -0.727 3.434
-0.427 -0.731 3.456
-0.406 -0.729 3.448
-0.386 -0.729 3.449
-0.364 -0.724 3.431
-0.344 -0.725 3.436
-0.326 -0.729 3.455
-0.305 -0.728 3.451
-0.285 -0.728 3.455
-0.266 -0.73 3.466
-0.244 -0.725 3.446
-0.224 -0.725 3.444
-0.205 -0.728 3.46
-0.184 -0.724 3.44
-0.165 -0.727 3.457
-0.145 -0.727 3.457
-0.125 -0.728 3.465
-0.105 -0.725 3.448
-0.085 -0.726 3.457
-0.065 -0.725 3.449
-0.045 -0.725 3.45
-0.025 -0.724 3.447
-0.005 -0.727 3.462
0.014 -0.727 3.459
0.034 -0.724 3.449
0.053 -0.724 3.448
0.074 -0.728 3.468
0.094 -0.728 3.467
0.114 -0.729 3.468
0.133 -0.724 3.447
0.154 -0.728 3.462
0.174 -0.728 3.463
0.194 -0.73 3.473
0.215 -0.731 3.476
0.234 -0.73 3.468
0.255 -0.731 3.472
0.275 -0.73 3.467
0.294 -0.73 3.463
0.316 -0.733 3.479
0.337 -0.734 3.483
0.355 -0.731 3.466
0.374 -0.729 3.456
0.397 -0.734 3.477
0.417 -0.734 3.472
0.439 -0.736 3.482
0.457 -0.733 3.465
0.477 -0.733 3.462
0.499 -0.736 3.473
0.518 -0.734 3.463
0.541 -0.738 3.476
0.563 -0.74 3.487
0.581 -0.738 3.471
0.603 -0.739 3.474
0.625 -0.742 3.484
0.644 -0.74 3.473
0.669 -0.745 3.494
0.684 -0.74 3.464
0.707 -0.742 3.471
0.729 -0.744 3.475
0.752 -0.746 3.484
0.771 -0.745 3.473
0.794 -0.747 3.481
0.815 -0.748 3.479
0.837 -0.749 3.48
0.858 -0.749 3.476
0.881 -0.751 3.481
0.903 -0.752 3.482
0.921 -0.751 3.468
0.949 -0.756 3.489
0.971 -0.757 3.487
0.992 -0.757 3.485
1.015 -0.759 3.487
1.034 -0.757 3.474
1.055 -0.758 3.471
1.082 -0.762 3.485
1.109 -0.767 3.499
1.126 -0.764 3.48
1.154 -0.769 3.495
1.175 -0.768 3.488
1.195 -0.768 3.478
1.218 -0.769 3.477
1.243 -0.771 3.481
1.268 -0.773 3.485
1.284 -0.77 3.463
1.319 -0.779 3.495
1.34 -0.778 3.486
1.366 -0.781 3.489
1.387 -0.781 3.482
1.416 -0.785 3.492
1.436 -0.784 3.48
1.458 -0.784 3.474
1.489 -0.789 3.488
1.513 -0.79 3.485
1.548 -0.797 3.507
1.565 -0.795 3.488
1.594 -0.798 3.494
1.627 -0.804 3.511
1.642 -0.801 3.486
1.662 -0.799 3.472
1.708 -0.811 3.513
1.72 -0.806 3.483
1.759 -0.814 3.507
1.783 -0.815 3.5
1.804 -0.814 3.488
1.841 -0.821 3.505
1.873 -0.825 3.513
1.908 -0.83 3.526
1.912 -0.822 3.48
1.963 -0.834 3.521
1.981 -0.832 3.501
2.035 -0.845 3.545
-1.942 -0.788 3.397
-1.905 -0.782 3.382
-1.875 -0.778 3.378
-1.856 -0.78 3.393
-1.833 -0.779 3.401
-1.809 -0.778 3.408
-1.789 -0.779 3.422
-1.746 -0.77 3.391
-1.712 -0.764 3.376
-1.698 -0.768 3.401
-1.669 -0.765 3.395
-1.636 -0.759 3.382
-1.621 -0.762 3.404
-1.588 -0.757 3.389
-1.568 -0.758 3.401
-1.549 -0.759 3.414
-1.525 -0.757 3.416
-1.497 -0.754 3.41
-1.472 -0.752 3.411
-1.453 -0.754 3.424
-1.424 -0.749 3.411
-1.402 -0.749 3.419
-1.373 -0.745 3.407
-1.353 -0.745 3.417
-1.329 -0.744 3.417
-1.307 -0.743 3.42
-1.286 -0.743 3.429
-1.258 -0.739 3.417
-1.235 -0.738 3.417
-1.208 -0.734 3.407
-1.192 -0.737 3.425
-1.174 -0.738 3.441
-1.149 -0.736 3.437
-1.126 -0.734 3.434
-1.101 -0.732 3.428
-1.075 -0.728 3.416
-1.058 -0.731 3.434
-1.033 -0.727 3.424
-1.012 -0.727 3.429
-0.989 -0.725 3.427
-0.964 -0.722 3.415
-0.947 -0.724 3.432
-0.927 -0.725 3.438
-0.905 -0.723 3.437
-0.881 -0.72 3.429
-0.861 -0.721 3.438
-0.837 -0.718 3.424
-0.818 -0.719 3.438
-0.798 -0.719 3.442
-0.777 -0.718 3.441
-0.752 -0.715 3.427
-0.735 -0.718 3.446
-0.711 -0.714 3.43
-0.692 -0.715 3.439
-0.672 -0.715 3.442
-0.652 -0.716 3.451
-0.63 -0.713 3.444
-0.609 -0.712 3.44
-0.589 -0.713 3.446
-0.568 -0.712 3.444
-0.548 -0.711 3.446
-0.53 -0.714 3.464
-0.507 -0.711 3.449
-0.488 -0.712 3.457
-0.466 -0.709 3.446
-0.446 -0.709 3.447
-0.428 -0.713 3.469
-0.406 -0.709 3.453
-0.386 -0.709 3.453
-0.365 -0.708 3.451
-0.346 -0.708 3.456
-0.324 -0.705 3.44
-0.305 -0.708 3.457
-0.286 -0.71 3.466
-0.265 -0.708 3.459
-0.245 -0.706 3.452
-0.224 -0.704 3.446
-0.205 -0.707 3.457
-0.184 -0.704 3.446
-0.165 -0.705 3.453
-0.145 -0.706 3.458
-0.125 -0.704 3.449
-0.105 -0.704 3.448
-0.085 -0.705 3.454
-0.065 -0.704 3.45
-0.045 -0.704 3.451
-0.025 -0.709 3.475
-0.005 -0.705 3.457
0.014 -0.708 3.469
0.034 -0.706 3.461
0.054 -0.705 3.457
0.074 -0.706 3.459
0.094 -0.707 3.464
0.114 -0.709 3.473
0.134 -0.707 3.462
0.154 -0.71 3.48
0.174 -0.71 3.476
0.194 -0.708 3.468
0.214 -0.709 3.468
0.234 -0.708 3.464
0.254 -0.709 3.466
0.275 -0.71 3.473
0.294 -0.708 3.462
0.315 -0.712 3.476
0.335 -0.71 3.467
0.355 -0.71 3.464
0.375 -0.71 3.465
0.395 -0.711 3.466
0.416 -0.713 3.472
0.435 -0.71 3.458
0.459 -0.716 3.485
0.476 -0.711 3.457
0.499 -0.716 3.479
0.519 -0.715 3.472
0.539 -0.715 3.47
0.561 -0.717 3.476
0.583 -0.719 3.485
0.601 -0.717 3.468
0.623 -0.719 3.476
0.641 -0.716 3.459
0.664 -0.719 3.471
0.686 -0.721 3.474
0.708 -0.722 3.478
0.729 -0.723 3.477
0.75 -0.724 3.48
0.773 -0.726 3.486
0.792 -0.724 3.473
0.819 -0.73 3.496
0.835 -0.726 3.473
0.857 -0.728 3.478
0.883 -0.733 3.495
0.902 -0.731 3.481
0.925 -0.733 3.487
0.947 -0.734 3.486
0.97 -0.735 3.488
0.995 -0.738 3.498
1.016 -0.739 3.495
1.033 -0.736 3.476
1.055 -0.737 3.474
1.081 -0.74 3.484
1.105 -0.742 3.489
1.126 -0.743 3.484
1.148 -0.743 3.479
1.175 -0.747 3.493
1.199 -0.749 3.495
1.219 -0.748 3.483
1.246 -0.751 3.493
1.271 -0.754 3.496
1.289 -0.752 3.483
1.318 -0.756 3.496
1.347 -0.761 3.507
1.372 -0.763 3.51
1.389 -0.76 3.491
1.421 -0.766 3.509
1.444 -0.767 3.506
1.462 -0.765 3.487
1.496 -0.771 3.508
1.517 -0.771 3.498
1.544 -0.774 3.504
1.571 -0.776 3.507
1.59 -0.775 3.491
1.626 -0.781 3.512
1.641 -0.778 3.489
1.651 -0.772 3.454
1.697 -0.784 3.495
1.73 -0.788 3.507
1.76 -0.792 3.513
1.774 -0.788 3.488
1.797 -0.789 3.479
1.842 -0.798 3.512
1.859 -0.796 3.491
1.88 -0.796 3.479
1.926 -0.805 3.511
1.958 -0.809 3.517
1.977 -0.807 3.499
2.005 -0.81 3.498
-1.934 -0.762 3.388
-1.896 -0.756 3.37
-1.886 -0.761 3.402
-1.854 -0.757 3.394
-1.821 -0.752 3.383
-1.788 -0.748 3.373
-1.77 -0.749 3.391
-1.753 -0.751 3.41
-1.736 -0.753 3.429
-1.689 -0.742 3.387
-1.668 -0.743 3.399
-1.654 -0.746 3.423
-1.62 -0.74 3.406
-1.594 -0.738 3.406
-1.573 -0.738 3.415
-1.545 -0.735 3.41
-1.514 -0.73 3.395
-1.487 -0.728 3.392
-1.473 -0.731 3.415
-1.443 -0.727 3.405
-1.421 -0.727 3.41
-1.394 -0.723 3.402
-1.373 -0.724 3.411
-1.354 -0.724 3.422
-1.33 -0.723 3.422
-1.304 -0.72 3.418
-1.289 -0.724 3.44
-1.26 -0.719 3.425
-1.237 -0.718 3.427
-1.214 -0.717 3.427
-1.191 -0.716 3.429
-1.165 -0.712 3.42
-1.145 -0.712 3.426
-1.124 -0.712 3.432
-1.102 -0.712 3.434
-1.076 -0.708 3.425
-1.054 -0.707 3.426
-1.03 -0.705 3.42
-1.011 -0.706 3.431
-0.99 -0.706 3.434
-0.973 -0.708 3.452
-0.943 -0.701 3.423
-0.926 -0.704 3.44
-0.906 -0.704 3.448
-0.88 -0.7 3.43
-0.863 -0.702 3.449
-0.838 -0.698 3.433
-0.818 -0.699 3.439
-0.794 -0.696 3.428
-0.771 -0.693 3.419
-0.754 -0.696 3.439
-0.732 -0.694 3.433
-0.715 -0.698 3.455
-0.69 -0.692 3.433
-0.672 -0.695 3.45
-0.654 -0.697 3.461
-0.631 -0.694 3.45
-0.611 -0.694 3.454
-0.588 -0.692 3.446
-0.569 -0.693 3.455
-0.545 -0.687 3.429
-0.526 -0.688 3.439
-0.507 -0.69 3.448
-0.487 -0.69 3.451
-0.465 -0.687 3.441
-0.445 -0.687 3.444
-0.428 -0.692 3.467
-0.404 -0.686 3.439
-0.386 -0.689 3.461
-0.365 -0.688 3.457
-0.344 -0.684 3.44
-0.324 -0.685 3.442
-0.305 -0.687 3.458
-0.285 -0.687 3.457
-0.265 -0.687 3.461
-0.244 -0.684 3.445
-0.225 -0.687 3.464
-0.204 -0.685 3.454
-0.185 -0.686 3.461
-0.166 -0.689 3.475
-0.145 -0.685 3.455
-0.125 -0.686 3.464
-0.105 -0.687 3.469
-0.085 -0.685 3.459
-0.065 -0.686 3.464
-0.045 -0.686 3.465
-0.025 -0.687 3.471
-0.005 -0.684 3.456
0.014 -0.687 3.47
0.034 -0.685 3.457
0.054 -0.687 3.468
0.074 -0.689 3.477
0.094 -0.687 3.468
0.113 -0.686 3.462
0.134 -0.687 3.467
0.153 -0.686 3.463
0.173 -0.686 3.46
0.193 -0.684 3.451
0.214 -0.69 3.48
0.234 -0.688 3.468
0.255 -0.692 3.485
0.275 -0.69 3.478
0.295 -0.692 3.484
0.315 -0.69 3.475
0.335 -0.691 3.477
0.355 -0.69 3.467
0.376 -0.693 3.482
0.395 -0.691 3.47
0.417 -0.693 3.479
0.436 -0.692 3.472
0.456 -0.692 3.468
0.479 -0.695 3.483
0.497 -0.693 3.469
0.521 -0.697 3.487
0.539 -0.695 3.474
0.561 -0.697 3.482
0.581 -0.697 3.476
0.604 -0.7 3.491
0.623 -0.698 3.478
0.642 -0.697 3.47
0.664 -0.699 3.473
0.689 -0.703 3.492
0.707 -0.701 3.481
0.728 -0.701 3.476
0.748 -0.701 3.472
0.772 -0.705 3.486
0.79 -0.703 3.472
0.815 -0.706 3.486
0.837 -0.708 3.488
0.858 -0.708 3.482
0.88 -0.709 3.484
0.901 -0.709 3.481
0.922 -0.709 3.478
0.945 -0.711 3.482
0.968 -0.713 3.486
0.991 -0.715 3.489
1.018 -0.719 3.503
1.041 -0.721 3.506
1.056 -0.716 3.48
1.078 -0.717 3.48
1.103 -0.72 3.486
1.127 -0.722 3.491
1.149 -0.723 3.486
1.171 -0.724 3.485
1.196 -0.726 3.489
1.216 -0.725 3.479
1.247 -0.731 3.502
1.261 -0.727 3.474
1.288 -0.73 3.484
1.313 -0.732 3.486
1.339 -0.735 3.491
1.367 -0.738 3.501
1.384 -0.736 3.483
1.414 -0.74 3.495
1.437 -0.741 3.492
1.468 -0.746 3.507
1.491 -0.747 3.501
1.506 -0.744 3.478
1.544 -0.751 3.506
1.57 -0.753 3.507
1.601 -0.758 3.518
1.626 -0.759 3.516
1.643 -0.757 3.496
1.678 -0.763 3.514
1.696 -0.761 3.498
1.721 -0.762 3.493
1.744 -0.763 3.486
1.779 -0.768 3.502
1.797 -0.766 3.484
1.827 -0.769 3.487
1.869 -0.778 3.515
1.888 -0.776 3.498
1.927 -0.783 3.517
1.937 -0.778 3.484
1.98 -0.786 3.509
1.985 -0.779 3.466
-1.936 -0.741 3.395
-1.909 -0.739 3.398
-1.885 -0.738 3.405
-1.845 -0.731 3.382
-1.828 -0.733 3.401
-1.798 -0.73 3.396
-1.78 -0.732 3.414
-1.742 -0.725 3.391
-1.715 -0.723 3.392
-1.7 -0.725 3.413
-1.671 -0.722 3.407
-1.647 -0.721 3.411
-1.619 -0.718 3.408
-1.599 -0.719 3.421
-1.569 -0.715 3.411
-1.537 -0.71 3.396
-1.513 -0.709 3.397
-1.489 -0.708 3.4
-1.462 -0.705 3.394
-1.441 -0.705 3.404
-1.421 -0.705 3.413
-1.397 -0.704 3.413
-1.376 -0.704 3.423
-1.362 -0.708 3.448
-1.321 -0.697 3.404
-1.309 -0.702 3.434
-1.282 -0.698 3.424
-1.26 -0.698 3.429
-1.232 -0.694 3.416
-1.212 -0.695 3.426
-1.189 -0.693 3.425
-1.163 -0.69 3.416
-1.143 -0.691 3.426
-1.124 -0.692 3.437
-1.1 -0.689 3.432
-1.079 -0.69 3.438
-1.06 -0.69 3.448
-1.034 -0.687 3.437
-1.011 -0.685 3.435
-0.993 -0.687 3.448
-0.967 -0.683 3.433
-0.945 -0.682 3.433
-0.925 -0.683 3.441
-0.903 -0.681 3.44
-0.886 -0.684 3.457
-0.86 -0.679 3.439
-0.836 -0.676 3.427
-0.819 -0.679 3.449
-0.796 -0.677 3.439
-0.779 -0.679 3.457
-0.758 -0.679 3.46
-0.732 -0.674 3.438
-0.708 -0.67 3.423
-0.693 -0.675 3.45
-0.669 -0.671 3.436
-0.649 -0.671 3.438
-0.63 -0.673 3.449
-0.607 -0.669 3.436
-0.587 -0.67 3.443
-0.569 -0.672 3.455
-0.545 -0.668 3.438
-0.528 -0.672 3.459
-0.506 -0.668 3.446
-0.486 -0.668 3.447
-0.465 -0.668 3.449
-0.446 -0.668 3.453
-0.425 -0.667 3.451
-0.407 -0.67 3.467
-0.386 -0.669 3.465
-0.367 -0.67 3.473
-0.345 -0.667 3.456
-0.324 -0.666 3.452
-0.304 -0.665 3.45
-0.284 -0.664 3.448
-0.266 -0.669 3.476
-0.244 -0.666 3.457
-0.224 -0.665 3.453
-0.205 -0.667 3.469
-0.185 -0.667 3.469
-0.164 -0.664 3.454
-0.145 -0.668 3.476
-0.125 -0.664 3.456
-0.105 -0.666 3.466
-0.085 -0.664 3.457
-0.065 -0.667 3.472
-0.045 -0.663 3.451
-0.025 -0.668 3.477
-0.005 -0.661 3.44
0.014 -0.667 3.474
0.034 -0.666 3.467
0.054 -0.668 3.478
0.073 -0.665 3.463
0.094 -0.667 3.474
0.114 -0.667 3.47
0.133 -0.665 3.459
0.154 -0.667 3.473
0.173 -0.666 3.464
0.193 -0.665 3.461
0.214 -0.669 3.478
0.234 -0.667 3.468
0.254 -0.668 3.47
0.275 -0.67 3.482
0.294 -0.669 3.472
0.313 -0.667 3.461
0.335 -0.671 3.478
0.355 -0.67 3.472
0.375 -0.67 3.474
0.397 -0.674 3.489
0.418 -0.675 3.495
0.437 -0.672 3.477
0.456 -0.671 3.471
0.479 -0.675 3.485
0.499 -0.675 3.482
0.519 -0.674 3.479
0.541 -0.677 3.487
0.559 -0.674 3.473
0.58 -0.676 3.477
0.603 -0.678 3.485
0.626 -0.681 3.5
0.645 -0.679 3.486
0.665 -0.68 3.485
0.687 -0.681 3.489
0.708 -0.681 3.486
0.731 -0.684 3.494
0.752 -0.685 3.496
0.775 -0.686 3.5
0.79 -0.682 3.475
0.814 -0.685 3.483
0.839 -0.688 3.497
0.859 -0.688 3.493
0.881 -0.689 3.491
0.899 -0.687 3.48
0.925 -0.691 3.492
0.945 -0.691 3.487
0.975 -0.697 3.514
0.992 -0.694 3.494
1.015 -0.696 3.499
1.034 -0.695 3.486
1.052 -0.693 3.472
1.085 -0.701 3.507
1.108 -0.702 3.506
1.136 -0.707 3.522
1.149 -0.702 3.491
1.175 -0.704 3.498
1.205 -0.71 3.52
1.222 -0.707 3.5
1.246 -0.709 3.502
1.272 -0.712 3.509
1.301 -0.716 3.522
1.312 -0.71 3.487
1.339 -0.713 3.494
1.364 -0.715 3.497
1.398 -0.722 3.521
1.413 -0.719 3.498
1.441 -0.722 3.506
1.463 -0.722 3.498
1.486 -0.723 3.495
1.511 -0.724 3.493
1.545 -0.73 3.514
1.561 -0.727 3.491
1.604 -0.737 3.529
1.625 -0.737 3.519
1.656 -0.741 3.529
1.664 -0.735 3.491
1.694 -0.738 3.498
1.715 -0.737 3.486
1.753 -0.744 3.507
1.78 -0.746 3.508
1.816 -0.752 3.525
1.833 -0.75 3.504
1.866 -0.754 3.514
1.896 -0.757 3.516
1.924 -0.759 3.517
1.955 -0.762 3.52
1.999 -0.77 3.547
2.015 -0.768 3.524
-1.943 -0.721 3.411
-1.905 -0.715 3.394
-1.894 -0.72 3.425
-1.861 -0.715 3.415
-1.834 -0.713 3.417
-1.797 -0.708 3.398
-1.783 -0.711 3.422
-1.75 -0.706 3.41
-1.717 -0.702 3.399
-1.694 -0.701 3.406
-1.667 -0.699 3.403
-1.652 -0.701 3.426
-1.611 -0.693 3.395
-1.594 -0.695 3.414
-1.568 -0.693 3.412
-1.541 -0.691 3.409
-1.515 -0.689 3.407
-1.496 -0.69 3.421
-1.475 -0.69 3.43
-1.448 -0.687 3.423
-1.432 -0.689 3.443
-1.407 -0.688 3.442
-1.374 -0.682 3.42
-1.349 -0.68 3.419
-1.332 -0.682 3.436
-1.302 -0.677 3.421
-1.283 -0.678 3.431
-1.261 -0.678 3.435
-1.238 -0.677 3.437
-1.208 -0.672 3.418
-1.185 -0.67 3.417
-1.168 -0.673 3.436
-1.145 -0.671 3.434
-1.127 -0.673 3.45
-1.106 -0.672 3.455
-1.082 -0.671 3.451
-1.059 -0.669 3.45
-1.037 -0.668 3.451
-1.013 -0.666 3.446
-0.99 -0.664 3.441
-0.968 -0.663 3.44
-0.944 -0.661 3.434
-0.926 -0.662 3.446
-0.901 -0.659 3.434
-0.88 -0.659 3.439
-0.857 -0.657 3.432
-0.841 -0.66 3.453
-0.818 -0.658 3.445
-0.795 -0.656 3.439
-0.772 -0.653 3.43
-0.752 -0.654 3.437
-0.731 -0.653 3.439
-0.711 -0.653 3.44
-0.688 -0.651 3.433
-0.671 -0.653 3.45
-0.65 -0.652 3.447
-0.63 -0.653 3.455
-0.609 -0.651 3.449
-0.591 -0.654 3.466
-0.569 -0.652 3.462
-0.547 -0.65 3.451
-0.528 -0.651 3.46
-0.508 -0.652 3.466
-0.487 -0.65 3.461
-0.464 -0.646 3.443
-0.446 -0.648 3.457
-0.428 -0.651 3.475
-0.405 -0.648 3.46
-0.386 -0.648 3.463
-0.364 -0.646 3.451
-0.345 -0.646 3.457
-0.325 -0.646 3.459
-0.305 -0.647 3.463
-0.284 -0.646 3.458
-0.264 -0.644 3.451
-0.246 -0.65 3.484
-0.224 -0.644 3.455
-0.205 -0.647 3.47
-0.185 -0.648 3.475
-0.165 -0.648 3.477
-0.145 -0.645 3.463
-0.125 -0.649 3.483
-0.105 -0.646 3.471
-0.084 -0.642 3.448
-0.065 -0.644 3.461
-0.045 -0.645 3.468
-0.025 -0.648 3.481
-0.005 -0.646 3.469
0.014 -0.648 3.48
0.034 -0.647 3.477
0.054 -0.646 3.471
0.074 -0.646 3.468
0.094 -0.646 3.472
0.113 -0.645 3.462
0.134 -0.648 3.478
0.154 -0.65 3.489
0.174 -0.65 3.488
0.194 -0.647 3.471
0.214 -0.647 3.472
0.234 -0.648 3.477
0.254 -0.648 3.476
0.275 -0.65 3.482
0.294 -0.649 3.478
0.314 -0.649 3.474
0.335 -0.649 3.475
0.354 -0.649 3.472
0.373 -0.647 3.46
0.397 -0.653 3.489
0.416 -0.651 3.477
0.435 -0.649 3.465
0.457 -0.653 3.483
0.477 -0.653 3.48
0.499 -0.654 3.484
0.521 -0.657 3.495
0.54 -0.655 3.487
0.562 -0.657 3.492
0.58 -0.655 3.478
0.603 -0.657 3.488
0.625 -0.66 3.497
0.642 -0.656 3.474
0.665 -0.659 3.487
0.69 -0.663 3.505
0.706 -0.659 3.482
0.73 -0.662 3.494
0.748 -0.66 3.48
0.77 -0.662 3.483
0.789 -0.661 3.473
0.816 -0.666 3.497
0.841 -0.669 3.509
0.857 -0.666 3.489
0.882 -0.669 3.499
0.903 -0.669 3.495
0.927 -0.672 3.505
0.946 -0.67 3.492
0.967 -0.671 3.489
0.988 -0.671 3.485
1.012 -0.673 3.493
1.036 -0.675 3.497
1.057 -0.675 3.491
1.079 -0.676 3.49
1.111 -0.683 3.52
1.123 -0.678 3.487
1.154 -0.683 3.509
1.172 -0.681 3.493
1.2 -0.686 3.51
1.218 -0.684 3.494
1.243 -0.686 3.499
1.27 -0.689 3.506
1.303 -0.695 3.53
1.313 -0.689 3.493
1.334 -0.689 3.487
1.361 -0.692 3.494
1.385 -0.693 3.492
1.41 -0.695 3.493
1.447 -0.703 3.524
1.456 -0.697 3.487
1.481 -0.698 3.486
1.516 -0.705 3.509
1.533 -0.703 3.491
1.567 -0.708 3.508
1.585 -0.706 3.492
1.626 -0.715 3.524
1.649 -0.715 3.518
1.666 -0.713 3.498
1.697 -0.717 3.508
1.727 -0.72 3.513
1.753 -0.722 3.513
1.771 -0.72 3.494
1.81 -0.727 3.517
1.829 -0.725 3.499
1.86 -0.729 3.506
1.877 -0.727 3.486
1.911 -0.731 3.497
1.952 -0.738 3.519
1.984 -0.742 3.525
2.011 -0.743 3.521
-1.934 -0.696 3.4
-1.894 -0.689 3.378
-1.873 -0.689 3.39
-1.866 -0.695 3.428
-1.816 -0.684 3.386
-1.796 -0.685 3.4
-1.772 -0.684 3.406
-1.74 -0.68 3.396
-1.735 -0.687 3.439
-1.693 -0.679 3.408
-1.688 -0.686 3.451
-1.648 -0.678 3.422
-1.618 -0.675 3.413
-1.595 -0.674 3.419
-1.569 -0.672 3.418
-1.544 -0.67 3.418
-1.526 -0.672 3.434
-1.502 -0.671 3.438
-1.48 -0.671 3.444
-1.443 -0.663 3.415
-1.426 -0.665 3.433
-1.396 -0.661 3.42
-1.368 -0.658 3.409
-1.354 -0.661 3.434
-1.332 -0.661 3.439
-1.299 -0.655 3.417
-1.274 -0.653 3.411
-1.261 -0.657 3.44
-1.25 -0.662 3.474
-1.209 -0.651 3.424
-1.19 -0.652 3.436
-1.167 -0.651 3.437
-1.143 -0.649 3.433
-1.12 -0.648 3.431
-1.097 -0.646 3.429
-1.079 -0.648 3.444
-1.056 -0.647 3.444
-1.032 -0.645 3.438
-1.01 -0.643 3.437
-0.993 -0.646 3.455
-0.962 -0.639 3.423
-0.948 -0.643 3.453
-0.926 -0.642 3.451
-0.902 -0.64 3.444
-0.884 -0.641 3.455
-0.857 -0.636 3.434
-0.841 -0.64 3.459
-0.818 -0.637 3.449
-0.799 -0.638 3.459
-0.772 -0.633 3.436
-0.755 -0.636 3.452
-0.734 -0.635 3.453
-0.713 -0.635 3.455
-0.692 -0.634 3.454
-0.673 -0.635 3.463
-0.65 -0.632 3.454
-0.628 -0.631 3.448
-0.609 -0.632 3.457
-0.589 -0.632 3.462
-0.568 -0.631 3.459
-0.549 -0.632 3.467
-0.525 -0.628 3.447
-0.507 -0.63 3.46
-0.488 -0.631 3.473
-0.466 -0.629 3.459
-0.445 -0.627 3.454
-0.426 -0.629 3.466
-0.405 -0.627 3.457
-0.387 -0.63 3.477
-0.364 -0.626 3.457
-0.346 -0.628 3.471
-0.326 -0.63 3.48
-0.305 -0.626 3.464
-0.284 -0.625 3.46
-0.265 -0.626 3.466
-0.245 -0.627 3.469
-0.224 -0.623 3.453
-0.206 -0.629 3.486
-0.185 -0.626 3.467
-0.165 -0.626 3.468
-0.145 -0.627 3.475
-0.125 -0.625 3.465
-0.105 -0.628 3.486
-0.085 -0.624 3.463
-0.065 -0.627 3.48
-0.045 -0.626 3.475
-0.025 -0.624 3.466
-0.005 -0.626 3.476
0.014 -0.625 3.471
0.034 -0.627 3.478
0.054 -0.624 3.466
0.074 -0.626 3.474
0.094 -0.627 3.48
0.114 -0.627 3.477
0.133 -0.626 3.471
0.153 -0.625 3.469
0.174 -0.628 3.48
0.194 -0.63 3.49
0.214 -0.628 3.483
0.235 -0.63 3.488
0.256 -0.632 3.5
0.274 -0.628 3.48
0.294 -0.628 3.478
0.315 -0.63 3.485
0.335 -0.63 3.483
0.355 -0.63 3.483
0.377 -0.633 3.495
0.396 -0.631 3.483
0.416 -0.631 3.482
0.436 -0.631 3.481
0.457 -0.632 3.484
0.479 -0.634 3.493
0.498 -0.633 3.483
0.519 -0.634 3.487
0.54 -0.635 3.491
0.557 -0.632 3.468
0.583 -0.638 3.5
0.601 -0.635 3.483
0.624 -0.639 3.497
0.645 -0.639 3.494
0.665 -0.638 3.488
0.686 -0.64 3.492
0.708 -0.64 3.493
0.732 -0.644 3.51
0.75 -0.642 3.493
0.774 -0.644 3.502
0.795 -0.645 3.502
0.814 -0.644 3.491
0.834 -0.643 3.485
0.859 -0.647 3.499
0.88 -0.647 3.494
0.902 -0.648 3.495
0.924 -0.649 3.499
0.945 -0.649 3.492
0.966 -0.65 3.491
0.991 -0.652 3.499
1.006 -0.649 3.475
1.037 -0.655 3.505
1.056 -0.654 3.491
1.084 -0.658 3.511
1.101 -0.656 3.491
1.13 -0.661 3.51
1.149 -0.659 3.498
1.176 -0.663 3.509
1.195 -0.662 3.497
1.219 -0.663 3.5
1.245 -0.666 3.507
1.267 -0.666 3.503
1.293 -0.669 3.507
1.318 -0.671 3.511
1.34 -0.671 3.506
1.367 -0.674 3.514
1.383 -0.671 3.492
1.415 -0.676 3.51
1.441 -0.678 3.514
1.461 -0.678 3.502
1.496 -0.684 3.526
1.523 -0.686 3.53
1.543 -0.685 3.516
1.567 -0.686 3.514
1.592 -0.688 3.512
1.615 -0.688 3.505
1.651 -0.694 3.526
1.666 -0.691 3.502
1.702 -0.697 3.521
1.731 -0.7 3.527
1.749 -0.698 3.507
1.783 -0.702 3.522
1.799 -0.7 3.5
1.829 -0.703 3.504
1.857 -0.705 3.504
1.909 -0.716 3.55
1.932 -0.716 3.538
1.955 -0.716 3.529
1.974 -0.715 3.511
2.003 -0.717 3.511
-1.936 -0.674 3.407
-1.896 -0.668 3.386
-1.867 -0.665 3.382
-1.843 -0.665 3.39
-1.828 -0.667 3.413
-1.791 -0.661 3.393
-1.768 -0.661 3.402
-1.742 -0.66 3.404
-1.707 -0.654 3.387
-1.697 -0.659 3.419
-1.661 -0.653 3.4
-1.637 -0.652 3.403
-1.624 -0.656 3.43
-1.596 -0.653 3.425
-1.569 -0.65 3.421
-1.543 -0.649 3.42
-1.522 -0.649 3.431
-1.494 -0.646 3.422
-1.472 -0.646 3.429
-1.445 -0.643 3.425
-1.426 -0.644 3.437
-1.402 -0.643 3.438
-1.373 -0.639 3.425
-1.354 -0.64 3.439
-1.328 -0.638 3.434
-1.295 -0.632 3.408
-1.282 -0.636 3.436
-1.262 -0.636 3.445
-1.232 -0.632 3.429
-1.208 -0.63 3.424
-1.191 -0.632 3.443
-1.166 -0.63 3.437
-1.146 -0.63 3.444
-1.123 -0.629 3.444
-1.105 -0.631 3.46
-1.081 -0.628 3.454
-1.057 -0.626 3.448
-1.034 -0.625 3.445
-1.008 -0.622 3.435
-0.987 -0.621 3.436
-0.965 -0.62 3.436
-0.948 -0.623 3.457
-0.925 -0.621 3.452
-0.905 -0.621 3.458
-0.881 -0.619 3.448
-0.861 -0.619 3.454
-0.839 -0.618 3.454
-0.816 -0.616 3.446
-0.799 -0.618 3.462
-0.776 -0.616 3.455
-0.755 -0.615 3.455
-0.732 -0.613 3.448
-0.712 -0.614 3.454
-0.692 -0.614 3.459
-0.667 -0.61 3.438
-0.648 -0.611 3.448
-0.628 -0.61 3.448
-0.608 -0.611 3.455
-0.587 -0.61 3.452
-0.57 -0.613 3.472
-0.546 -0.609 3.454
-0.528 -0.611 3.469
-0.51 -0.614 3.487
-0.487 -0.61 3.466
-0.466 -0.608 3.461
-0.448 -0.611 3.479
-0.426 -0.608 3.466
-0.406 -0.609 3.47
-0.385 -0.607 3.462
-0.365 -0.607 3.467
-0.345 -0.607 3.47
-0.325 -0.608 3.475
-0.304 -0.605 3.459
-0.284 -0.605 3.463
-0.265 -0.607 3.472
-0.246 -0.609 3.489
-0.224 -0.604 3.459
-0.204 -0.605 3.465
-0.184 -0.604 3.462
-0.165 -0.608 3.483
-0.145 -0.609 3.491
-0.125 -0.605 3.471
-0.105 -0.606 3.474
-0.085 -0.605 3.474
-0.065 -0.606 3.477
-0.045 -0.606 3.477
-0.025 -0.602 3.455
-0.005 -0.603 3.46
0.014 -0.606 3.48
0.034 -0.606 3.48
0.054 -0.605 3.47
0.073 -0.605 3.471
0.094 -0.609 3.494
0.114 -0.607 3.484
0.134 -0.607 3.482
0.153 -0.606 3.473
0.174 -0.609 3.49
0.193 -0.606 3.471
0.214 -0.609 3.49
0.234 -0.608 3.485
0.254 -0.608 3.483
0.272 -0.604 3.459
0.294 -0.609 3.483
0.315 -0.61 3.487
0.336 -0.612 3.5
0.357 -0.613 3.501
0.374 -0.608 3.475
0.397 -0.612 3.494
0.415 -0.61 3.48
0.435 -0.609 3.474
0.458 -0.613 3.492
0.477 -0.612 3.486
0.497 -0.612 3.482
0.519 -0.614 3.493
0.539 -0.613 3.485
0.562 -0.616 3.498
0.582 -0.616 3.495
0.601 -0.615 3.486
0.623 -0.616 3.49
0.643 -0.617 3.488
0.662 -0.615 3.476
0.687 -0.619 3.497
0.704 -0.616 3.475
0.73 -0.621 3.502
0.749 -0.621 3.493
0.774 -0.624 3.508
0.791 -0.621 3.49
0.819 -0.627 3.517
0.836 -0.624 3.496
0.858 -0.626 3.5
0.881 -0.627 3.505
0.901 -0.627 3.498
0.923 -0.627 3.496
0.948 -0.63 3.507
0.968 -0.63 3.499
0.99 -0.631 3.501
1.01 -0.631 3.493
1.037 -0.634 3.509
1.056 -0.633 3.497
1.084 -0.637 3.514
1.105 -0.637 3.506
1.126 -0.637 3.501
1.153 -0.64 3.513
1.171 -0.639 3.498
1.197 -0.641 3.506
1.221 -0.643 3.51
1.246 -0.645 3.512
1.272 -0.647 3.518
1.294 -0.648 3.515
1.312 -0.646 3.497
1.339 -0.649 3.507
1.366 -0.652 3.514
1.39 -0.653 3.512
1.41 -0.652 3.501
1.44 -0.656 3.515
1.471 -0.66 3.529
1.485 -0.657 3.502
1.512 -0.659 3.508
1.538 -0.661 3.509
1.558 -0.66 3.496
1.585 -0.663 3.5
1.626 -0.67 3.532
1.644 -0.669 3.515
1.674 -0.672 3.523
1.695 -0.672 3.512
1.725 -0.675 3.517
1.745 -0.674 3.503
1.776 -0.677 3.511
1.801 -0.678 3.507
1.825 -0.679 3.5
1.864 -0.685 3.522
1.879 -0.682 3.498
1.929 -0.692 3.537
1.946 -0.69 3.517
1.971 -0.691 3.51
2.001 -0.693 3.511
-1.947 -0.655 3.429
-1.896 -0.646 3.389
-1.882 -0.649 3.415
-1.845 -0.643 3.398
-1.828 -0.645 3.417
-1.799 -0.643 3.414
-1.782 -0.644 3.433
-1.751 -0.641 3.425
-1.723 -0.639 3.422
-1.695 -0.636 3.42
-1.664 -0.633 3.408
-1.652 -0.636 3.438
-1.617 -0.631 3.419
-1.609 -0.637 3.457
-1.561 -0.626 3.409
-1.546 -0.629 3.431
-1.518 -0.626 3.425
-1.493 -0.624 3.424
-1.477 -0.627 3.445
-1.442 -0.62 3.419
-1.432 -0.625 3.455
-1.402 -0.621 3.44
-1.381 -0.622 3.449
-1.349 -0.617 3.428
-1.326 -0.616 3.431
-1.301 -0.614 3.427
-1.287 -0.617 3.452
-1.253 -0.611 3.424
-1.229 -0.609 3.424
-1.219 -0.615 3.459
-1.191 -0.611 3.447
-1.171 -0.611 3.455
-1.141 -0.607 3.433
-1.119 -0.606 3.435
-1.101 -0.607 3.449
-1.073 -0.603 3.434
-1.052 -0.603 3.436
-1.033 -0.604 3.448
-1.013 -0.604 3.455
-0.989 -0.602 3.447
-0.966 -0.6 3.445
-0.942 -0.598 3.437
-0.923 -0.599 3.445
-0.905 -0.6 3.459
-0.886 -0.602 3.471
-0.863 -0.6 3.465
-0.838 -0.596 3.45
-0.817 -0.596 3.453
-0.794 -0.594 3.447
-0.777 -0.596 3.463
-0.754 -0.594 3.456
-0.732 -0.593 3.449
-0.715 -0.596 3.471
-0.693 -0.594 3.463
-0.672 -0.594 3.466
-0.649 -0.591 3.457
-0.631 -0.593 3.471
-0.611 -0.593 3.475
-0.588 -0.59 3.461
-0.569 -0.591 3.467
-0.549 -0.591 3.471
-0.525 -0.588 3.454
-0.506 -0.589 3.463
-0.487 -0.59 3.471
-0.465 -0.588 3.461
-0.444 -0.586 3.451
-0.425 -0.587 3.461
-0.406 -0.588 3.473
-0.386 -0.589 3.476
-0.362 -0.582 3.44
-0.345 -0.588 3.475
-0.325 -0.587 3.471
-0.305 -0.587 3.475
-0.285 -0.587 3.473
-0.265 -0.586 3.473
-0.244 -0.586 3.47
-0.225 -0.586 3.476
-0.205 -0.588 3.485
-0.185 -0.586 3.475
-0.165 -0.586 3.476
-0.145 -0.585 3.474
-0.125 -0.588 3.491
-0.105 -0.588 3.491
-0.085 -0.587 3.486
-0.065 -0.585 3.472
-0.045 -0.587 3.487
-0.025 -0.587 3.49
-0.005 -0.586 3.479
0.014 -0.587 3.489
0.034 -0.588 3.493
0.054 -0.584 3.471
0.073 -0.584 3.466
0.094 -0.587 3.485
0.114 -0.587 3.488
0.134 -0.587 3.487
0.153 -0.584 3.469
0.173 -0.586 3.48
0.194 -0.588 3.489
0.215 -0.59 3.499
0.234 -0.588 3.485
0.253 -0.585 3.465
0.275 -0.589 3.493
0.294 -0.588 3.481
0.315 -0.59 3.491
0.335 -0.59 3.49
0.357 -0.593 3.508
0.375 -0.589 3.483
0.395 -0.589 3.48
0.416 -0.591 3.489
0.438 -0.593 3.499
0.456 -0.591 3.485
0.48 -0.595 3.509
0.498 -0.592 3.488
0.522 -0.596 3.51
0.538 -0.592 3.482
0.561 -0.595 3.497
0.583 -0.597 3.506
0.603 -0.597 3.502
0.622 -0.595 3.488
0.645 -0.598 3.499
0.665 -0.597 3.495
0.688 -0.6 3.509
0.705 -0.597 3.488
0.727 -0.599 3.491
0.75 -0.601 3.5
0.77 -0.6 3.493
0.797 -0.605 3.516
0.817 -0.604 3.509
0.833 -0.601 3.487
0.855 -0.602 3.489
0.877 -0.604 3.493
0.905 -0.608 3.514
0.921 -0.605 3.492
0.946 -0.608 3.505
0.968 -0.609 3.503
0.991 -0.61 3.506
1.014 -0.612 3.508
1.037 -0.613 3.511
1.063 -0.616 3.521
1.082 -0.615 3.509
1.107 -0.617 3.518
1.131 -0.619 3.52
1.146 -0.616 3.496
1.171 -0.618 3.503
1.193 -0.618 3.5
1.217 -0.62 3.501
1.243 -0.622 3.508
1.27 -0.625 3.518
1.294 -0.627 3.519
1.318 -0.628 3.519
1.342 -0.629 3.517
1.367 -0.63 3.519
1.395 -0.634 3.529
1.408 -0.63 3.5
1.439 -0.634 3.515
1.459 -0.633 3.503
1.487 -0.636 3.512
1.508 -0.636 3.501
1.535 -0.638 3.506
1.562 -0.64 3.51
1.582 -0.64 3.497
1.62 -0.646 3.524
1.65 -0.649 3.532
1.682 -0.653 3.543
1.696 -0.65 3.517
1.716 -0.649 3.503
1.743 -0.651 3.503
1.775 -0.654 3.513
1.806 -0.658 3.52
1.834 -0.66 3.521
1.848 -0.657 3.495
1.879 -0.66 3.5
1.918 -0.665 3.52
1.952 -0.669 3.53
1.961 -0.665 3.496
2.004 -0.672 3.521
-1.935 -0.629 3.412
-1.891 -0.622 3.385
-1.88 -0.626 3.414
-1.856 -0.625 3.42
-1.834 -0.625 3.431
-1.793 -0.618 3.405
-1.769 -0.618 3.41
-1.759 -0.622 3.444
-1.721 -0.616 3.421
-1.699 -0.616 3.43
-1.666 -0.612 3.416
-1.65 -0.614 3.437
-1.623 -0.612 3.436
-1.599 -0.611 3.439
-1.571 -0.609 3.434
-1.548 -0.608 3.439
-1.525 -0.607 3.444
-1.486 -0.6 3.412
-1.469 -0.602 3.43
-1.444 -0.6 3.429
-1.422 -0.6 3.433
-1.406 -0.602 3.455
-1.369 -0.595 3.423
-1.354 -0.598 3.444
-1.335 -0.599 3.457
-1.304 -0.594 3.438
-1.281 -0.593 3.44
-1.261 -0.594 3.45
-1.231 -0.589 3.432
-1.21 -0.589 3.438
-1.19 -0.589 3.445
-1.167 -0.589 3.447
-1.147 -0.589 3.453
-1.127 -0.59 3.464
-1.103 -0.588 3.46
-1.077 -0.585 3.448
-1.061 -0.587 3.47
-1.036 -0.585 3.459
-1.012 -0.583 3.454
-0.985 -0.579 3.439
-0.965 -0.579 3.444
-0.945 -0.58 3.451
-0.926 -0.58 3.459
-0.903 -0.579 3.456
-0.881 -0.578 3.454
-0.864 -0.58 3.472
-0.84 -0.578 3.464
-0.815 -0.574 3.447
-0.794 -0.574 3.447
-0.777 -0.576 3.466
-0.754 -0.574 3.459
-0.737 -0.576 3.476
-0.711 -0.572 3.455
-0.691 -0.573 3.461
-0.67 -0.572 3.46
-0.649 -0.571 3.459
-0.632 -0.573 3.476
-0.61 -0.572 3.473
-0.591 -0.573 3.479
-0.567 -0.569 3.462
-0.545 -0.568 3.454
-0.526 -0.568 3.461
-0.506 -0.568 3.462
-0.487 -0.569 3.471
-0.465 -0.567 3.464
-0.446 -0.568 3.472
-0.424 -0.565 3.455
-0.406 -0.569 3.481
-0.384 -0.566 3.465
-0.365 -0.567 3.471
-0.346 -0.568 3.482
-0.326 -0.569 3.487
-0.304 -0.565 3.465
-0.285 -0.567 3.482
-0.265 -0.566 3.476
-0.245 -0.566 3.478
-0.224 -0.566 3.474
-0.204 -0.565 3.475
-0.185 -0.567 3.484
-0.165 -0.566 3.481
-0.145 -0.567 3.484
-0.125 -0.566 3.483
-0.105 -0.565 3.474
-0.085 -0.566 3.484
-0.065 -0.566 3.484
-0.045 -0.566 3.483
-0.025 -0.567 3.491
-0.005 -0.566 3.487
0.014 -0.568 3.496
0.034 -0.566 3.485
0.054 -0.567 3.49
0.074 -0.567 3.489
0.094 -0.566 3.481
0.114 -0.568 3.495
0.133 -0.566 3.482
0.153 -0.566 3.479
0.173 -0.565 3.473
0.194 -0.568 3.494
0.213 -0.565 3.473
0.234 -0.568 3.492
0.254 -0.568 3.488
0.275 -0.57 3.497
0.294 -0.568 3.486
0.315 -0.569 3.494
0.334 -0.568 3.483
0.357 -0.573 3.512
0.375 -0.57 3.49
0.396 -0.571 3.497
0.417 -0.572 3.5
0.437 -0.572 3.499
0.456 -0.57 3.486
0.479 -0.573 3.503
0.498 -0.572 3.492
0.519 -0.573 3.496
0.538 -0.572 3.485
0.558 -0.572 3.481
0.578 -0.571 3.477
0.605 -0.578 3.514
0.623 -0.576 3.501
0.645 -0.577 3.504
0.665 -0.577 3.501
0.686 -0.577 3.497
0.708 -0.579 3.506
0.726 -0.577 3.489
0.748 -0.578 3.492
0.772 -0.581 3.504
0.791 -0.58 3.495
0.816 -0.583 3.509
0.839 -0.585 3.515
0.858 -0.584 3.506
0.88 -0.585 3.507
0.901 -0.585 3.503
0.922 -0.586 3.501
0.944 -0.586 3.498
0.971 -0.59 3.516
0.993 -0.591 3.517
1.012 -0.59 3.506
1.037 -0.592 3.513
1.063 -0.595 3.526
1.086 -0.596 3.527
1.099 -0.592 3.495
1.121 -0.592 3.492
1.154 -0.599 3.523
1.177 -0.599 3.522
1.197 -0.599 3.513
1.222 -0.601 3.518
1.245 -0.602 3.516
1.266 -0.602 3.508
1.297 -0.606 3.53
1.309 -0.602 3.498
1.339 -0.606 3.512
1.366 -0.609 3.521
1.392 -0.611 3.525
1.409 -0.609 3.506
1.434 -0.61 3.507
1.468 -0.615 3.528
1.494 -0.617 3.532
1.51 -0.615 3.509
1.535 -0.616 3.508
1.568 -0.621 3.526
1.597 -0.624 3.534
1.609 -0.62 3.504
1.651 -0.627 3.536
1.661 -0.623 3.501
1.699 -0.629 3.526
1.723 -0.629 3.521
1.753 -0.632 3.528
1.779 -0.633 3.524
1.805 -0.635 3.523
1.841 -0.639 3.538
1.868 -0.641 3.537
1.901 -0.645 3.546
1.91 -0.64 3.51
1.946 -0.644 3.523
1.975 -0.647 3.525
1.998 -0.647 3.514
-1.927 -0.604 3.401
-1.902 -0.604 3.407
-1.864 -0.598 3.388
-1.852 -0.602 3.417
-1.835 -0.603 3.436
-1.808 -0.602 3.437
-1.776 -0.598 3.428
-1.754 -0.598 3.437
-1.723 -0.595 3.43
-1.69 -0.591 3.416
-1.664 -0.59 3.416
-1.649 -0.592 3.44
-1.628 -0.592 3.448
-1.597 -0.589 3.439
-1.566 -0.585 3.425
-1.545 -0.585 3.435
-1.527 -0.587 3.452
-1.492 -0.581 3.428
-1.469 -0.581 3.433
-1.447 -0.58 3.438
-1.429 -0.581 3.453
-1.4 -0.578 3.444
-1.372 -0.575 3.434
-1.349 -0.574 3.434
-1.329 -0.575 3.445
-1.308 -0.575 3.454
-1.276 -0.57 3.43
-1.254 -0.57 3.435
-1.236 -0.571 3.448
-1.211 -0.569 3.443
-1.192 -0.57 3.457
-1.167 -0.568 3.45
-1.14 -0.565 3.437
-1.125 -0.567 3.46
-1.098 -0.564 3.446
-1.076 -0.563 3.447
-1.055 -0.563 3.452
-1.032 -0.562 3.452
-1.009 -0.561 3.448
-0.989 -0.561 3.453
-0.973 -0.564 3.477
-0.946 -0.56 3.459
-0.924 -0.558 3.455
-0.905 -0.56 3.466
-0.882 -0.558 3.463
-0.857 -0.555 3.448
-0.839 -0.556 3.46
-0.818 -0.556 3.464
-0.796 -0.555 3.459
-0.772 -0.553 3.45
-0.755 -0.554 3.465
-0.733 -0.553 3.462
-0.711 -0.552 3.456
-0.689 -0.551 3.453
-0.67 -0.551 3.46
-0.65 -0.552 3.468
-0.63 -0.551 3.468
-0.607 -0.549 3.457
-0.589 -0.551 3.472
-0.565 -0.547 3.454
-0.548 -0.55 3.473
-0.527 -0.549 3.47
-0.505 -0.547 3.461
-0.487 -0.549 3.475
-0.467 -0.55 3.483
-0.447 -0.549 3.481
-0.424 -0.546 3.461
-0.406 -0.548 3.48
-0.385 -0.548 3.477
-0.366 -0.548 3.483
-0.344 -0.545 3.466
-0.326 -0.549 3.492
-0.304 -0.545 3.468
-0.284 -0.546 3.473
-0.263 -0.544 3.462
-0.245 -0.547 3.487
-0.225 -0.547 3.487
-0.205 -0.547 3.486
-0.184 -0.545 3.477
-0.165 -0.546 3.486
-0.145 -0.548 3.495
-0.125 -0.547 3.491
-0.105 -0.544 3.474
-0.085 -0.544 3.474
-0.065 -0.544 3.476
-0.045 -0.544 3.474
-0.025 -0.547 3.493
-0.005 -0.548 3.5
0.014 -0.547 3.493
0.034 -0.546 3.485
0.054 -0.545 3.482
0.074 -0.547 3.493
0.094 -0.547 3.492
0.114 -0.547 3.49
0.134 -0.547 3.49
0.154 -0.548 3.5
0.173 -0.546 3.482
0.193 -0.546 3.484
0.214 -0.548 3.493
0.234 -0.548 3.497
0.253 -0.547 3.484
0.275 -0.55 3.505
0.295 -0.549 3.495
0.315 -0.55 3.499
0.336 -0.551 3.506
0.354 -0.548 3.487
0.377 -0.552 3.508
0.397 -0.552 3.508
