# .PCD v0.7 - Point Cloud Data file format
VERSION 0.7
FIELDS x y z d a
SIZE 4 4 4 4 4
TYPE F F F F F
COUNT 1 1 1 1 1
WIDTH 1712
HEIGHT 1
VIEWPOINT 0 0 0 1 0 0 0
POINTS 1712
DATA ascii
-0.094 0.247 1.43 1.468 165
-0.085 0.244 1.415 1.452 163
-0.077 0.245 1.422 1.459 168
-0.069 0.246 1.427 1.463 164
-0.06 0.245 1.419 1.455 150
-0.051 0.242 1.401 1.436 246
-0.043 0.239 1.385 1.42 430
-0.034 0.236 1.37 1.404 547
-0.026 0.236 1.368 1.402 611
-0.018 0.235 1.365 1.399 646
-0.011 0.234 1.36 1.394 701
-0.003 0.234 1.36 1.394 665
0.004 0.234 1.357 1.391 627
0.012 0.234 1.358 1.392 577
0.02 0.235 1.361 1.395 692
0.028 0.235 1.362 1.396 678
0.036 0.235 1.362 1.396 737
0.044 0.236 1.367 1.402 691
0.051 0.234 1.358 1.393 694
0.059 0.235 1.364 1.399 690
0.067 0.235 1.36 1.395 660
0.075 0.236 1.365 1.401 603
0.083 0.236 1.367 1.403 511
0.092 0.239 1.384 1.421 373
0.107 0.255 1.48 1.519 170
0.122 0.268 1.555 1.597 138
0.131 0.269 1.559 1.601 141
0.14 0.268 1.555 1.598 143
0.149 0.269 1.558 1.602 143
0.16 0.273 1.579 1.625 141
0.171 0.276 1.595 1.642 136
0.182 0.277 1.602 1.65 135
0.19 0.275 1.591 1.64 138
0.198 0.274 1.583 1.632 136
0.211 0.28 1.613 1.665 135
0.22 0.279 1.61 1.662 135
0.23 0.28 1.614 1.668 132
0.239 0.279 1.606 1.661 129
0.253 0.284 1.637 1.694 132
0.261 0.283 1.628 1.687 133
0.271 0.284 1.631 1.691 131
0.285 0.287 1.65 1.713 130
0.294 0.287 1.645 1.709 127
0.3 0.283 1.624 1.69 127
0.311 0.285 1.635 1.702 126
0.324 0.288 1.649 1.719 128
0.34 0.294 1.68 1.753 125
0.344 0.289 1.649 1.723 124
0.356 0.291 1.657 1.733 126
0.373 0.296 1.689 1.769 121
0.381 0.295 1.679 1.761 127
0.393 0.297 1.687 1.771 133
0.402 0.296 1.679 1.765 139
0.416 0.299 1.696 1.785 154
0.421 0.296 1.674 1.765 155
0.431 0.295 1.669 1.762 152
0.44 0.295 1.665 1.761 161
0.442 0.29 1.634 1.731 151
0.444 0.285 1.604 1.702 153
0.452 0.284 1.596 1.697 162
0.443 0.273 1.529 1.629 177
0.452 0.272 1.525 1.627 193
0.45 0.266 1.485 1.588 227
0.437 0.253 1.413 1.514 340
0.43 0.244 1.36 1.46 514
0.435 0.243 1.348 1.451 627
0.44 0.241 1.335 1.44 684
0.448 0.241 1.336 1.443 662
0.457 0.242 1.334 1.444 640
0.465 0.242 1.333 1.446 631
0.474 0.242 1.332 1.448 643
0.484 0.243 1.334 1.453 642
0.491 0.242 1.328 1.45 642
0.5 0.243 1.328 1.453 630
0.507 0.242 1.323 1.451 595
0.515 0.242 1.32 1.451 500
0.534 0.248 1.346 1.483 204
0.635 0.289 1.573 1.735 66
0.653 0.293 1.591 1.758 65
0.673 0.298 1.611 1.784 58
0.675 0.294 1.587 1.763 57
0.688 0.295 1.591 1.772 60
0.709 0.3 1.614 1.802 59
0.731 0.305 1.636 1.831 61
0.733 0.302 1.613 1.811 61
0.75 0.305 1.625 1.829 56
0.737 0.295 1.571 1.773 58
0.768 0.304 1.612 1.825 60
0.78 0.304 1.612 1.83 62
0.799 0.308 1.624 1.849 59
0.814 0.31 1.63 1.862 57
0.845 0.317 1.667 1.909 58
0.837 0.31 1.626 1.868 57
0.837 0.307 1.601 1.846 56
0.854 0.309 1.608 1.86 53
0.871 0.311 1.617 1.876 52
0.915 0.323 1.673 1.947 50
0.889 0.311 1.602 1.872 49
0.905 0.312 1.606 1.882 49
0.972 0.331 1.701 2 47
-0.578 0.204 1.005 1.189 205
-0.573 0.205 1.012 1.192 207
-0.571 0.206 1.022 1.2 203
-0.561 0.205 1.021 1.194 197
-0.552 0.205 1.019 1.189 195
-0.549 0.206 1.028 1.195 192
-0.541 0.205 1.029 1.192 192
-0.537 0.206 1.037 1.198 191
-0.534 0.208 1.048 1.207 189
-0.527 0.208 1.049 1.204 194
-0.518 0.207 1.047 1.198 189
-0.513 0.208 1.055 1.203 187
-0.504 0.206 1.051 1.196 181
-0.503 0.209 1.067 1.209 172
-0.495 0.208 1.067 1.206 174
-0.488 0.208 1.069 1.206 180
-0.492 0.213 1.097 1.234 177
-0.48 0.21 1.087 1.219 175
-0.473 0.211 1.09 1.219 181
-0.466 0.211 1.092 1.218 180
-0.461 0.211 1.1 1.224 174
-0.459 0.213 1.113 1.234 174
-0.455 0.215 1.124 1.244 175
-0.446 0.214 1.12 1.237 177
-0.436 0.212 1.114 1.227 172
-0.433 0.214 1.127 1.238 178
-0.422 0.212 1.119 1.227 173
-0.421 0.215 1.138 1.244 172
-0.413 0.215 1.136 1.24 176
-0.405 0.214 1.135 1.237 178
-0.409 0.22 1.169 1.27 181
-0.412 0.226 1.203 1.304 222
-0.413 0.23 1.229 1.329 253
-0.409 0.232 1.242 1.341 266
-0.402 0.233 1.247 1.343 277
-0.396 0.234 1.254 1.348 277
-0.389 0.234 1.257 1.349 282
-0.384 0.235 1.267 1.358 278
-0.376 0.235 1.268 1.356 278
-0.367 0.234 1.265 1.35 284
-0.361 0.235 1.274 1.358 286
-0.352 0.235 1.272 1.354 273
-0.342 0.233 1.264 1.343 252
-0.335 0.233 1.266 1.343 220
-0.33 0.235 1.281 1.356 210
-0.322 0.235 1.279 1.353 203
-0.312 0.233 1.27 1.341 200
-0.306 0.234 1.279 1.349 190
-0.298 0.234 1.279 1.347 179
-0.287 0.231 1.265 1.331 176
-0.282 0.233 1.277 1.341 177
-0.276 0.235 1.289 1.352 177
-0.271 0.237 1.301 1.363 173
-0.264 0.237 1.304 1.364 175
-0.257 0.238 1.311 1.37 171
-0.25 0.239 1.318 1.376 172
-0.243 0.24 1.323 1.379 171
-0.236 0.24 1.325 1.381 170
-0.229 0.241 1.331 1.386 165
-0.221 0.241 1.334 1.387 165
-0.213 0.241 1.334 1.386 168
-0.205 0.24 1.33 1.38 166
-0.199 0.242 1.346 1.395 170
-0.19 0.241 1.339 1.387 167
-0.184 0.244 1.355 1.403 168
-0.176 0.243 1.354 1.4 171
-0.168 0.243 1.354 1.4 166
-0.16 0.243 1.353 1.398 167
-0.154 0.246 1.372 1.416 163
-0.146 0.245 1.367 1.41 164
-0.138 0.245 1.367 1.409 165
-0.131 0.248 1.385 1.427 163
-0.121 0.244 1.362 1.402 165
-0.115 0.247 1.383 1.423 165
-0.108 0.249 1.393 1.432 171
-0.099 0.248 1.386 1.425 166
-0.091 0.247 1.382 1.421 171
-0.082 0.246 1.378 1.416 172
-0.075 0.248 1.387 1.424 179
-0.067 0.247 1.387 1.424 178
-0.058 0.244 1.367 1.403 174
-0.05 0.246 1.377 1.413 235
-0.042 0.245 1.373 1.409 299
-0.034 0.244 1.37 1.405 359
-0.026 0.244 1.37 1.405 400
-0.019 0.244 1.368 1.403 434
-0.011 0.245 1.373 1.408 498
-0.003 0.243 1.362 1.397 541
0.004 0.242 1.355 1.39 537
0.012 0.242 1.359 1.394 540
0.02 0.242 1.354 1.389 629
0.028 0.243 1.361 1.397 689
0.035 0.242 1.355 1.391 772
0.043 0.242 1.358 1.393 703
0.051 0.242 1.357 1.393 707
0.059 0.242 1.358 1.395 696
0.067 0.242 1.355 1.392 652
0.075 0.242 1.356 1.393 593
0.083 0.244 1.367 1.404 501
0.093 0.249 1.394 1.433 350
0.108 0.266 1.493 1.534 170
0.119 0.27 1.514 1.557 151
0.128 0.272 1.523 1.566 153
0.136 0.27 1.513 1.557 153
0.146 0.271 1.518 1.563 154
0.157 0.276 1.545 1.592 154
0.165 0.275 1.535 1.582 157
0.173 0.273 1.526 1.574 154
0.186 0.279 1.558 1.608 147
0.195 0.279 1.559 1.61 145
0.205 0.28 1.561 1.613 147
0.216 0.283 1.576 1.629 147
0.223 0.28 1.561 1.616 146
0.235 0.284 1.579 1.636 145
0.247 0.287 1.596 1.655 142
0.253 0.284 1.577 1.636 141
0.265 0.287 1.593 1.654 139
0.275 0.287 1.595 1.658 139
0.287 0.29 1.607 1.671 139
0.293 0.287 1.588 1.653 141
0.304 0.288 1.595 1.663 137
0.313 0.288 1.593 1.663 140
0.328 0.293 1.619 1.692 139
0.333 0.289 1.592 1.666 138
0.343 0.29 1.598 1.673 137
0.356 0.293 1.612 1.691 137
0.372 0.297 1.635 1.717 138
0.38 0.296 1.627 1.71 139
0.385 0.293 1.608 1.694 147
0.407 0.302 1.655 1.744 156
0.412 0.299 1.635 1.726 159
0.426 0.302 1.651 1.746 163
0.426 0.295 1.61 1.705 167
0.436 0.295 1.609 1.707 166
0.441 0.292 1.589 1.688 160
0.448 0.291 1.578 1.68 175
0.446 0.283 1.536 1.638 184
0.452 0.281 1.523 1.627 198
0.449 0.274 1.481 1.585 241
0.433 0.259 1.397 1.499 382
0.429 0.252 1.357 1.459 547
0.433 0.25 1.343 1.447 650
0.442 0.25 1.341 1.448 686
0.449 0.25 1.337 1.446 667
0.456 0.249 1.331 1.442 643
0.466 0.25 1.332 1.447 638
0.476 0.252 1.337 1.455 645
0.481 0.25 1.325 1.445 646
0.492 0.251 1.331 1.455 643
0.501 0.252 1.33 1.457 629
0.508 0.251 1.324 1.454 576
0.516 0.251 1.321 1.453 455
0.545 0.261 1.371 1.511 146
0.627 0.295 1.552 1.713 68
0.625 0.29 1.52 1.683 68
0.661 0.302 1.58 1.753 63
0.655 0.295 1.539 1.712 60
0.691 0.307 1.597 1.78 62
0.702 0.307 1.596 1.783 62
0.687 0.297 1.536 1.722 62
0.712 0.303 1.566 1.76 63
0.71 0.298 1.536 1.731 57
0.737 0.305 1.57 1.774 53
0.756 0.309 1.586 1.797 60
0.786 0.317 1.621 1.842 57
0.774 0.308 1.572 1.793 56
0.805 0.317 1.611 1.842 58
0.824 0.32 1.624 1.862 57
0.813 0.312 1.576 1.814 52
0.822 0.311 1.569 1.812 53
0.81 0.303 1.523 1.764 54
0.856 0.316 1.586 1.843 54
0.86 0.314 1.57 1.831 49
0.885 0.319 1.592 1.862 50
0.918 0.328 1.629 1.911 43
0.934 0.329 1.633 1.923 42
-0.57 0.208 0.99 1.172 222
-0.564 0.208 0.995 1.174 217
-0.557 0.208 0.996 1.171 211
-0.544 0.206 0.988 1.158 205
-0.546 0.209 1.006 1.175 202
-0.539 0.209 1.008 1.173 206
-0.537 0.21 1.02 1.183 204
-0.529 0.21 1.02 1.18 205
-0.527 0.212 1.032 1.189 202
-0.517 0.21 1.028 1.181 202
-0.517 0.213 1.044 1.196 202
-0.508 0.212 1.043 1.191 199
-0.499 0.211 1.04 1.184 193
-0.494 0.212 1.047 1.189 193
-0.486 0.211 1.047 1.186 190
-0.482 0.212 1.055 1.191 186
-0.475 0.212 1.058 1.191 186
-0.473 0.214 1.071 1.203 189
-0.471 0.216 1.084 1.214 189
-0.456 0.213 1.068 1.193 188
-0.453 0.214 1.078 1.2 186
-0.449 0.216 1.087 1.208 183
-0.446 0.217 1.099 1.218 184
-0.433 0.215 1.087 1.202 183
-0.429 0.216 1.095 1.208 178
-0.421 0.215 1.094 1.204 179
-0.416 0.216 1.103 1.211 183
-0.416 0.22 1.122 1.229 181
-0.407 0.218 1.118 1.222 178
-0.404 0.221 1.132 1.235 185
-0.398 0.221 1.138 1.238 188
-0.407 0.23 1.185 1.287 225
-0.409 0.235 1.215 1.316 251
-0.402 0.236 1.219 1.318 266
-0.398 0.238 1.234 1.331 270
-0.389 0.237 1.229 1.324 277
-0.381 0.237 1.23 1.322 281
-0.377 0.239 1.243 1.334 273
-0.369 0.239 1.245 1.333 279
-0.362 0.239 1.249 1.335 284
-0.354 0.238 1.248 1.332 286
-0.348 0.239 1.254 1.336 270
-0.339 0.238 1.252 1.332 253
-0.328 0.236 1.239 1.316 223
-0.324 0.238 1.255 1.33 213
-0.313 0.236 1.243 1.317 204
-0.306 0.236 1.245 1.317 198
-0.298 0.236 1.245 1.315 188
-0.295 0.239 1.263 1.332 181
-0.285 0.237 1.256 1.322 183
-0.275 0.234 1.244 1.308 183
-0.269 0.236 1.254 1.317 181
-0.262 0.237 1.258 1.32 179
-0.258 0.239 1.273 1.334 178
-0.252 0.241 1.286 1.346 179
-0.246 0.242 1.292 1.351 178
-0.237 0.241 1.289 1.346 174
-0.231 0.242 1.295 1.351 171
-0.225 0.245 1.309 1.363 174
-0.215 0.242 1.294 1.347 173
-0.207 0.241 1.291 1.343 172
-0.202 0.245 1.312 1.364 170
-0.196 0.247 1.326 1.376 171
-0.185 0.243 1.305 1.353 168
-0.18 0.246 1.324 1.372 169
-0.173 0.246 1.326 1.373 171
-0.164 0.245 1.321 1.367 169
-0.157 0.246 1.329 1.374 168
-0.149 0.246 1.324 1.368 166
-0.144 0.25 1.349 1.393 171
-0.136 0.25 1.352 1.396 172
-0.127 0.248 1.34 1.383 173
-0.12 0.249 1.344 1.385 169
-0.111 0.248 1.34 1.38 175
-0.105 0.251 1.36 1.401 175
-0.098 0.253 1.369 1.409 175
-0.09 0.252 1.365 1.405 177
-0.082 0.253 1.368 1.407 178
-0.073 0.248 1.345 1.383 181
-0.066 0.253 1.372 1.411 183
-0.058 0.251 1.362 1.4 188
-0.05 0.252 1.364 1.401 253
-0.042 0.25 1.358 1.396 295
-0.034 0.25 1.358 1.395 318
-0.026 0.25 1.358 1.395 324
-0.018 0.251 1.359 1.396 327
-0.011 0.25 1.356 1.393 336
-0.003 0.251 1.36 1.397 339
0.004 0.251 1.363 1.4 342
0.012 0.249 1.352 1.388 357
0.02 0.251 1.359 1.396 390
0.028 0.251 1.36 1.397 433
0.036 0.252 1.365 1.402 462
0.044 0.252 1.365 1.402 482
0.051 0.251 1.358 1.396 535
0.059 0.25 1.357 1.395 578
0.067 0.251 1.358 1.396 585
0.075 0.251 1.358 1.396 535
0.083 0.252 1.366 1.406 469
0.093 0.258 1.396 1.436 304
0.106 0.269 1.46 1.502 176
0.117 0.274 1.486 1.529 171
0.126 0.277 1.501 1.545 171
0.136 0.278 1.504 1.549 166
0.144 0.277 1.499 1.545 163
0.154 0.279 1.51 1.557 163
0.164 0.281 1.521 1.57 163
0.171 0.279 1.508 1.557 161
0.18 0.279 1.509 1.559 158
0.19 0.281 1.516 1.567 161
0.199 0.282 1.519 1.572 158
0.209 0.282 1.522 1.576 156
0.22 0.286 1.54 1.595 154
0.229 0.285 1.537 1.594 156
0.238 0.286 1.54 1.598 156
0.246 0.284 1.528 1.587 153
0.261 0.291 1.563 1.625 154
0.27 0.291 1.562 1.625 152
0.28 0.292 1.568 1.633 152
0.287 0.29 1.554 1.62 151
0.3 0.294 1.574 1.643 149
0.309 0.293 1.568 1.639 151
0.32 0.295 1.578 1.651 149
0.328 0.294 1.571 1.646 152
0.336 0.293 1.56 1.637 148
0.352 0.299 1.593 1.672 151
0.363 0.3 1.597 1.679 151
0.372 0.3 1.591 1.675 153
0.387 0.304 1.612 1.699 158
0.392 0.3 1.591 1.68 168
0.407 0.305 1.614 1.706 166
0.417 0.305 1.614 1.708 173
0.423 0.303 1.597 1.693 177
0.429 0.3 1.58 1.679 179
0.434 0.297 1.563 1.663 175
0.44 0.295 1.551 1.653 179
0.449 0.295 1.546 1.651 190
0.447 0.288 1.505 1.61 204
0.443 0.279 1.459 1.563 256
0.429 0.265 1.383 1.486 419
0.429 0.26 1.355 1.458 561
0.433 0.258 1.339 1.444 667
0.44 0.258 1.335 1.443 684
0.447 0.257 1.329 1.439 663
0.457 0.258 1.332 1.445 642
0.467 0.259 1.336 1.453 650
0.474 0.259 1.331 1.45 646
0.485 0.26 1.335 1.457 649
0.49 0.258 1.323 1.447 634
0.501 0.26 1.329 1.458 607
0.51 0.26 1.327 1.459 555
0.518 0.26 1.326 1.461 396
0.559 0.276 1.406 1.552 111
0.604 0.294 1.492 1.65 72
0.624 0.299 1.516 1.68 67
0.635 0.3 1.517 1.685 69
0.641 0.298 1.505 1.676 67
0.663 0.304 1.53 1.709 63
0.662 0.299 1.502 1.681 65
0.699 0.311 1.561 1.752 68
0.723 0.318 1.589 1.788 65
0.706 0.306 1.527 1.723 66
0.715 0.306 1.521 1.722 64
0.722 0.305 1.511 1.716 63
0.747 0.311 1.54 1.752 61
0.739 0.304 1.499 1.711 63
0.758 0.308 1.513 1.733 59
0.772 0.309 1.517 1.743 56
0.781 0.309 1.514 1.744 57
0.801 0.313 1.528 1.766 57
0.819 0.316 1.538 1.784 55
0.825 0.315 1.528 1.778 54
0.823 0.311 1.502 1.753 60
0.86 0.32 1.545 1.81 55
0.89 0.328 1.576 1.852 52
0.892 0.325 1.556 1.835 50
-0.563 0.212 0.976 1.158 228
-0.551 0.21 0.969 1.145 225
-0.55 0.212 0.982 1.156 218
-0.544 0.212 0.986 1.157 216
-0.533 0.21 0.981 1.147 215
-0.532 0.212 0.993 1.158 212
-0.523 0.212 0.993 1.153 210
-0.519 0.212 0.999 1.157 213
-0.51 0.211 0.998 1.152 210
-0.506 0.212 1.004 1.156 209
-0.5 0.213 1.009 1.158 207
-0.499 0.215 1.023 1.17 208
-0.491 0.214 1.022 1.165 204
-0.484 0.214 1.025 1.165 203
-0.478 0.214 1.029 1.167 196
-0.471 0.214 1.029 1.163 198
-0.471 0.217 1.046 1.179 195
-0.464 0.217 1.049 1.179 205
-0.454 0.215 1.043 1.17 201
-0.448 0.215 1.046 1.17 198
-0.45 0.22 1.07 1.194 194
-0.437 0.217 1.057 1.177 192
-0.433 0.218 1.067 1.184 194
-0.426 0.218 1.066 1.181 191
-0.424 0.22 1.082 1.195 190
-0.416 0.219 1.08 1.191 188
-0.409 0.219 1.082 1.19 186
-0.406 0.221 1.093 1.199 186
-0.405 0.224 1.113 1.218 189
-0.397 0.224 1.111 1.213 190
-0.395 0.226 1.126 1.226 198
-0.402 0.235 1.171 1.273 230
-0.396 0.235 1.177 1.276 250
-0.398 0.24 1.205 1.304 271
-0.389 0.24 1.203 1.299 275
-0.384 0.241 1.214 1.309 279
-0.377 0.241 1.215 1.307 284
-0.37 0.241 1.218 1.309 281
-0.365 0.243 1.228 1.317 281
-0.357 0.243 1.228 1.315 282
-0.35 0.243 1.233 1.318 285
-0.343 0.243 1.235 1.318 269
-0.333 0.242 1.228 1.308 252
-0.325 0.241 1.226 1.304 228
-0.315 0.239 1.217 1.293 213
-0.308 0.239 1.222 1.296 206
-0.303 0.241 1.233 1.305 198
-0.294 0.239 1.225 1.295 193
-0.286 0.239 1.223 1.291 189
-0.279 0.239 1.226 1.292 187
-0.271 0.239 1.228 1.293 184
-0.266 0.241 1.237 1.302 186
-0.258 0.24 1.237 1.3 187
-0.254 0.243 1.252 1.313 186
-0.246 0.242 1.251 1.311 184
-0.236 0.239 1.236 1.294 186
-0.233 0.244 1.263 1.32 180
-0.224 0.243 1.258 1.314 182
-0.217 0.243 1.258 1.313 181
-0.211 0.245 1.27 1.323 178
-0.201 0.242 1.256 1.308 179
-0.197 0.246 1.279 1.33 178
-0.189 0.245 1.272 1.322 174
-0.183 0.247 1.287 1.337 177
-0.176 0.248 1.291 1.34 171
-0.169 0.248 1.293 1.341 176
-0.163 0.251 1.309 1.357 176
-0.154 0.249 1.301 1.347 174
-0.149 0.253 1.323 1.369 170
-0.14 0.251 1.312 1.357 171
-0.133 0.252 1.317 1.361 175
-0.126 0.253 1.322 1.365 175
-0.117 0.25 1.31 1.352 177
-0.11 0.253 1.324 1.366 178
-0.103 0.253 1.325 1.367 177
-0.095 0.253 1.326 1.367 177
-0.088 0.255 1.337 1.378 180
-0.08 0.254 1.33 1.369 180
-0.072 0.254 1.333 1.373 180
-0.065 0.254 1.335 1.374 183
-0.057 0.254 1.334 1.373 193
-0.05 0.257 1.349 1.387 254
-0.042 0.256 1.345 1.384 289
-0.034 0.255 1.34 1.378 321
-0.026 0.256 1.344 1.382 350
-0.018 0.255 1.341 1.379 372
-0.01 0.255 1.341 1.379 362
-0.003 0.256 1.343 1.381 355
0.004 0.257 1.35 1.387 337
0.012 0.255 1.341 1.379 353
0.02 0.256 1.346 1.384 359
0.027 0.256 1.345 1.383 369
0.035 0.257 1.351 1.39 353
0.043 0.257 1.352 1.39 337
0.051 0.259 1.362 1.401 333
0.059 0.259 1.362 1.401 336
0.068 0.261 1.372 1.412 335
0.075 0.26 1.366 1.407 326
0.084 0.262 1.375 1.416 300
0.093 0.264 1.385 1.427 233
0.104 0.273 1.434 1.478 181
0.113 0.275 1.441 1.485 174
0.122 0.277 1.451 1.496 172
0.132 0.28 1.465 1.512 169
0.141 0.28 1.468 1.515 171
0.149 0.278 1.458 1.506 171
0.159 0.281 1.473 1.522 170
0.17 0.285 1.494 1.544 168
0.175 0.28 1.462 1.513 172
0.187 0.285 1.492 1.544 170
0.198 0.289 1.508 1.562 168
0.205 0.286 1.492 1.547 165
0.215 0.288 1.501 1.557 166
0.222 0.286 1.493 1.55 166
0.233 0.288 1.501 1.559 165
0.245 0.292 1.522 1.583 166
0.25 0.288 1.498 1.559 166
0.263 0.292 1.519 1.583 165
0.269 0.29 1.503 1.568 160
0.281 0.293 1.517 1.584 164
0.294 0.297 1.54 1.61 161
0.305 0.299 1.546 1.618 162
0.311 0.296 1.528 1.601 161
0.32 0.296 1.527 1.602 161
0.33 0.297 1.531 1.608 163
0.346 0.303 1.562 1.642 159
0.349 0.298 1.533 1.614 163
0.361 0.3 1.545 1.628 166
0.381 0.309 1.587 1.675 175
0.384 0.304 1.56 1.649 181
0.393 0.304 1.556 1.647 182
0.404 0.305 1.561 1.654 178
0.415 0.306 1.563 1.66 185
0.422 0.305 1.555 1.653 190
0.428 0.302 1.54 1.64 193
0.433 0.3 1.523 1.625 191
0.441 0.299 1.517 1.622 200
0.443 0.294 1.491 1.597 219
0.437 0.285 1.439 1.544 282
0.427 0.273 1.376 1.48 464
0.429 0.269 1.353 1.458 596
0.433 0.267 1.34 1.447 683
0.441 0.266 1.336 1.445 674
0.449 0.266 1.334 1.446 662
0.46 0.268 1.339 1.455 645
0.468 0.268 1.335 1.454 651
0.476 0.267 1.332 1.453 641
0.484 0.267 1.33 1.453 636
0.492 0.267 1.327 1.454 623
0.501 0.268 1.327 1.457 599
0.508 0.267 1.32 1.453 550
0.521 0.27 1.332 1.469 330
0.566 0.289 1.422 1.572 92
0.614 0.308 1.515 1.676 74
0.607 0.3 1.472 1.634 75
0.615 0.3 1.467 1.632 75
0.66 0.317 1.548 1.725 70
0.683 0.323 1.575 1.76 70
0.663 0.309 1.504 1.686 72
0.671 0.309 1.498 1.683 71
0.7 0.318 1.537 1.732 70
0.703 0.314 1.518 1.715 71
0.708 0.313 1.505 1.706 71
0.716 0.312 1.498 1.703 66
0.702 0.302 1.445 1.648 64
0.752 0.319 1.523 1.742 67
0.759 0.318 1.514 1.736 63
0.771 0.319 1.514 1.741 66
0.775 0.317 1.5 1.731 65
0.78 0.315 1.486 1.721 64
0.804 0.32 1.509 1.752 62
0.804 0.317 1.486 1.732 63
0.841 0.327 1.533 1.792 61
0.831 0.32 1.492 1.75 63
0.851 0.324 1.506 1.773 60
0.877 0.329 1.529 1.806 60
-0.545 0.211 0.944 1.121 240
-0.547 0.214 0.96 1.137 235
-0.536 0.213 0.955 1.127 234
-0.54 0.217 0.978 1.15 230
-0.535 0.218 0.984 1.152 228
-0.522 0.215 0.973 1.136 228
-0.517 0.215 0.979 1.139 227
-0.512 0.216 0.986 1.143 226
-0.507 0.217 0.991 1.145 221
-0.497 0.215 0.985 1.135 219
-0.499 0.219 1.006 1.156 216
-0.494 0.219 1.011 1.158 223
-0.48 0.216 0.998 1.14 216
-0.483 0.22 1.02 1.162 215
-0.476 0.22 1.023 1.162 214
-0.464 0.217 1.012 1.146 217
-0.457 0.217 1.015 1.146 213
-0.453 0.218 1.021 1.15 213
-0.448 0.219 1.029 1.156 212
-0.447 0.221 1.042 1.168 207
-0.437 0.22 1.036 1.158 207
-0.427 0.218 1.032 1.15 205
-0.426 0.221 1.048 1.165 201
-0.419 0.22 1.047 1.161 204
-0.412 0.22 1.049 1.161 197
-0.413 0.224 1.07 1.181 197
-0.404 0.223 1.068 1.176 198
-0.405 0.227 1.089 1.196 193
-0.395 0.226 1.083 1.187 192
-0.387 0.225 1.082 1.184 198
-0.391 0.231 1.116 1.217 207
-0.393 0.236 1.143 1.244 241
-0.392 0.24 1.163 1.263 259
-0.391 0.243 1.182 1.281 271
-0.383 0.243 1.182 1.279 277
-0.375 0.243 1.183 1.278 279
-0.373 0.246 1.203 1.296 282
-0.364 0.245 1.197 1.287 285
-0.358 0.246 1.205 1.293 285
-0.351 0.246 1.208 1.295 290
-0.345 0.247 1.213 1.298 284
-0.337 0.246 1.212 1.295 272
-0.327 0.244 1.203 1.284 256
-0.318 0.243 1.2 1.278 229
-0.315 0.246 1.216 1.292 218
-0.301 0.241 1.193 1.267 209
-0.294 0.241 1.193 1.265 203
-0.288 0.242 1.198 1.268 203
-0.279 0.24 1.193 1.261 198
-0.275 0.243 1.208 1.276 197
-0.268 0.243 1.208 1.274 196
-0.259 0.242 1.205 1.269 189
-0.252 0.242 1.207 1.269 192
-0.251 0.248 1.239 1.302 189
-0.242 0.246 1.231 1.292 193
-0.235 0.246 1.231 1.29 192
-0.224 0.242 1.214 1.272 192
-0.221 0.247 1.239 1.296 190
-0.213 0.246 1.233 1.289 187
-0.207 0.248 1.245 1.299 184
-0.199 0.247 1.241 1.294 184
-0.194 0.249 1.253 1.306 183
-0.186 0.249 1.254 1.306 180
-0.18 0.25 1.262 1.313 180
-0.174 0.252 1.274 1.323 182
-0.165 0.251 1.266 1.315 181
-0.158 0.25 1.265 1.313 183
-0.152 0.253 1.277 1.324 176
-0.144 0.252 1.275 1.321 177
-0.137 0.253 1.281 1.327 179
-0.13 0.253 1.282 1.327 181
-0.123 0.255 1.292 1.336 180
-0.116 0.255 1.296 1.339 179
-0.109 0.256 1.3 1.343 179
-0.101 0.256 1.302 1.344 179
-0.093 0.256 1.301 1.343 182
-0.086 0.258 1.309 1.35 180
-0.079 0.258 1.313 1.355 181
-0.071 0.257 1.306 1.347 170
-0.064 0.26 1.321 1.362 156
-0.056 0.258 1.312 1.352 201
-0.049 0.26 1.321 1.36 258
-0.041 0.259 1.316 1.356 287
-0.034 0.261 1.33 1.37 324
-0.026 0.259 1.321 1.36 366
-0.018 0.262 1.336 1.375 393
-0.01 0.259 1.319 1.358 373
-0.003 0.262 1.336 1.376 358
0.004 0.261 1.332 1.371 334
0.012 0.263 1.341 1.381 370
0.02 0.264 1.344 1.384 387
0.027 0.263 1.338 1.378 498
0.035 0.261 1.331 1.37 453
0.043 0.263 1.337 1.377 400
0.051 0.263 1.34 1.38 396
0.058 0.263 1.339 1.38 374
0.066 0.263 1.341 1.382 329
0.075 0.266 1.352 1.393 300
0.082 0.265 1.347 1.389 276
0.091 0.267 1.359 1.401 222
0.1 0.272 1.381 1.425 186
0.109 0.273 1.388 1.432 181
0.116 0.272 1.38 1.425 173
0.126 0.275 1.398 1.444 174
0.134 0.275 1.394 1.441 169
0.145 0.28 1.42 1.469 173
0.155 0.284 1.44 1.49 169
0.163 0.282 1.432 1.482 168
0.172 0.284 1.438 1.489 168
0.181 0.284 1.44 1.493 167
0.194 0.292 1.48 1.535 170
0.202 0.291 1.473 1.529 168
0.209 0.289 1.46 1.517 170
0.221 0.293 1.48 1.539 173
0.23 0.294 1.483 1.543 171
0.237 0.292 1.472 1.533 172
0.249 0.296 1.489 1.552 173
0.258 0.296 1.49 1.555 175
0.268 0.298 1.497 1.564 172
0.279 0.3 1.506 1.575 176
0.288 0.3 1.505 1.575 172
0.295 0.298 1.497 1.568 168
0.307 0.302 1.511 1.585 171
0.315 0.301 1.505 1.58 169
0.326 0.302 1.513 1.59 169
0.331 0.299 1.494 1.573 170
0.346 0.304 1.519 1.601 171
0.357 0.306 1.523 1.607 178
0.37 0.309 1.538 1.625 183
0.374 0.305 1.515 1.603 184
0.388 0.309 1.534 1.626 185
0.4 0.311 1.543 1.638 190
0.408 0.31 1.536 1.633 190
0.415 0.309 1.528 1.627 201
0.417 0.304 1.498 1.598 214
0.427 0.304 1.5 1.603 210
0.434 0.303 1.491 1.596 210
0.434 0.297 1.458 1.563 231
0.436 0.292 1.432 1.539 311
0.423 0.278 1.362 1.467 499
0.428 0.276 1.348 1.454 618
0.433 0.274 1.337 1.446 689
0.44 0.274 1.332 1.443 675
0.448 0.274 1.33 1.443 658
0.459 0.276 1.336 1.453 637
0.466 0.275 1.328 1.448 638
0.478 0.277 1.337 1.46 644
0.484 0.276 1.33 1.455 642
0.494 0.277 1.331 1.46 635
0.502 0.277 1.329 1.461 602
0.511 0.277 1.328 1.463 526
0.521 0.278 1.329 1.467 259
0.569 0.299 1.428 1.58 90
0.586 0.303 1.444 1.601 79
0.615 0.313 1.49 1.655 82
0.618 0.31 1.472 1.639 81
0.618 0.306 1.447 1.617 75
0.627 0.306 1.444 1.617 75
0.653 0.314 1.478 1.66 75
0.644 0.305 1.435 1.615 72
0.662 0.31 1.451 1.638 74
0.681 0.314 1.468 1.662 76
0.686 0.312 1.456 1.652 78
0.709 0.318 1.481 1.686 74
0.733 0.325 1.507 1.72 77
0.738 0.323 1.494 1.711 70
0.743 0.321 1.481 1.701 73
0.766 0.326 1.503 1.732 68
0.765 0.322 1.479 1.709 70
0.769 0.32 1.462 1.696 67
0.779 0.32 1.459 1.698 68
0.787 0.319 1.452 1.695 66
0.812 0.325 1.477 1.729 67
0.819 0.324 1.467 1.724 69
0.831 0.326 1.468 1.731 65
0.826 0.32 1.438 1.702 66
-0.539 0.215 0.931 1.108 255
-0.532 0.215 0.933 1.106 251
-0.531 0.217 0.946 1.117 244
-0.523 0.217 0.946 1.114 251
-0.518 0.217 0.95 1.115 241
-0.511 0.216 0.951 1.113 247
-0.512 0.219 0.968 1.128 244
-0.504 0.219 0.967 1.124 244
-0.498 0.219 0.971 1.124 240
-0.494 0.22 0.978 1.129 240
-0.485 0.219 0.975 1.122 237
-0.479 0.219 0.979 1.123 234
-0.477 0.221 0.99 1.132 234
-0.47 0.22 0.991 1.131 234
-0.464 0.221 0.996 1.132 231
-0.458 0.221 0.998 1.132 229
-0.453 0.222 1.004 1.136 226
-0.448 0.222 1.009 1.138 222
-0.445 0.224 1.019 1.146 220
-0.436 0.222 1.015 1.139 218
-0.431 0.223 1.022 1.144 218
-0.424 0.223 1.023 1.142 218
-0.415 0.222 1.018 1.134 215
-0.413 0.224 1.031 1.145 212
-0.409 0.225 1.041 1.154 206
-0.4 0.224 1.035 1.144 206
-0.398 0.226 1.049 1.157 207
-0.392 0.226 1.053 1.158 205
-0.39 0.229 1.067 1.172 207
-0.385 0.23 1.075 1.178 210
-0.381 0.232 1.085 1.186 223
-0.39 0.242 1.133 1.235 256
-0.389 0.245 1.153 1.253 273
-0.382 0.245 1.154 1.253 281
-0.381 0.249 1.176 1.273 282
-0.375 0.25 1.18 1.275 286
-0.368 0.25 1.184 1.277 288
-0.361 0.25 1.187 1.279 283
-0.352 0.249 1.183 1.272 291
-0.347 0.25 1.19 1.277 295
-0.337 0.248 1.184 1.268 290
-0.331 0.249 1.19 1.273 277
-0.322 0.248 1.184 1.264 261
-0.311 0.245 1.171 1.249 241
-0.303 0.244 1.169 1.246 226
-0.297 0.245 1.174 1.248 218
-0.289 0.244 1.173 1.245 211
-0.284 0.246 1.181 1.252 205
-0.276 0.244 1.177 1.246 204
-0.27 0.245 1.183 1.251 202
-0.263 0.246 1.186 1.252 203
-0.257 0.247 1.193 1.258 202
-0.252 0.249 1.204 1.268 200
-0.246 0.25 1.211 1.274 194
-0.238 0.249 1.209 1.27 197
-0.229 0.247 1.2 1.26 196
-0.223 0.248 1.204 1.262 192
-0.217 0.249 1.211 1.268 194
-0.209 0.249 1.212 1.268 194
-0.203 0.249 1.215 1.27 194
-0.197 0.252 1.228 1.282 197
-0.19 0.252 1.23 1.283 190
-0.183 0.252 1.232 1.284 191
-0.174 0.249 1.215 1.266 189
-0.169 0.253 1.239 1.289 187
-0.16 0.25 1.225 1.274 185
-0.155 0.253 1.241 1.289 184
-0.149 0.255 1.249 1.297 184
-0.139 0.251 1.234 1.281 184
-0.135 0.257 1.261 1.307 183
-0.128 0.257 1.264 1.309 186
-0.12 0.255 1.255 1.3 185
-0.113 0.257 1.265 1.31 184
-0.106 0.258 1.271 1.315 185
-0.098 0.257 1.266 1.309 186
-0.092 0.259 1.276 1.319 182
-0.084 0.257 1.268 1.31 185
-0.076 0.258 1.271 1.312 178
-0.07 0.261 1.286 1.328 159
-0.063 0.264 1.3 1.342 167
-0.055 0.263 1.3 1.341 209
-0.048 0.264 1.303 1.344 256
-0.041 0.264 1.304 1.344 282
-0.033 0.267 1.316 1.357 322
-0.026 0.266 1.313 1.353 360
-0.018 0.266 1.312 1.352 357
-0.01 0.268 1.322 1.362 336
-0.003 0.267 1.32 1.361 331
0.004 0.266 1.313 1.353 317
0.012 0.266 1.316 1.356 358
0.019 0.266 1.316 1.357 376
0.027 0.269 1.329 1.37 401
0.035 0.268 1.322 1.363 383
0.042 0.269 1.326 1.367 374
0.05 0.269 1.327 1.368 389
0.058 0.267 1.319 1.361 377
0.065 0.268 1.323 1.365 335
0.074 0.27 1.333 1.376 288
0.082 0.273 1.345 1.388 267
0.09 0.272 1.34 1.384 216
0.099 0.276 1.36 1.405 184
0.108 0.278 1.37 1.416 182
0.117 0.281 1.387 1.433 176
0.123 0.278 1.368 1.415 177
0.131 0.276 1.358 1.406 170
0.141 0.281 1.383 1.432 170
0.149 0.281 1.38 1.43 173
0.157 0.28 1.377 1.427 168
0.17 0.288 1.418 1.471 165
0.175 0.284 1.397 1.45 166
0.183 0.283 1.39 1.444 168
0.195 0.289 1.416 1.472 172
0.202 0.288 1.41 1.467 173
0.212 0.29 1.418 1.477 173
0.222 0.292 1.428 1.488 168
0.231 0.293 1.433 1.494 170
0.241 0.295 1.44 1.503 171
0.251 0.297 1.45 1.515 173
0.262 0.299 1.46 1.527 175
0.268 0.297 1.446 1.514 179
0.279 0.3 1.46 1.53 174
0.289 0.301 1.465 1.537 176
0.298 0.301 1.464 1.538 176
0.309 0.304 1.474 1.55 172
0.316 0.301 1.462 1.54 174
0.329 0.306 1.481 1.561 178
0.338 0.306 1.48 1.563 181
0.347 0.307 1.482 1.567 186
0.362 0.311 1.502 1.59 188
0.374 0.314 1.517 1.607 191
0.379 0.311 1.495 1.587 192
0.392 0.314 1.51 1.605 192
0.4 0.314 1.506 1.603 197
0.405 0.31 1.487 1.586 201
0.414 0.311 1.488 1.589 216
0.417 0.306 1.462 1.564 226
0.426 0.306 1.461 1.566 224
0.43 0.303 1.442 1.549 236
0.429 0.296 1.408 1.515 346
0.425 0.288 1.367 1.473 528
0.427 0.284 1.344 1.452 645
0.433 0.282 1.335 1.445 683
0.441 0.283 1.334 1.446 666
0.449 0.282 1.33 1.445 654
0.46 0.284 1.336 1.455 630
0.467 0.283 1.331 1.452 584
0.475 0.283 1.328 1.452 600
0.484 0.284 1.326 1.453 653
0.493 0.284 1.327 1.458 634
0.501 0.284 1.323 1.456 592
0.508 0.284 1.319 1.455 489
0.524 0.288 1.335 1.476 202
0.557 0.301 1.396 1.546 97
0.572 0.304 1.407 1.562 87
0.585 0.307 1.415 1.575 87
0.594 0.307 1.413 1.577 84
0.612 0.312 1.432 1.602 80
0.628 0.315 1.445 1.62 81
0.635 0.314 1.435 1.614 82
0.643 0.314 1.43 1.613 76
0.655 0.315 1.434 1.621 80
0.666 0.316 1.435 1.627 80
0.681 0.319 1.444 1.641 80
0.694 0.321 1.447 1.65 80
0.709 0.323 1.456 1.664 79
0.718 0.323 1.451 1.663 78
0.724 0.322 1.439 1.656 77
0.708 0.311 1.386 1.6 72
0.752 0.326 1.451 1.68 73
0.768 0.329 1.459 1.694 73
0.758 0.321 1.418 1.653 70
0.79 0.33 1.457 1.703 75
0.812 0.335 1.476 1.731 74
0.824 0.336 1.474 1.735 71
0.816 0.329 1.439 1.699 70
0.835 0.333 1.452 1.721 68
-0.538 0.221 0.928 1.106 267
-0.525 0.218 0.919 1.092 269
-0.527 0.222 0.938 1.11 269
-0.52 0.221 0.938 1.106 263
-0.514 0.221 0.941 1.106 260
-0.503 0.219 0.936 1.097 259
-0.5 0.221 0.944 1.102 258
-0.498 0.222 0.955 1.111 254
-0.489 0.221 0.952 1.104 252
-0.482 0.221 0.953 1.102 251
-0.481 0.223 0.967 1.115 252
-0.475 0.223 0.969 1.114 254
-0.466 0.222 0.967 1.108 251
-0.462 0.223 0.974 1.112 250
-0.459 0.225 0.983 1.12 246
-0.453 0.225 0.987 1.121 249
-0.442 0.222 0.977 1.107 239
-0.438 0.223 0.985 1.112 236
-0.434 0.225 0.994 1.119 234
-0.431 0.226 1.003 1.127 230
-0.425 0.226 1.006 1.127 229
-0.417 0.225 1.003 1.121 227
-0.411 0.226 1.007 1.123 228
-0.406 0.227 1.014 1.128 224
-0.402 0.228 1.022 1.134 220
-0.399 0.23 1.032 1.142 222
-0.392 0.229 1.033 1.141 225
-0.386 0.229 1.034 1.14 223
-0.382 0.231 1.045 1.148 214
-0.374 0.23 1.042 1.144 221
-0.374 0.234 1.064 1.164 235
-0.383 0.244 1.11 1.212 267
-0.381 0.247 1.126 1.226 284
-0.378 0.25 1.141 1.24 288
-0.371 0.25 1.143 1.239 292
-0.367 0.252 1.155 1.25 291
-0.36 0.252 1.158 1.251 290
-0.352 0.251 1.155 1.245 291
-0.349 0.254 1.17 1.26 290
-0.339 0.251 1.161 1.248 294
-0.336 0.255 1.178 1.263 293
-0.326 0.253 1.17 1.254 281
-0.318 0.252 1.168 1.249 265
-0.307 0.248 1.152 1.23 248
-0.299 0.247 1.15 1.226 234
-0.289 0.245 1.139 1.214 226
-0.285 0.247 1.151 1.224 221
-0.276 0.246 1.148 1.219 218
-0.274 0.25 1.169 1.239 216
-0.266 0.249 1.165 1.233 212
-0.257 0.247 1.159 1.226 212
-0.25 0.247 1.16 1.225 211
-0.245 0.249 1.168 1.232 207
-0.239 0.25 1.175 1.238 207
-0.232 0.25 1.176 1.237 207
-0.224 0.249 1.172 1.232 206
-0.218 0.25 1.179 1.238 202
-0.211 0.25 1.179 1.237 206
-0.206 0.252 1.192 1.249 206
-0.2 0.253 1.198 1.254 198
-0.193 0.253 1.197 1.252 202
-0.185 0.252 1.196 1.25 198
-0.18 0.255 1.208 1.261 196
-0.172 0.253 1.202 1.253 199
-0.167 0.256 1.217 1.268 198
-0.16 0.257 1.224 1.274 195
-0.152 0.255 1.213 1.262 196
-0.145 0.256 1.221 1.269 198
-0.138 0.256 1.222 1.27 195
-0.132 0.258 1.232 1.279 196
-0.124 0.257 1.226 1.272 195
-0.118 0.258 1.231 1.276 193
-0.11 0.257 1.229 1.274 191
-0.103 0.258 1.232 1.276 192
-0.097 0.26 1.243 1.287 188
-0.089 0.259 1.238 1.281 188
-0.082 0.258 1.234 1.277 189
-0.075 0.259 1.237 1.28 195
-0.067 0.259 1.237 1.279 192
-0.061 0.263 1.26 1.303 192
-0.055 0.266 1.276 1.318 213
-0.047 0.266 1.277 1.318 251
-0.04 0.27 1.293 1.335 279
-0.033 0.27 1.295 1.337 317
-0.025 0.271 1.3 1.342 331
-0.018 0.271 1.302 1.344 328
-0.01 0.272 1.305 1.347 338
-0.003 0.272 1.305 1.347 329
0.004 0.271 1.301 1.343 319
0.012 0.274 1.313 1.355 326
0.019 0.271 1.299 1.34 334
0.027 0.273 1.309 1.351 353
0.034 0.274 1.313 1.355 337
0.042 0.275 1.318 1.361 339
0.05 0.276 1.321 1.364 349
0.057 0.275 1.316 1.36 350
0.065 0.276 1.32 1.364 319
0.072 0.272 1.304 1.348 281
0.081 0.278 1.33 1.374 246
0.089 0.277 1.327 1.372 206
0.097 0.278 1.33 1.376 187
0.106 0.28 1.342 1.389 185
0.114 0.282 1.348 1.396 178
0.122 0.281 1.344 1.393 181
0.13 0.282 1.349 1.398 179
0.138 0.284 1.356 1.406 177
0.147 0.285 1.36 1.411 174
0.155 0.285 1.36 1.412 176
0.161 0.282 1.346 1.399 171
0.17 0.283 1.35 1.404 171
0.18 0.287 1.368 1.423 169
0.19 0.289 1.377 1.434 174
0.197 0.288 1.37 1.428 171
0.206 0.29 1.377 1.436 172
0.215 0.291 1.383 1.444 173
0.225 0.294 1.394 1.456 173
0.235 0.296 1.402 1.466 172
0.241 0.293 1.39 1.455 175
0.254 0.298 1.412 1.479 173
0.263 0.3 1.418 1.487 172
0.273 0.301 1.425 1.496 173
0.284 0.304 1.435 1.508 174
0.292 0.303 1.431 1.506 175
0.3 0.303 1.43 1.506 177
0.309 0.304 1.429 1.507 180
0.319 0.306 1.437 1.517 179
0.33 0.308 1.446 1.529 178
0.342 0.311 1.457 1.542 185
0.351 0.311 1.458 1.545 183
0.363 0.314 1.47 1.56 186
0.374 0.315 1.474 1.567 187
0.381 0.314 1.466 1.561 193
0.386 0.311 1.452 1.548 195
0.392 0.309 1.44 1.538 201
0.405 0.312 1.451 1.552 216
0.413 0.312 1.449 1.553 225
0.42 0.31 1.439 1.544 235
0.427 0.31 1.432 1.54 243
0.422 0.3 1.384 1.491 371
0.421 0.294 1.353 1.461 548
0.424 0.29 1.335 1.444 662
0.435 0.292 1.341 1.453 679
0.441 0.291 1.332 1.446 665
0.448 0.29 1.327 1.444 657
0.458 0.291 1.328 1.448 604
0.469 0.293 1.335 1.459 552
0.477 0.293 1.332 1.458 591
0.485 0.293 1.329 1.458 644
0.491 0.292 1.321 1.453 620
0.499 0.292 1.318 1.453 587
0.506 0.291 1.312 1.449 439
0.528 0.299 1.345 1.489 154
0.558 0.311 1.397 1.55 97
0.568 0.311 1.397 1.553 99
0.571 0.308 1.38 1.538 96
0.57 0.303 1.353 1.513 94
0.604 0.316 1.41 1.579 91
0.609 0.315 1.399 1.571 91
0.605 0.308 1.367 1.539 86
0.611 0.307 1.357 1.533 87
0.647 0.32 1.414 1.601 84
0.656 0.32 1.41 1.6 83
0.65 0.313 1.376 1.567 85
0.662 0.315 1.379 1.575 86
0.692 0.325 1.418 1.624 82
0.696 0.322 1.405 1.614 82
0.704 0.322 1.398 1.611 79
0.734 0.331 1.437 1.66 82
0.735 0.328 1.416 1.641 78
0.731 0.322 1.388 1.614 77
0.735 0.32 1.374 1.604 79
0.771 0.331 1.42 1.662 81
0.761 0.323 1.38 1.622 78
0.785 0.329 1.402 1.653 77
0.814 0.338 1.434 1.696 72
0.802 0.329 1.392 1.652 74
-0.525 0.222 0.904 1.079 287
-0.523 0.224 0.915 1.088 284
-0.519 0.224 0.921 1.092 280
-0.509 0.223 0.918 1.084 275
-0.501 0.222 0.916 1.078 275
-0.496 0.222 0.92 1.08 272
-0.495 0.224 0.933 1.091 267
-0.482 0.222 0.923 1.077 268
-0.479 0.223 0.931 1.082 265
-0.478 0.225 0.943 1.092 263
-0.467 0.223 0.937 1.082 269
-0.465 0.225 0.947 1.09 265
-0.462 0.226 0.957 1.099 269
-0.459 0.228 0.966 1.105 265
-0.452 0.227 0.966 1.102 263
-0.444 0.226 0.964 1.097 259
-0.437 0.226 0.966 1.096 257
-0.432 0.227 0.97 1.098 249
-0.429 0.228 0.98 1.106 250
-0.421 0.227 0.979 1.102 250
-0.418 0.229 0.988 1.109 244
-0.411 0.228 0.987 1.106 240
-0.41 0.231 1.003 1.12 233
-0.397 0.228 0.988 1.101 236
-0.396 0.231 1.004 1.116 234
-0.391 0.231 1.009 1.119 237
-0.383 0.231 1.008 1.115 238
-0.377 0.23 1.009 1.114 231
-0.371 0.231 1.014 1.116 237
-0.367 0.232 1.02 1.121 234
-0.369 0.238 1.047 1.148 247
-0.377 0.247 1.091 1.193 274
-0.376 0.251 1.111 1.212 286
-0.372 0.252 1.119 1.219 296
-0.367 0.254 1.129 1.227 295
-0.359 0.253 1.126 1.221 299
-0.353 0.253 1.131 1.224 298
-0.349 0.256 1.145 1.237 298
-0.34 0.254 1.14 1.229 295
-0.337 0.257 1.152 1.24 306
-0.328 0.256 1.149 1.235 308
-0.321 0.255 1.15 1.233 290
-0.312 0.253 1.142 1.223 277
-0.303 0.252 1.137 1.216 262
-0.293 0.249 1.125 1.201 247
-0.287 0.25 1.129 1.204 236
-0.28 0.249 1.13 1.203 234
-0.272 0.249 1.127 1.199 228
-0.265 0.249 1.13 1.2 226
-0.261 0.251 1.143 1.212 224
-0.255 0.252 1.146 1.214 223
-0.248 0.252 1.148 1.214 220
-0.241 0.252 1.149 1.213 217
-0.233 0.251 1.145 1.208 216
-0.228 0.253 1.155 1.217 218
-0.221 0.252 1.153 1.214 214
-0.215 0.253 1.158 1.218 211
-0.208 0.253 1.162 1.22 212
-0.203 0.256 1.174 1.232 212
-0.194 0.253 1.161 1.217 210
-0.188 0.253 1.166 1.221 209
-0.184 0.257 1.186 1.24 211
-0.176 0.257 1.183 1.237 208
-0.169 0.256 1.182 1.235 206
-0.164 0.259 1.197 1.249 204
-0.156 0.257 1.186 1.237 206
-0.149 0.258 1.192 1.242 203
-0.143 0.259 1.198 1.247 202
-0.137 0.261 1.21 1.259 207
-0.128 0.258 1.194 1.242 202
-0.122 0.26 1.206 1.253 201
-0.116 0.261 1.21 1.257 204
-0.109 0.262 1.217 1.263 203
-0.102 0.261 1.211 1.256 206
-0.094 0.258 1.2 1.245 195
-0.088 0.262 1.219 1.263 197
-0.081 0.265 1.23 1.274 204
-0.073 0.26 1.208 1.251 229
-0.066 0.26 1.207 1.25 228
-0.06 0.264 1.228 1.271 214
-0.053 0.268 1.248 1.291 228
-0.046 0.269 1.254 1.297 261
-0.039 0.271 1.264 1.307 282
-0.032 0.272 1.268 1.311 306
-0.025 0.274 1.278 1.321 323
-0.018 0.275 1.28 1.323 328
-0.01 0.276 1.287 1.33 336
-0.003 0.277 1.29 1.333 330
0.004 0.277 1.292 1.335 338
0.011 0.277 1.293 1.336 360
0.019 0.277 1.293 1.336 352
0.027 0.279 1.301 1.344 349
0.034 0.278 1.297 1.34 346
0.041 0.278 1.294 1.337 337
0.049 0.279 1.299 1.344 328
0.057 0.279 1.299 1.344 329
0.064 0.279 1.299 1.344 304
0.072 0.278 1.293 1.339 279
0.079 0.278 1.292 1.338 246
0.087 0.279 1.296 1.342 210
0.095 0.28 1.303 1.35 192
0.102 0.28 1.3 1.348 189
0.112 0.284 1.322 1.371 186
0.118 0.281 1.307 1.356 185
0.127 0.283 1.313 1.363 181
0.134 0.282 1.309 1.36 184
0.143 0.285 1.323 1.375 182
0.151 0.286 1.327 1.38 175
0.159 0.286 1.327 1.381 176
0.168 0.288 1.334 1.389 177
0.178 0.291 1.347 1.403 179
0.185 0.29 1.343 1.4 176
0.193 0.29 1.341 1.399 171
0.202 0.292 1.348 1.408 173
0.209 0.291 1.344 1.405 171
0.22 0.295 1.359 1.421 170
0.229 0.297 1.368 1.432 166
0.236 0.295 1.36 1.426 169
0.245 0.296 1.363 1.43 172
0.256 0.3 1.378 1.447 173
0.265 0.301 1.383 1.454 173
0.27 0.297 1.363 1.435 175
0.282 0.302 1.384 1.458 175
0.291 0.302 1.382 1.458 173
0.3 0.303 1.387 1.465 179
0.313 0.307 1.404 1.485 179
0.323 0.309 1.412 1.495 179
0.335 0.313 1.426 1.511 184
0.341 0.31 1.413 1.5 186
0.352 0.313 1.423 1.513 189
0.357 0.31 1.407 1.498 191
0.37 0.313 1.421 1.515 190
0.377 0.313 1.416 1.512 194
0.386 0.313 1.416 1.515 202
0.396 0.314 1.417 1.518 220
0.4 0.31 1.399 1.501 227
0.413 0.314 1.416 1.521 239
0.419 0.312 1.402 1.51 252
0.42 0.307 1.375 1.484 340
0.417 0.299 1.339 1.447 511
0.426 0.299 1.338 1.449 628
0.432 0.298 1.33 1.443 632
0.44 0.298 1.328 1.444 627
0.45 0.299 1.329 1.448 637
0.459 0.3 1.33 1.452 567
0.468 0.3 1.33 1.455 541
0.476 0.3 1.326 1.454 602
0.483 0.3 1.321 1.452 643
0.493 0.301 1.323 1.457 619
0.504 0.303 1.329 1.467 566
0.508 0.3 1.316 1.455 370
0.524 0.305 1.333 1.477 131
0.556 0.318 1.389 1.543 105
0.563 0.317 1.383 1.54 99
0.568 0.315 1.37 1.53 102
0.574 0.314 1.362 1.524 98
0.588 0.317 1.372 1.539 98
0.596 0.317 1.367 1.538 102
0.615 0.322 1.386 1.564 96
0.625 0.322 1.386 1.567 94
0.617 0.314 1.345 1.526 93
0.645 0.324 1.385 1.574 91
0.647 0.32 1.367 1.559 89
0.655 0.32 1.362 1.558 91
0.685 0.33 1.402 1.608 88
0.694 0.331 1.399 1.609 89
0.681 0.32 1.35 1.558 86
0.704 0.327 1.376 1.593 87
0.734 0.337 1.413 1.64 86
0.733 0.332 1.388 1.617 84
0.748 0.334 1.395 1.631 86
0.749 0.331 1.378 1.616 85
0.767 0.335 1.39 1.635 81
0.777 0.335 1.387 1.638 82
0.803 0.343 1.413 1.673 83
0.778 0.328 1.348 1.604 78
-0.516 0.224 0.887 1.062 299
-0.511 0.224 0.892 1.063 304
-0.504 0.224 0.894 1.062 301
-0.502 0.226 0.903 1.068 295
-0.495 0.225 0.904 1.066 290
-0.492 0.226 0.912 1.072 289
-0.481 0.224 0.905 1.061 289
-0.484 0.228 0.925 1.08 290
-0.475 0.227 0.922 1.073 288
-0.469 0.227 0.924 1.072 285
-0.461 0.226 0.924 1.069 279
-0.459 0.228 0.933 1.076 276
-0.454 0.228 0.939 1.079 283
-0.444 0.226 0.932 1.068 275
-0.442 0.228 0.943 1.078 278
-0.437 0.229 0.948 1.08 270
-0.434 0.231 0.958 1.088 262
-0.426 0.23 0.956 1.084 264
-0.42 0.229 0.958 1.082 259
-0.416 0.231 0.966 1.089 259
-0.404 0.228 0.954 1.073 254
-0.405 0.231 0.972 1.09 254
-0.398 0.231 0.972 1.087 254
-0.397 0.234 0.987 1.101 249
-0.391 0.234 0.989 1.101 242
-0.384 0.233 0.99 1.1 248
-0.379 0.234 0.995 1.102 246
-0.371 0.233 0.991 1.096 246
-0.369 0.235 1.005 1.108 247
-0.364 0.236 1.01 1.112 247
-0.367 0.243 1.041 1.143 254
-0.368 0.247 1.063 1.164 277
-0.368 0.252 1.084 1.185 289
-0.367 0.256 1.103 1.202 297
-0.359 0.255 1.104 1.201 300
-0.356 0.258 1.116 1.212 301
-0.346 0.255 1.107 1.2 303
-0.341 0.257 1.115 1.206 300
-0.337 0.259 1.128 1.218 304
-0.33 0.259 1.129 1.217 310
-0.323 0.258 1.129 1.215 308
-0.316 0.258 1.128 1.212 296
-0.308 0.258 1.129 1.211 285
-0.3 0.256 1.123 1.202 271
-0.289 0.253 1.111 1.188 264
-0.283 0.253 1.112 1.188 253
-0.277 0.254 1.119 1.194 253
-0.271 0.255 1.123 1.196 247
-0.263 0.253 1.119 1.19 242
-0.256 0.253 1.119 1.189 238
-0.249 0.252 1.117 1.185 231
-0.244 0.254 1.127 1.194 230
-0.238 0.255 1.132 1.198 226
-0.232 0.256 1.139 1.203 225
-0.223 0.254 1.128 1.191 224
-0.218 0.255 1.135 1.196 222
-0.212 0.256 1.14 1.201 219
-0.206 0.257 1.144 1.204 218
-0.199 0.256 1.144 1.202 223
-0.192 0.257 1.149 1.206 218
-0.185 0.257 1.148 1.204 218
-0.181 0.26 1.164 1.22 217
-0.173 0.258 1.157 1.212 217
-0.166 0.259 1.161 1.214 214
-0.16 0.259 1.163 1.215 216
-0.152 0.258 1.159 1.21 216
-0.147 0.26 1.17 1.221 215
-0.141 0.262 1.176 1.227 215
-0.133 0.26 1.17 1.219 211
-0.127 0.262 1.179 1.228 213
-0.12 0.261 1.175 1.223 216
-0.114 0.263 1.186 1.234 216
-0.107 0.264 1.188 1.235 213
-0.101 0.266 1.199 1.246 217
-0.093 0.263 1.188 1.233 213
-0.086 0.263 1.19 1.235 211
-0.079 0.263 1.189 1.233 201
-0.073 0.268 1.212 1.257 168
-0.067 0.271 1.227 1.271 195
-0.059 0.268 1.21 1.254 216
-0.053 0.271 1.228 1.272 239
-0.046 0.273 1.236 1.281 274
-0.039 0.277 1.254 1.299 287
-0.032 0.276 1.25 1.294 311
-0.025 0.279 1.264 1.308 320
-0.017 0.28 1.268 1.312 328
-0.01 0.28 1.269 1.313 335
-0.003 0.279 1.263 1.307 341
0.004 0.281 1.275 1.319 340
0.011 0.282 1.276 1.32 350
0.018 0.279 1.266 1.31 344
0.026 0.281 1.274 1.319 338
0.034 0.283 1.284 1.329 350
0.041 0.282 1.279 1.324 322
0.048 0.282 1.276 1.321 312
0.056 0.284 1.284 1.33 312
0.063 0.282 1.278 1.324 295
0.071 0.282 1.277 1.323 273
0.078 0.281 1.271 1.317 244
0.085 0.279 1.263 1.309 206
0.093 0.283 1.278 1.326 192
0.101 0.285 1.286 1.335 191
0.109 0.284 1.283 1.332 192
0.116 0.284 1.282 1.332 187
0.124 0.285 1.286 1.337 184
0.132 0.286 1.29 1.342 184
0.14 0.286 1.289 1.342 185
0.147 0.286 1.287 1.34 182
0.157 0.29 1.305 1.36 181
0.164 0.289 1.302 1.357 179
0.173 0.292 1.313 1.37 179
0.18 0.29 1.304 1.362 178
0.19 0.293 1.318 1.377 179
0.198 0.294 1.319 1.38 180
0.207 0.295 1.326 1.388 173
0.214 0.295 1.323 1.386 174
0.224 0.298 1.337 1.402 172
0.234 0.3 1.344 1.411 174
0.239 0.298 1.33 1.398 176
0.249 0.299 1.336 1.405 178
0.256 0.298 1.331 1.402 175
0.268 0.303 1.35 1.423 175
0.277 0.305 1.358 1.432 178
0.285 0.305 1.356 1.432 178
0.295 0.307 1.363 1.441 182
0.306 0.309 1.371 1.452 176
0.313 0.308 1.366 1.449 180
0.325 0.311 1.38 1.465 184
0.335 0.314 1.389 1.476 188
0.341 0.311 1.375 1.464 190
0.352 0.314 1.386 1.478 193
0.36 0.314 1.384 1.478 191
0.369 0.314 1.384 1.48 192
0.378 0.315 1.385 1.483 207
0.386 0.315 1.382 1.483 219
0.395 0.315 1.382 1.485 229
0.401 0.314 1.372 1.477 236
0.411 0.314 1.374 1.481 255
0.413 0.31 1.352 1.461 290
0.421 0.31 1.349 1.461 331
0.429 0.31 1.347 1.461 379
0.435 0.308 1.336 1.451 409
0.44 0.306 1.326 1.444 439
0.45 0.307 1.327 1.448 465
0.458 0.307 1.326 1.449 432
0.466 0.308 1.324 1.451 441
0.474 0.307 1.321 1.45 516
0.483 0.308 1.32 1.452 540
0.492 0.308 1.32 1.455 533
0.5 0.308 1.315 1.454 446
0.504 0.306 1.304 1.444 244
0.528 0.315 1.34 1.488 122
0.533 0.314 1.331 1.481 109
0.544 0.315 1.335 1.489 112
0.549 0.313 1.323 1.48 113
0.554 0.311 1.313 1.472 105
0.572 0.317 1.332 1.497 108
0.587 0.32 1.343 1.514 101
0.597 0.321 1.343 1.518 102
0.606 0.321 1.343 1.521 101
0.604 0.316 1.317 1.496 103
0.635 0.328 1.361 1.551 97
0.624 0.318 1.316 1.504 100
0.646 0.324 1.341 1.536 97
0.653 0.324 1.334 1.533 95
0.665 0.326 1.339 1.543 96
0.665 0.321 1.317 1.523 93
0.689 0.328 1.343 1.558 93
0.705 0.332 1.354 1.575 83
0.711 0.331 1.344 1.569 90
0.714 0.328 1.331 1.558 90
0.738 0.335 1.355 1.592 89
0.747 0.335 1.35 1.592 84
0.75 0.332 1.336 1.58 88
0.768 0.336 1.348 1.6 84
0.795 0.344 1.376 1.639 86
-0.508 0.226 0.873 1.046 311
-0.502 0.226 0.874 1.044 312
-0.498 0.227 0.881 1.049 310
-0.492 0.227 0.884 1.048 312
-0.487 0.227 0.888 1.05 309
-0.481 0.227 0.89 1.048 311
-0.474 0.227 0.891 1.046 314
-0.474 0.229 0.903 1.057 304
-0.466 0.228 0.902 1.052 307
-0.457 0.227 0.899 1.045 307
-0.457 0.23 0.914 1.059 300
-0.453 0.231 0.92 1.063 298
-0.445 0.23 0.919 1.059 291
-0.442 0.231 0.926 1.063 290
-0.437 0.232 0.93 1.065 284
-0.435 0.234 0.943 1.077 282
-0.428 0.233 0.942 1.072 277
-0.42 0.232 0.94 1.067 276
-0.411 0.23 0.935 1.059 277
-0.408 0.232 0.945 1.067 274
-0.403 0.233 0.948 1.068 272
-0.399 0.234 0.956 1.074 271
-0.39 0.232 0.951 1.066 267
-0.386 0.234 0.959 1.072 262
-0.384 0.236 0.97 1.082 260
-0.374 0.233 0.962 1.07 261
-0.371 0.236 0.974 1.08 263
-0.367 0.237 0.98 1.085 260
-0.362 0.237 0.985 1.088 260
-0.357 0.238 0.99 1.091 257
-0.359 0.244 1.016 1.117 272
-0.362 0.25 1.045 1.146 290
-0.36 0.253 1.06 1.161 302
-0.358 0.256 1.074 1.173 307
-0.352 0.257 1.081 1.178 306
-0.348 0.259 1.09 1.186 306
-0.342 0.259 1.094 1.188 307
-0.335 0.259 1.094 1.186 309
-0.331 0.261 1.105 1.195 309
-0.324 0.26 1.104 1.192 315
-0.318 0.261 1.11 1.196 316
-0.311 0.261 1.112 1.197 300
-0.3 0.257 1.095 1.177 286
-0.295 0.259 1.104 1.184 280
-0.284 0.255 1.087 1.165 275
-0.279 0.256 1.095 1.171 267
-0.273 0.256 1.098 1.173 259
-0.265 0.256 1.097 1.17 261
-0.262 0.259 1.112 1.184 255
-0.255 0.259 1.114 1.185 251
-0.246 0.256 1.104 1.172 248
-0.238 0.255 1.099 1.166 245
-0.234 0.257 1.11 1.177 235
-0.227 0.257 1.112 1.177 235
-0.221 0.258 1.116 1.18 235
-0.216 0.259 1.122 1.185 236
-0.209 0.26 1.126 1.188 229
-0.203 0.26 1.126 1.186 229
-0.194 0.256 1.113 1.172 227
-0.188 0.258 1.123 1.181 230
-0.181 0.258 1.122 1.178 230
-0.176 0.26 1.134 1.19 231
-0.171 0.262 1.142 1.197 230
-0.163 0.26 1.136 1.19 227
-0.159 0.264 1.154 1.208 220
-0.15 0.261 1.14 1.192 223
-0.144 0.262 1.146 1.197 226
-0.137 0.262 1.146 1.197 222
-0.131 0.264 1.156 1.206 223
-0.125 0.266 1.163 1.213 221
-0.118 0.265 1.16 1.209 220
-0.112 0.265 1.162 1.211 218
-0.105 0.265 1.164 1.212 221
-0.098 0.266 1.169 1.216 226
-0.092 0.266 1.17 1.217 225
-0.085 0.267 1.172 1.218 216
-0.078 0.266 1.171 1.217 203
-0.071 0.267 1.173 1.218 191
-0.065 0.269 1.184 1.23 212
-0.058 0.271 1.19 1.236 223
-0.052 0.274 1.204 1.25 249
-0.045 0.278 1.223 1.269 276
-0.039 0.28 1.232 1.278 292
-0.031 0.281 1.237 1.283 323
-0.024 0.283 1.248 1.293 324
-0.017 0.283 1.248 1.294 334
-0.01 0.285 1.256 1.301 340
-0.003 0.284 1.251 1.296 339
0.004 0.285 1.257 1.302 338
0.011 0.285 1.256 1.301 335
0.018 0.285 1.256 1.301 335
0.026 0.287 1.266 1.312 340
0.033 0.288 1.269 1.316 349
0.04 0.286 1.261 1.307 319
0.048 0.285 1.254 1.3 316
0.055 0.287 1.266 1.313 314
0.062 0.285 1.256 1.303 289
0.069 0.284 1.249 1.296 270
0.077 0.285 1.254 1.301 242
0.084 0.284 1.249 1.297 203
0.091 0.284 1.247 1.296 198
0.099 0.284 1.25 1.299 199
0.107 0.287 1.262 1.312 195
0.113 0.285 1.25 1.3 195
0.12 0.283 1.241 1.292 195
0.129 0.288 1.262 1.315 195
0.138 0.29 1.272 1.326 189
0.145 0.29 1.273 1.328 190
0.154 0.293 1.284 1.34 186
0.161 0.291 1.276 1.333 185
0.17 0.294 1.289 1.346 185
0.176 0.292 1.275 1.333 184
0.185 0.294 1.287 1.347 185
0.194 0.296 1.292 1.353 181
0.201 0.295 1.288 1.35 177
0.21 0.297 1.297 1.361 180
0.22 0.301 1.311 1.377 181
0.227 0.3 1.306 1.372 177
0.236 0.301 1.308 1.377 179
0.243 0.301 1.306 1.376 182
0.255 0.305 1.326 1.398 178
0.263 0.306 1.327 1.401 179
0.273 0.307 1.332 1.407 181
0.279 0.305 1.322 1.399 183
0.288 0.308 1.33 1.409 182
0.296 0.307 1.327 1.408 183
0.308 0.311 1.341 1.424 184
0.317 0.312 1.344 1.43 186
0.33 0.317 1.366 1.455 190
0.332 0.311 1.336 1.425 188
0.342 0.313 1.344 1.435 189
0.349 0.312 1.339 1.432 190
0.356 0.312 1.334 1.429 191
0.372 0.318 1.359 1.458 207
0.379 0.317 1.354 1.455 215
0.39 0.319 1.36 1.464 223
0.396 0.318 1.352 1.458 229
0.403 0.317 1.345 1.453 260
0.411 0.317 1.344 1.454 299
0.415 0.314 1.329 1.441 322
0.422 0.313 1.321 1.435 336
0.432 0.315 1.327 1.445 336
0.439 0.313 1.32 1.44 338
0.448 0.314 1.32 1.442 338
0.454 0.313 1.311 1.436 317
0.463 0.313 1.313 1.44 312
0.476 0.317 1.324 1.455 335
0.483 0.316 1.317 1.451 336
0.494 0.318 1.323 1.461 317
0.497 0.315 1.308 1.447 261
0.502 0.313 1.298 1.439 179
0.514 0.315 1.304 1.45 136
0.528 0.319 1.315 1.466 127
0.528 0.314 1.293 1.444 123
0.547 0.32 1.316 1.474 120
0.563 0.324 1.331 1.494 119
0.569 0.324 1.324 1.49 115
0.584 0.327 1.335 1.507 110
0.578 0.319 1.3 1.471 105
0.593 0.323 1.312 1.489 105
0.599 0.321 1.302 1.482 103
0.615 0.326 1.317 1.503 102
0.631 0.329 1.328 1.52 104
0.633 0.327 1.313 1.507 108
0.648 0.33 1.323 1.523 104
0.666 0.335 1.339 1.545 101
0.686 0.34 1.357 1.571 102
0.68 0.333 1.324 1.538 105
0.688 0.332 1.319 1.537 99
0.704 0.336 1.33 1.555 102
0.706 0.333 1.314 1.542 94
0.711 0.332 1.304 1.535 95
0.743 0.342 1.343 1.585 89
0.749 0.341 1.333 1.579 95
0.779 0.35 1.366 1.624 95
0.766 0.341 1.323 1.579 97
-0.503 0.23 0.862 1.035 327
-0.498 0.23 0.866 1.036 328
-0.493 0.231 0.871 1.039 325
-0.481 0.228 0.863 1.025 326
-0.481 0.23 0.876 1.037 322
-0.474 0.23 0.875 1.033 321
-0.47 0.231 0.882 1.037 325
-0.464 0.231 0.884 1.037 331
-0.459 0.231 0.888 1.037 320
-0.453 0.231 0.889 1.036 322
-0.448 0.231 0.895 1.039 312
-0.444 0.232 0.901 1.042 310
-0.438 0.232 0.902 1.04 305
-0.436 0.234 0.913 1.051 303
-0.43 0.234 0.915 1.05 299
-0.423 0.234 0.916 1.047 304
-0.418 0.234 0.918 1.047 300
-0.41 0.233 0.917 1.043 294
-0.407 0.234 0.924 1.048 292
-0.402 0.235 0.93 1.052 289
-0.4 0.237 0.942 1.063 285
-0.392 0.236 0.939 1.056 281
-0.385 0.235 0.939 1.054 286
-0.378 0.234 0.936 1.049 281
-0.375 0.236 0.947 1.058 276
-0.374 0.239 0.961 1.071 280
-0.362 0.236 0.948 1.054 279
-0.364 0.24 0.969 1.075 276
