# .PCD v0.7 - Point Cloud Data file format
VERSION 0.7
FIELDS x y z d a
SIZE 4 4 4 4 4
TYPE F F F F F
COUNT 1 1 1 1 1
WIDTH 1704
HEIGHT 1
VIEWPOINT 0 0 0 1 0 0 0
POINTS 1704
DATA ascii
-0.241 0.234 0.788 0.869 533
-0.238 0.236 0.797 0.877 534
-0.231 0.234 0.792 0.87 529
-0.228 0.235 0.797 0.874 529
-0.224 0.236 0.802 0.878 521
-0.217 0.234 0.796 0.87 520
-0.215 0.238 0.81 0.883 509
-0.21 0.238 0.811 0.884 507
-0.204 0.237 0.808 0.879 501
-0.201 0.239 0.817 0.887 505
-0.196 0.239 0.817 0.886 497
-0.192 0.239 0.82 0.888 491
-0.187 0.24 0.823 0.89 490
-0.181 0.239 0.821 0.887 492
-0.178 0.241 0.829 0.895 490
-0.173 0.241 0.831 0.895 478
-0.169 0.242 0.835 0.898 467
-0.163 0.241 0.832 0.894 461
-0.159 0.243 0.841 0.903 462
-0.155 0.244 0.844 0.905 452
-0.149 0.243 0.84 0.9 460
-0.144 0.243 0.841 0.9 454
-0.14 0.245 0.85 0.909 443
-0.134 0.244 0.846 0.903 433
-0.132 0.249 0.865 0.923 364
-0.126 0.247 0.86 0.917 309
-0.121 0.247 0.862 0.918 384
-0.115 0.246 0.858 0.913 431
-0.111 0.248 0.866 0.92 417
-0.105 0.247 0.862 0.915 410
-0.101 0.25 0.873 0.927 411
-0.097 0.252 0.881 0.934 409
-0.091 0.25 0.874 0.927 409
-0.086 0.251 0.88 0.932 407
-0.081 0.251 0.877 0.929 400
-0.077 0.255 0.893 0.945 401
-0.071 0.253 0.887 0.938 395
-0.066 0.255 0.896 0.947 387
-0.061 0.255 0.895 0.945 391
-0.056 0.258 0.904 0.955 388
-0.051 0.258 0.906 0.957 387
-0.045 0.259 0.91 0.961 385
-0.04 0.259 0.909 0.96 382
-0.035 0.261 0.916 0.966 382
-0.029 0.261 0.916 0.966 377
-0.024 0.263 0.924 0.974 372
-0.019 0.261 0.918 0.968 374
-0.013 0.263 0.926 0.976 373
-0.008 0.262 0.922 0.972 369
-0.002 0.263 0.926 0.975 368
0.002 0.265 0.932 0.982 366
0.008 0.264 0.928 0.978 363
0.013 0.267 0.941 0.991 359
0.019 0.27 0.95 1.001 358
0.025 0.269 0.945 0.997 356
0.03 0.27 0.949 1.001 360
0.036 0.272 0.956 1.008 360
0.042 0.274 0.964 1.016 361
0.048 0.275 0.966 1.019 355
0.054 0.276 0.972 1.025 355
0.059 0.274 0.964 1.017 342
0.066 0.278 0.976 1.03 341
0.072 0.278 0.978 1.032 345
0.079 0.282 0.989 1.045 343
0.085 0.284 0.996 1.053 346
0.092 0.287 1.007 1.065 357
0.098 0.288 1.009 1.067 352
0.105 0.289 1.014 1.073 351
0.11 0.286 1.004 1.063 336
0.115 0.285 0.998 1.057 327
0.124 0.292 1.024 1.085 336
0.132 0.296 1.035 1.098 346
0.137 0.294 1.028 1.091 350
0.144 0.295 1.03 1.094 347
0.15 0.295 1.03 1.095 338
0.156 0.295 1.029 1.095 337
0.163 0.297 1.035 1.102 330
0.169 0.296 1.032 1.101 327
0.175 0.296 1.029 1.098 320
0.182 0.297 1.033 1.104 321
0.189 0.298 1.034 1.106 321
0.196 0.299 1.038 1.111 318
0.203 0.301 1.044 1.119 311
0.209 0.3 1.039 1.114 312
0.217 0.303 1.047 1.125 308
0.225 0.305 1.053 1.133 303
0.231 0.304 1.05 1.13 297
0.237 0.303 1.046 1.128 303
0.246 0.307 1.057 1.142 301
0.252 0.307 1.057 1.142 298
0.262 0.31 1.067 1.155 304
0.272 0.315 1.081 1.171 311
0.282 0.318 1.092 1.185 322
0.293 0.323 1.107 1.203 349
0.3 0.323 1.106 1.204 340
0.306 0.323 1.103 1.203 338
0.313 0.323 1.103 1.204 334
0.319 0.323 1.099 1.202 328
0.329 0.325 1.106 1.213 330
0.336 0.326 1.108 1.217 328
0.343 0.327 1.107 1.218 325
0.349 0.326 1.101 1.214 319
0.359 0.328 1.109 1.225 313
0.363 0.326 1.098 1.215 294
0.355 0.313 1.052 1.166 249
0.362 0.314 1.052 1.17 239
0.368 0.313 1.048 1.168 227
0.376 0.314 1.05 1.172 227
0.379 0.311 1.037 1.16 222
0.393 0.317 1.056 1.184 223
0.402 0.319 1.061 1.192 219
0.406 0.317 1.052 1.184 216
0.403 0.31 1.026 1.158 217
0.42 0.317 1.048 1.186 217
0.429 0.32 1.053 1.195 213
0.436 0.32 1.052 1.196 212
0.446 0.322 1.058 1.206 210
0.455 0.324 1.06 1.211 207
0.46 0.323 1.053 1.207 209
0.473 0.327 1.065 1.224 204
0.476 0.324 1.054 1.215 200
0.49 0.329 1.067 1.233 201
0.501 0.332 1.073 1.242 195
0.508 0.332 1.07 1.243 191
0.515 0.332 1.067 1.243 195
0.519 0.33 1.059 1.237 190
0.532 0.334 1.069 1.253 187
0.536 0.332 1.06 1.246 186
0.549 0.336 1.069 1.261 181
0.556 0.336 1.066 1.261 181
0.568 0.339 1.072 1.272 181
0.576 0.339 1.07 1.275 178
0.589 0.343 1.078 1.288 169
0.6 0.345 1.082 1.297 166
0.607 0.345 1.079 1.298 169
0.621 0.348 1.087 1.311 171
0.627 0.348 1.081 1.309 168
0.632 0.347 1.075 1.307 162
-0.394 0.221 0.662 0.812 745
-0.392 0.222 0.668 0.816 757
-0.387 0.222 0.669 0.815 754
-0.381 0.221 0.67 0.813 750
-0.382 0.224 0.681 0.824 740
-0.376 0.224 0.681 0.821 731
-0.373 0.224 0.685 0.823 731
-0.364 0.222 0.68 0.814 722
-0.362 0.223 0.686 0.819 710
-0.357 0.223 0.688 0.818 713
-0.354 0.224 0.693 0.822 711
-0.351 0.225 0.697 0.823 705
-0.346 0.225 0.698 0.822 700
-0.341 0.225 0.701 0.823 700
-0.341 0.227 0.711 0.832 692
-0.332 0.225 0.705 0.822 679
-0.331 0.227 0.714 0.831 669
-0.325 0.226 0.713 0.827 668
-0.324 0.229 0.723 0.836 667
-0.321 0.23 0.728 0.84 666
-0.311 0.226 0.718 0.826 668
-0.309 0.228 0.726 0.833 657
-0.307 0.23 0.735 0.841 643
-0.301 0.229 0.733 0.837 636
-0.299 0.231 0.741 0.843 620
-0.292 0.229 0.737 0.837 624
-0.29 0.232 0.746 0.845 618
-0.286 0.232 0.749 0.847 600
-0.279 0.23 0.744 0.839 588
-0.276 0.232 0.751 0.845 589
-0.27 0.23 0.748 0.84 590
-0.267 0.232 0.754 0.845 598
-0.262 0.232 0.756 0.845 583
-0.26 0.234 0.764 0.852 583
-0.257 0.236 0.771 0.858 574
-0.252 0.235 0.772 0.858 572
-0.245 0.233 0.767 0.85 559
-0.244 0.237 0.78 0.863 563
-0.238 0.236 0.777 0.858 557
-0.233 0.236 0.779 0.859 554
-0.229 0.236 0.781 0.86 544
-0.225 0.237 0.785 0.863 544
-0.222 0.239 0.794 0.871 549
-0.216 0.238 0.792 0.868 545
-0.211 0.238 0.792 0.866 537
-0.207 0.238 0.795 0.868 536
-0.201 0.238 0.795 0.867 532
-0.198 0.24 0.803 0.874 531
-0.194 0.242 0.809 0.879 527
-0.19 0.242 0.811 0.88 512
-0.184 0.241 0.808 0.876 507
-0.18 0.242 0.811 0.878 502
-0.174 0.241 0.812 0.877 507
-0.172 0.245 0.826 0.891 493
-0.166 0.243 0.82 0.884 488
-0.161 0.243 0.821 0.884 482
-0.156 0.243 0.822 0.884 479
-0.151 0.244 0.824 0.886 480
-0.147 0.245 0.83 0.891 473
-0.143 0.246 0.834 0.894 470
-0.139 0.248 0.841 0.901 463
-0.133 0.247 0.839 0.898 418
-0.129 0.248 0.843 0.901 401
-0.124 0.248 0.844 0.902 399
-0.119 0.248 0.846 0.902 452
-0.114 0.249 0.849 0.906 443
-0.108 0.247 0.842 0.897 442
-0.104 0.25 0.854 0.909 435
-0.1 0.253 0.864 0.919 434
-0.095 0.252 0.86 0.914 430
-0.09 0.252 0.861 0.914 433
-0.085 0.254 0.87 0.924 431
-0.08 0.255 0.874 0.927 421
-0.075 0.255 0.874 0.927 416
-0.07 0.257 0.879 0.932 413
-0.065 0.256 0.878 0.93 407
-0.06 0.258 0.884 0.936 408
-0.055 0.259 0.889 0.94 408
-0.05 0.259 0.888 0.939 409
-0.045 0.259 0.891 0.942 409
-0.039 0.26 0.894 0.945 402
-0.034 0.261 0.898 0.949 399
-0.029 0.261 0.898 0.949 394
-0.024 0.263 0.903 0.954 396
-0.018 0.262 0.902 0.952 387
-0.013 0.265 0.912 0.963 383
-0.008 0.262 0.901 0.952 385
-0.002 0.264 0.908 0.959 383
0.002 0.264 0.909 0.96 379
0.008 0.265 0.913 0.964 381
0.013 0.267 0.918 0.969 375
0.018 0.267 0.917 0.969 369
0.024 0.267 0.917 0.969 364
0.03 0.268 0.922 0.974 357
0.035 0.269 0.924 0.976 359
0.041 0.271 0.933 0.986 361
0.047 0.272 0.933 0.987 356
0.052 0.273 0.94 0.993 359
0.058 0.275 0.943 0.997 347
0.064 0.275 0.946 1.001 343
0.07 0.275 0.944 0.999 341
0.075 0.276 0.947 1.003 338
0.081 0.274 0.94 0.996 342
0.087 0.277 0.95 1.007 345
0.094 0.281 0.963 1.021 341
0.1 0.283 0.969 1.028 346
0.107 0.284 0.974 1.034 343
0.112 0.284 0.971 1.031 335
0.12 0.289 0.988 1.049 335
0.128 0.293 1.001 1.064 351
0.135 0.296 1.011 1.075 361
0.141 0.296 1.011 1.076 353
0.148 0.297 1.013 1.08 354
0.155 0.299 1.02 1.088 353
0.16 0.297 1.013 1.081 354
0.168 0.299 1.02 1.09 351
0.172 0.297 1.011 1.081 349
0.181 0.301 1.024 1.096 339
0.186 0.3 1.019 1.092 337
0.194 0.302 1.026 1.1 335
0.199 0.301 1.019 1.095 316
0.206 0.303 1.025 1.102 319
0.213 0.304 1.027 1.105 312
0.222 0.307 1.037 1.118 320
0.23 0.31 1.046 1.129 323
0.235 0.308 1.039 1.123 320
0.243 0.31 1.045 1.13 324
0.252 0.313 1.053 1.14 319
0.259 0.314 1.056 1.145 312
0.266 0.314 1.055 1.145 324
0.277 0.319 1.071 1.165 337
0.287 0.323 1.083 1.18 352
0.296 0.326 1.092 1.19 348
0.302 0.326 1.089 1.189 340
0.308 0.325 1.084 1.186 340
0.317 0.327 1.09 1.194 343
0.326 0.329 1.095 1.202 338
0.327 0.324 1.076 1.183 339
0.334 0.324 1.074 1.183 332
0.343 0.327 1.081 1.193 328
0.351 0.328 1.084 1.199 320
0.35 0.321 1.059 1.174 292
0.348 0.313 1.03 1.144 254
0.354 0.313 1.027 1.144 243
0.36 0.313 1.024 1.143 237
0.368 0.314 1.025 1.146 243
0.376 0.316 1.03 1.154 237
0.383 0.316 1.029 1.156 238
0.393 0.318 1.035 1.165 230
0.397 0.317 1.026 1.158 229
0.407 0.32 1.034 1.17 226
0.417 0.322 1.04 1.179 224
0.42 0.32 1.03 1.17 226
0.432 0.323 1.039 1.184 222
0.44 0.325 1.042 1.19 223
0.445 0.323 1.034 1.184 222
0.455 0.326 1.04 1.194 212
0.465 0.328 1.045 1.203 215
0.471 0.327 1.04 1.201 211
0.479 0.329 1.041 1.205 219
0.485 0.328 1.036 1.203 206
0.496 0.331 1.044 1.216 208
0.508 0.334 1.051 1.227 201
0.512 0.333 1.044 1.222 197
0.522 0.334 1.046 1.228 203
0.529 0.335 1.044 1.23 195
0.538 0.336 1.045 1.235 195
0.543 0.335 1.038 1.231 190
0.558 0.34 1.052 1.251 187
0.569 0.342 1.056 1.26 189
0.578 0.344 1.056 1.265 187
0.588 0.345 1.058 1.271 182
0.592 0.344 1.051 1.267 184
0.614 0.352 1.073 1.298 178
0.616 0.349 1.061 1.288 181
0.634 0.355 1.075 1.31 178
-0.391 0.224 0.656 0.807 795
-0.389 0.225 0.661 0.81 788
-0.382 0.224 0.66 0.806 781
-0.379 0.224 0.664 0.807 780
-0.375 0.225 0.667 0.809 770
-0.372 0.226 0.673 0.813 763
-0.364 0.224 0.668 0.804 760
-0.363 0.226 0.677 0.812 761
-0.356 0.224 0.673 0.805 745
-0.354 0.225 0.68 0.81 751
-0.349 0.225 0.681 0.809 741
-0.346 0.227 0.687 0.813 732
-0.343 0.227 0.691 0.815 727
-0.338 0.227 0.691 0.813 732
-0.334 0.227 0.695 0.815 737
-0.331 0.228 0.7 0.818 721
-0.328 0.23 0.707 0.824 708
-0.323 0.229 0.706 0.821 709
-0.32 0.23 0.712 0.825 710
-0.313 0.229 0.709 0.82 691
-0.311 0.231 0.717 0.827 683
-0.306 0.23 0.717 0.825 680
-0.304 0.232 0.725 0.832 668
-0.299 0.232 0.725 0.829 670
-0.296 0.234 0.732 0.835 664
-0.292 0.234 0.735 0.836 663
-0.288 0.235 0.739 0.839 647
-0.28 0.231 0.73 0.828 636
-0.279 0.235 0.743 0.84 626
-0.274 0.235 0.744 0.839 628
-0.266 0.231 0.735 0.827 624
-0.265 0.235 0.747 0.838 620
-0.262 0.236 0.753 0.844 608
-0.255 0.234 0.748 0.837 608
-0.253 0.237 0.758 0.846 609
-0.247 0.236 0.756 0.842 602
-0.243 0.237 0.76 0.845 590
-0.239 0.237 0.763 0.846 587
-0.234 0.236 0.761 0.843 581
-0.23 0.237 0.765 0.846 574
-0.227 0.239 0.773 0.852 566
-0.221 0.238 0.772 0.851 567
-0.217 0.239 0.774 0.851 569
-0.213 0.24 0.779 0.855 572
-0.209 0.24 0.783 0.857 565
-0.206 0.242 0.79 0.864 560
-0.199 0.24 0.785 0.857 557
-0.195 0.241 0.789 0.86 556
-0.192 0.243 0.797 0.868 547
-0.185 0.241 0.789 0.858 543
-0.184 0.246 0.807 0.876 535
-0.178 0.244 0.802 0.87 530
-0.174 0.246 0.808 0.875 528
-0.169 0.245 0.808 0.874 508
-0.164 0.246 0.81 0.875 512
-0.158 0.243 0.803 0.866 505
-0.155 0.247 0.816 0.88 504
-0.15 0.246 0.815 0.877 506
-0.146 0.248 0.821 0.883 494
-0.141 0.248 0.822 0.883 491
-0.137 0.25 0.831 0.891 453
-0.134 0.254 0.844 0.904 364
-0.128 0.252 0.838 0.898 362
-0.122 0.249 0.829 0.887 427
-0.118 0.251 0.837 0.894 471
-0.113 0.253 0.842 0.899 465
-0.108 0.253 0.843 0.9 465
-0.103 0.252 0.843 0.899 454
-0.098 0.253 0.846 0.901 451
-0.094 0.255 0.853 0.909 447
-0.088 0.253 0.845 0.9 443
-0.084 0.256 0.858 0.912 440
-0.079 0.256 0.857 0.911 435
-0.074 0.256 0.858 0.912 433
-0.068 0.255 0.853 0.906 429
-0.064 0.256 0.858 0.911 429
-0.059 0.257 0.862 0.914 430
-0.054 0.26 0.873 0.925 435
-0.049 0.262 0.88 0.932 431
-0.044 0.263 0.882 0.934 427
-0.039 0.263 0.882 0.934 416
-0.034 0.261 0.876 0.928 412
-0.029 0.264 0.888 0.94 415
-0.023 0.263 0.884 0.936 406
-0.018 0.263 0.885 0.936 397
-0.013 0.263 0.885 0.936 401
-0.008 0.265 0.891 0.943 401
-0.002 0.266 0.895 0.947 400
0.002 0.266 0.894 0.946 389
0.007 0.266 0.895 0.947 391
0.013 0.269 0.905 0.957 391
0.018 0.27 0.91 0.962 382
0.023 0.268 0.901 0.953 382
0.029 0.273 0.917 0.97 382
0.035 0.271 0.911 0.964 377
0.04 0.271 0.91 0.963 372
0.046 0.273 0.918 0.973 371
0.051 0.273 0.919 0.974 369
0.057 0.273 0.919 0.973 370
0.063 0.277 0.93 0.985 362
0.068 0.274 0.92 0.976 356
0.074 0.276 0.925 0.982 357
0.079 0.275 0.922 0.979 357
0.085 0.276 0.927 0.985 356
0.091 0.279 0.935 0.993 349
0.097 0.278 0.931 0.99 350
0.104 0.281 0.943 1.003 347
0.109 0.281 0.942 1.002 347
0.116 0.285 0.953 1.015 346
0.124 0.289 0.965 1.028 344
0.129 0.288 0.963 1.027 348
0.135 0.288 0.961 1.025 349
0.143 0.292 0.975 1.041 350
0.15 0.295 0.986 1.053 354
0.155 0.294 0.979 1.047 356
0.163 0.297 0.99 1.06 357
0.17 0.3 0.998 1.069 361
0.177 0.3 0.999 1.071 361
0.184 0.302 1.004 1.077 361
0.192 0.305 1.014 1.09 357
0.198 0.305 1.013 1.09 350
0.204 0.305 1.01 1.088 339
0.211 0.307 1.017 1.096 333
0.216 0.305 1.008 1.088 328
0.226 0.31 1.023 1.106 331
0.233 0.312 1.028 1.113 330
0.241 0.314 1.035 1.122 335
0.248 0.314 1.034 1.123 334
0.254 0.314 1.033 1.123 331
0.265 0.32 1.05 1.142 335
0.273 0.322 1.055 1.149 347
0.281 0.324 1.06 1.157 347
0.289 0.325 1.062 1.16 343
0.293 0.323 1.054 1.154 345
0.302 0.325 1.059 1.161 346
0.311 0.328 1.067 1.172 347
0.318 0.328 1.068 1.175 341
0.324 0.328 1.064 1.173 337
0.33 0.327 1.06 1.171 334
0.339 0.329 1.065 1.179 329
0.343 0.327 1.057 1.171 326
0.339 0.318 1.023 1.137 290
0.339 0.312 1.002 1.116 266
0.346 0.312 1.002 1.118 258
0.356 0.315 1.009 1.129 250
0.361 0.314 1.004 1.125 252
0.37 0.317 1.01 1.134 247
0.375 0.316 1.005 1.132 247
0.383 0.317 1.007 1.136 244
0.391 0.318 1.009 1.14 241
0.397 0.318 1.006 1.14 239
0.409 0.322 1.018 1.156 240
0.412 0.32 1.009 1.149 232
0.423 0.324 1.017 1.161 232
0.428 0.322 1.01 1.156 232
0.442 0.328 1.026 1.177 228
0.449 0.328 1.025 1.179 229
0.453 0.326 1.017 1.173 227
0.466 0.331 1.027 1.188 226
0.473 0.331 1.027 1.191 226
0.477 0.329 1.018 1.184 220
0.49 0.333 1.028 1.199 214
0.495 0.332 1.022 1.196 218
0.507 0.336 1.031 1.21 216
0.512 0.335 1.025 1.207 211
0.521 0.337 1.027 1.213 210
0.533 0.34 1.034 1.224 213
0.539 0.339 1.028 1.222 205
0.551 0.343 1.037 1.236 201
0.553 0.339 1.024 1.225 198
0.574 0.348 1.048 1.257 199
0.573 0.343 1.029 1.239 199
0.584 0.346 1.034 1.25 199
0.595 0.348 1.037 1.257 191
0.606 0.351 1.042 1.268 190
0.608 0.348 1.029 1.257 185
-0.388 0.226 0.648 0.799 827
-0.382 0.225 0.648 0.796 834
-0.379 0.227 0.654 0.8 822
-0.375 0.227 0.657 0.801 822
-0.368 0.225 0.653 0.794 814
-0.363 0.225 0.655 0.793 796
-0.363 0.227 0.664 0.801 795
-0.359 0.228 0.668 0.802 787
-0.35 0.225 0.661 0.792 783
-0.351 0.228 0.673 0.804 770
-0.348 0.229 0.677 0.806 767
-0.344 0.23 0.682 0.809 758
-0.34 0.23 0.683 0.808 760
-0.331 0.227 0.676 0.797 754
-0.329 0.229 0.684 0.805 749
-0.326 0.229 0.688 0.806 748
-0.322 0.23 0.692 0.808 739
-0.316 0.229 0.69 0.805 735
-0.317 0.233 0.705 0.819 736
-0.311 0.232 0.703 0.815 723
-0.307 0.232 0.706 0.816 717
-0.304 0.233 0.711 0.819 701
-0.296 0.231 0.705 0.811 701
-0.292 0.231 0.708 0.811 694
-0.29 0.233 0.715 0.817 678
-0.286 0.233 0.717 0.819 687
-0.282 0.234 0.722 0.822 677
-0.276 0.233 0.72 0.817 673
-0.272 0.234 0.723 0.819 673
-0.27 0.236 0.732 0.827 679
-0.265 0.236 0.732 0.826 666
-0.259 0.234 0.728 0.82 661
-0.257 0.236 0.737 0.828 650
-0.253 0.237 0.742 0.831 646
-0.249 0.237 0.743 0.831 640
-0.245 0.239 0.749 0.835 627
-0.239 0.238 0.746 0.831 626
-0.236 0.239 0.751 0.835 614
-0.232 0.239 0.754 0.836 613
-0.23 0.242 0.764 0.846 611
-0.225 0.242 0.767 0.848 599
-0.218 0.239 0.759 0.837 607
-0.214 0.24 0.762 0.84 603
-0.21 0.241 0.767 0.844 596
-0.206 0.242 0.771 0.846 592
-0.201 0.242 0.772 0.846 593
-0.196 0.241 0.77 0.842 582
-0.192 0.242 0.775 0.846 581
-0.188 0.244 0.78 0.851 573
-0.184 0.244 0.782 0.852 570
-0.18 0.245 0.786 0.855 567
-0.175 0.245 0.789 0.857 556
-0.171 0.247 0.794 0.862 560
-0.168 0.248 0.801 0.868 542
-0.163 0.248 0.801 0.867 542
-0.157 0.246 0.795 0.86 535
-0.153 0.248 0.802 0.866 525
-0.146 0.245 0.794 0.856 518
-0.142 0.247 0.799 0.862 509
-0.139 0.25 0.81 0.872 505
-0.135 0.251 0.813 0.875 467
-0.131 0.253 0.822 0.883 371
-0.126 0.254 0.825 0.885 410
-0.12 0.25 0.815 0.874 490
-0.116 0.253 0.825 0.883 492
-0.111 0.251 0.82 0.877 486
-0.107 0.255 0.832 0.889 479
-0.102 0.254 0.829 0.886 481
-0.097 0.255 0.832 0.888 475
-0.092 0.255 0.833 0.888 470
-0.088 0.256 0.838 0.894 469
-0.083 0.257 0.84 0.895 470
-0.079 0.26 0.851 0.906 459
-0.073 0.258 0.845 0.899 464
-0.069 0.26 0.853 0.908 463
-0.064 0.261 0.856 0.91 451
-0.059 0.262 0.859 0.913 444
-0.054 0.262 0.859 0.913 445
-0.049 0.263 0.865 0.918 442
-0.043 0.263 0.864 0.917 444
-0.038 0.262 0.862 0.915 437
-0.033 0.262 0.861 0.914 428
-0.028 0.266 0.873 0.926 431
-0.023 0.267 0.879 0.933 424
-0.018 0.268 0.88 0.933 420
-0.013 0.267 0.879 0.932 417
-0.007 0.265 0.872 0.925 411
-0.002 0.265 0.872 0.925 412
0.002 0.269 0.884 0.938 404
0.007 0.269 0.884 0.937 406
0.013 0.269 0.887 0.94 407
0.018 0.269 0.885 0.939 400
0.023 0.27 0.889 0.943 396
0.028 0.27 0.887 0.941 400
0.034 0.272 0.895 0.95 397
0.039 0.273 0.897 0.951 396
0.045 0.276 0.908 0.963 394
0.05 0.274 0.901 0.956 388
0.056 0.275 0.906 0.962 385
0.061 0.274 0.9 0.956 378
0.067 0.277 0.912 0.969 381
0.073 0.278 0.912 0.969 372
0.078 0.277 0.909 0.967 371
0.084 0.277 0.91 0.968 373
0.09 0.279 0.917 0.976 367
0.096 0.281 0.92 0.98 369
0.101 0.28 0.917 0.977 362
0.108 0.284 0.931 0.993 358
0.114 0.284 0.931 0.993 350
0.12 0.286 0.935 0.999 344
0.125 0.285 0.932 0.996 349
0.131 0.285 0.933 0.997 355
0.137 0.287 0.938 1.004 347
0.144 0.289 0.942 1.009 350
0.149 0.288 0.939 1.007 351
0.156 0.291 0.947 1.016 349
0.162 0.292 0.949 1.019 348
0.168 0.292 0.948 1.019 353
0.176 0.296 0.962 1.035 355
0.184 0.299 0.971 1.046 351
0.193 0.303 0.983 1.06 349
0.2 0.305 0.989 1.067 347
0.206 0.306 0.99 1.07 351
0.214 0.308 0.997 1.079 349
0.221 0.31 1.001 1.084 345
0.228 0.311 1.003 1.088 340
0.236 0.313 1.01 1.097 341
0.243 0.315 1.014 1.103 343
0.251 0.317 1.02 1.11 342
0.258 0.317 1.019 1.111 349
0.268 0.322 1.034 1.128 350
0.275 0.323 1.036 1.133 352
0.282 0.324 1.035 1.134 347
0.29 0.326 1.04 1.141 354
0.296 0.325 1.038 1.14 352
0.302 0.325 1.036 1.14 351
0.312 0.329 1.045 1.152 353
0.319 0.329 1.045 1.155 347
0.326 0.329 1.044 1.155 349
0.333 0.33 1.046 1.16 344
0.336 0.326 1.031 1.145 325
0.334 0.319 1.005 1.119 295
0.335 0.314 0.988 1.103 284
0.338 0.311 0.976 1.092 270
0.348 0.315 0.986 1.105 262
0.357 0.317 0.993 1.115 261
0.362 0.317 0.988 1.112 258
0.371 0.318 0.992 1.119 258
0.376 0.318 0.988 1.117 258
0.385 0.32 0.993 1.125 251
0.394 0.322 0.998 1.133 253
0.399 0.321 0.99 1.128 251
0.404 0.32 0.986 1.125 248
0.413 0.322 0.99 1.133 249
0.426 0.327 1.004 1.152 244
0.435 0.329 1.009 1.16 241
0.437 0.325 0.994 1.146 241
0.448 0.329 1.002 1.159 238
0.459 0.332 1.011 1.172 237
0.466 0.333 1.009 1.173 236
0.47 0.331 1.002 1.168 232
0.482 0.335 1.01 1.181 228
0.49 0.336 1.011 1.185 221
0.493 0.333 1 1.177 226
0.502 0.335 1.003 1.184 222
0.516 0.34 1.014 1.2 219
0.523 0.34 1.012 1.202 220
0.532 0.342 1.014 1.208 215
0.539 0.342 1.011 1.208 211
0.555 0.348 1.026 1.23 208
0.557 0.344 1.013 1.218 214
0.567 0.346 1.016 1.226 212
0.582 0.352 1.029 1.246 214
0.581 0.347 1.012 1.23 206
0.588 0.347 1.009 1.231 199
0.603 0.352 1.019 1.247 198
-0.381 0.227 0.636 0.786 866
-0.379 0.228 0.642 0.79 869
-0.372 0.226 0.639 0.784 865
-0.369 0.228 0.645 0.788 852
-0.365 0.228 0.647 0.787 844
-0.362 0.228 0.651 0.79 832
-0.358 0.229 0.654 0.791 826
-0.356 0.23 0.66 0.795 826
-0.35 0.229 0.66 0.792 818
-0.347 0.23 0.664 0.795 807
-0.342 0.229 0.664 0.792 803
-0.339 0.23 0.669 0.796 797
-0.334 0.23 0.671 0.795 796
-0.333 0.233 0.679 0.802 795
-0.327 0.232 0.678 0.799 792
-0.32 0.23 0.675 0.793 789
-0.32 0.233 0.686 0.804 771
-0.314 0.232 0.684 0.799 764
-0.31 0.232 0.686 0.799 757
-0.306 0.232 0.689 0.8 752
-0.301 0.232 0.691 0.8 746
-0.298 0.233 0.696 0.804 738
-0.293 0.233 0.697 0.803 739
-0.29 0.234 0.7 0.805 736
-0.286 0.234 0.703 0.806 716
-0.283 0.236 0.708 0.81 713
-0.277 0.235 0.707 0.807 704
-0.274 0.236 0.712 0.81 701
-0.269 0.236 0.713 0.81 693
-0.266 0.237 0.719 0.815 698
-0.263 0.238 0.725 0.819 688
-0.258 0.238 0.725 0.818 685
-0.254 0.238 0.728 0.819 682
-0.249 0.238 0.729 0.818 674
-0.244 0.238 0.729 0.817 664
-0.242 0.24 0.738 0.825 656
-0.238 0.241 0.74 0.826 663
-0.232 0.24 0.738 0.822 644
-0.229 0.241 0.744 0.827 652
-0.225 0.241 0.746 0.828 642
-0.219 0.24 0.744 0.824 639
-0.216 0.242 0.752 0.831 640
-0.212 0.242 0.753 0.831 632
-0.206 0.241 0.751 0.827 625
-0.202 0.242 0.755 0.83 629
-0.2 0.245 0.765 0.84 620
-0.193 0.242 0.756 0.829 615
-0.19 0.244 0.765 0.838 605
-0.186 0.246 0.77 0.842 602
-0.181 0.245 0.769 0.84 590
-0.179 0.248 0.78 0.85 588
-0.174 0.248 0.782 0.851 579
-0.168 0.247 0.779 0.847 567
-0.163 0.247 0.778 0.844 558
-0.158 0.246 0.778 0.844 563
-0.156 0.251 0.793 0.859 565
-0.15 0.248 0.784 0.849 555
-0.146 0.249 0.79 0.854 540
-0.142 0.251 0.796 0.859 543
-0.137 0.251 0.797 0.86 509
-0.135 0.256 0.814 0.877 467
-0.129 0.254 0.808 0.869 435
-0.122 0.25 0.796 0.856 491
-0.118 0.251 0.801 0.86 522
-0.114 0.253 0.806 0.866 514
-0.109 0.254 0.809 0.868 509
-0.105 0.254 0.812 0.871 509
-0.1 0.254 0.812 0.869 505
-0.095 0.254 0.814 0.871 507
-0.09 0.255 0.817 0.873 499
-0.086 0.256 0.82 0.877 500
-0.081 0.255 0.818 0.874 494
-0.076 0.257 0.824 0.88 490
-0.072 0.258 0.829 0.884 487
-0.067 0.259 0.831 0.886 479
-0.062 0.26 0.835 0.89 470
-0.057 0.261 0.837 0.892 469
-0.053 0.264 0.847 0.902 466
-0.048 0.265 0.853 0.908 460
-0.043 0.267 0.858 0.913 463
-0.038 0.265 0.853 0.907 454
-0.033 0.263 0.846 0.9 450
-0.028 0.267 0.861 0.915 446
-0.023 0.266 0.856 0.909 435
-0.018 0.268 0.865 0.919 439
-0.012 0.267 0.859 0.912 437
-0.007 0.265 0.855 0.908 435
-0.002 0.27 0.871 0.926 426
0.002 0.27 0.87 0.924 420
0.007 0.269 0.867 0.921 422
0.012 0.269 0.865 0.919 426
0.018 0.27 0.87 0.925 421
0.023 0.271 0.874 0.929 417
0.028 0.273 0.879 0.934 417
0.033 0.272 0.875 0.93 413
0.039 0.275 0.884 0.94 411
0.044 0.274 0.882 0.938 407
0.05 0.276 0.887 0.944 404
0.055 0.274 0.882 0.938 400
0.061 0.277 0.893 0.95 398
0.066 0.278 0.895 0.953 395
0.071 0.276 0.887 0.945 393
0.077 0.28 0.9 0.959 393
0.083 0.281 0.902 0.961 388
0.088 0.28 0.9 0.96 383
0.094 0.282 0.906 0.967 382
0.1 0.283 0.909 0.971 372
0.105 0.283 0.906 0.968 369
0.112 0.286 0.916 0.979 375
0.117 0.285 0.912 0.976 369
0.125 0.289 0.926 0.992 368
0.129 0.287 0.918 0.984 373
0.134 0.285 0.91 0.977 368
0.14 0.288 0.919 0.986 366
0.146 0.289 0.921 0.989 363
0.151 0.288 0.917 0.986 363
0.159 0.292 0.929 1 362
0.165 0.292 0.928 1 355
0.171 0.293 0.932 1.005 358
0.178 0.296 0.939 1.014 355
0.183 0.295 0.935 1.011 342
0.192 0.299 0.947 1.025 340
0.198 0.299 0.948 1.027 346
0.206 0.303 0.958 1.039 347
0.212 0.303 0.957 1.039 344
0.221 0.308 0.973 1.057 350
0.229 0.31 0.979 1.066 345
0.235 0.31 0.977 1.065 348
0.246 0.316 0.995 1.085 352
0.252 0.316 0.993 1.086 355
0.261 0.32 1.005 1.1 355
0.265 0.318 0.995 1.091 353
0.277 0.324 1.014 1.113 358
0.282 0.323 1.01 1.111 360
0.288 0.323 1.007 1.109 359
0.298 0.327 1.02 1.125 365
0.305 0.328 1.021 1.128 359
0.312 0.329 1.022 1.131 357
0.32 0.33 1.024 1.135 355
0.328 0.332 1.027 1.141 354
0.329 0.326 1.009 1.124 331
0.326 0.318 0.98 1.093 297
0.332 0.318 0.978 1.094 287
0.336 0.316 0.97 1.087 277
0.344 0.317 0.971 1.091 275
0.348 0.316 0.966 1.087 273
0.357 0.318 0.972 1.096 274
0.362 0.317 0.965 1.091 269
0.372 0.321 0.975 1.105 269
0.378 0.32 0.972 1.104 267
0.387 0.322 0.976 1.111 260
0.394 0.323 0.978 1.116 263
0.405 0.327 0.988 1.13 260
0.412 0.327 0.986 1.13 252
0.416 0.326 0.978 1.124 257
0.425 0.328 0.981 1.131 254
0.433 0.329 0.984 1.137 249
0.438 0.328 0.979 1.134 246
0.45 0.333 0.989 1.149 245
0.457 0.333 0.988 1.151 246
0.461 0.331 0.981 1.146 245
0.472 0.335 0.988 1.158 240
0.481 0.336 0.99 1.163 239
0.492 0.339 0.997 1.175 233
0.496 0.337 0.988 1.168 228
0.5 0.336 0.982 1.164 229
0.513 0.34 0.991 1.179 227
0.518 0.339 0.985 1.177 227
0.525 0.34 0.984 1.178 220
0.54 0.345 0.996 1.197 222
0.549 0.346 0.997 1.202 223
0.554 0.346 0.992 1.2 222
0.558 0.344 0.983 1.193 217
0.572 0.349 0.994 1.211 218
0.581 0.35 0.994 1.216 211
0.586 0.349 0.988 1.213 212
-0.376 0.228 0.626 0.775 904
-0.375 0.23 0.634 0.782 907
-0.369 0.229 0.632 0.778 899
-0.365 0.229 0.635 0.778 889
-0.362 0.23 0.639 0.78 874
-0.356 0.229 0.639 0.777 872
-0.355 0.231 0.646 0.783 865
-0.351 0.232 0.651 0.786 859
-0.347 0.231 0.651 0.784 857
-0.341 0.23 0.65 0.78 857
-0.339 0.232 0.658 0.788 849
-0.335 0.232 0.659 0.786 844
-0.329 0.231 0.659 0.783 842
-0.327 0.233 0.665 0.788 838
-0.323 0.233 0.669 0.79 824
-0.318 0.233 0.669 0.788 827
-0.313 0.232 0.669 0.786 813
-0.313 0.235 0.68 0.796 803
-0.307 0.235 0.679 0.793 786
-0.303 0.235 0.681 0.793 783
-0.302 0.237 0.691 0.802 779
-0.293 0.234 0.683 0.791 770
-0.292 0.237 0.692 0.799 769
-0.286 0.235 0.69 0.795 765
-0.283 0.237 0.695 0.799 745
-0.281 0.239 0.703 0.805 747
-0.276 0.239 0.704 0.805 752
-0.273 0.239 0.708 0.808 740
-0.269 0.24 0.711 0.809 725
-0.264 0.239 0.711 0.808 729
-0.258 0.238 0.709 0.803 721
-0.255 0.24 0.715 0.808 727
-0.25 0.24 0.716 0.807 716
-0.249 0.242 0.725 0.816 707
-0.243 0.241 0.723 0.812 704
-0.239 0.242 0.726 0.814 684
-0.235 0.242 0.728 0.814 678
-0.23 0.242 0.729 0.814 677
-0.225 0.242 0.73 0.813 673
-0.22 0.24 0.728 0.81 676
-0.216 0.242 0.733 0.814 673
-0.214 0.244 0.741 0.822 666
-0.209 0.244 0.742 0.821 662
-0.205 0.245 0.745 0.823 658
-0.2 0.245 0.746 0.823 655
-0.196 0.245 0.749 0.825 645
-0.192 0.246 0.752 0.826 640
-0.188 0.246 0.754 0.828 645
-0.183 0.246 0.754 0.827 631
-0.179 0.247 0.758 0.83 624
-0.175 0.248 0.762 0.832 623
-0.172 0.25 0.769 0.839 610
-0.166 0.248 0.765 0.834 603
-0.162 0.249 0.769 0.837 593
-0.158 0.25 0.774 0.841 591
-0.153 0.25 0.775 0.841 588
-0.148 0.249 0.773 0.838 580
-0.144 0.25 0.776 0.841 569
-0.141 0.253 0.786 0.85 552
-0.136 0.254 0.789 0.852 500
-0.131 0.254 0.79 0.853 464
-0.126 0.253 0.787 0.849 491
-0.122 0.254 0.791 0.852 548
-0.116 0.253 0.788 0.849 543
-0.112 0.254 0.794 0.854 541
-0.108 0.255 0.797 0.857 539
-0.104 0.256 0.802 0.861 534
-0.1 0.259 0.81 0.869 527
-0.094 0.258 0.807 0.865 526
-0.09 0.258 0.808 0.865 525
-0.086 0.261 0.817 0.875 515
-0.08 0.259 0.813 0.87 517
-0.075 0.258 0.811 0.868 511
-0.07 0.258 0.811 0.867 506
-0.066 0.259 0.815 0.871 502
-0.062 0.263 0.827 0.883 490
-0.057 0.263 0.829 0.885 488
-0.052 0.265 0.834 0.89 492
-0.047 0.265 0.834 0.889 486
-0.042 0.266 0.838 0.893 486
-0.037 0.267 0.841 0.897 475
-0.032 0.266 0.837 0.892 471
-0.027 0.266 0.84 0.894 468
-0.022 0.268 0.845 0.9 465
-0.018 0.271 0.854 0.909 461
-0.012 0.269 0.849 0.904 451
-0.007 0.269 0.849 0.904 455
-0.002 0.27 0.852 0.907 453
0.002 0.271 0.856 0.911 444
0.007 0.27 0.852 0.907 447
0.012 0.27 0.852 0.907 445
0.017 0.273 0.863 0.918 439
0.022 0.273 0.86 0.916 447
0.028 0.273 0.862 0.918 438
0.033 0.271 0.856 0.911 431
0.038 0.274 0.863 0.919 427
0.044 0.276 0.87 0.927 424
0.049 0.278 0.877 0.934 423
0.054 0.276 0.871 0.929 420
0.06 0.279 0.88 0.939 413
0.065 0.278 0.875 0.933 416
0.071 0.281 0.884 0.944 409
0.077 0.282 0.889 0.949 406
0.082 0.282 0.886 0.947 397
0.087 0.28 0.881 0.942 391
0.092 0.281 0.884 0.946 390
0.098 0.284 0.892 0.954 394
0.104 0.285 0.896 0.959 392
0.11 0.285 0.894 0.958 395
0.114 0.284 0.889 0.954 395
0.121 0.286 0.897 0.963 388
0.126 0.286 0.897 0.963 396
0.132 0.287 0.897 0.965 390
0.137 0.287 0.898 0.966 385
0.144 0.29 0.906 0.976 386
0.15 0.291 0.909 0.98 380
0.155 0.289 0.9 0.971 375
0.161 0.29 0.903 0.975 369
0.167 0.292 0.907 0.981 374
0.175 0.296 0.921 0.996 375
0.18 0.295 0.916 0.992 367
0.186 0.295 0.915 0.992 357
0.191 0.295 0.915 0.993 351
0.2 0.299 0.927 1.008 352
0.205 0.298 0.923 1.005 345
0.212 0.3 0.928 1.011 344
0.222 0.306 0.945 1.031 342
0.226 0.305 0.939 1.026 337
0.233 0.306 0.943 1.032 338
0.241 0.308 0.948 1.039 344
0.247 0.309 0.949 1.041 344
0.253 0.309 0.949 1.043 343
0.266 0.317 0.972 1.07 357
0.274 0.32 0.98 1.08 356
0.283 0.323 0.988 1.09 360
0.291 0.325 0.992 1.097 357
0.294 0.322 0.982 1.088 355
0.303 0.325 0.99 1.098 353
0.31 0.326 0.989 1.099 351
0.316 0.326 0.988 1.101 347
0.32 0.324 0.979 1.093 332
0.318 0.316 0.952 1.065 307
0.326 0.317 0.956 1.072 295
0.334 0.32 0.962 1.081 293
0.334 0.314 0.942 1.06 289
0.345 0.318 0.954 1.076 286
0.348 0.316 0.945 1.069 282
0.356 0.318 0.948 1.074 277
0.366 0.321 0.956 1.085 282
0.369 0.319 0.947 1.078 278
0.38 0.323 0.959 1.094 280
0.386 0.323 0.955 1.092 273
0.397 0.327 0.965 1.106 271
0.399 0.323 0.953 1.095 269
0.415 0.331 0.973 1.121 265
0.417 0.328 0.961 1.111 259
0.427 0.331 0.967 1.12 265
0.431 0.329 0.96 1.115 260
0.446 0.336 0.978 1.139 259
0.448 0.332 0.965 1.127 255
0.458 0.335 0.971 1.137 252
0.467 0.337 0.975 1.145 248
0.473 0.337 0.972 1.145 249
0.48 0.337 0.969 1.145 249
0.487 0.338 0.969 1.148 241
0.495 0.339 0.969 1.153 243
0.503 0.34 0.97 1.157 242
0.508 0.339 0.964 1.154 232
0.525 0.346 0.981 1.177 232
0.533 0.347 0.98 1.181 233
0.542 0.349 0.983 1.188 236
0.546 0.347 0.975 1.183 230
0.564 0.354 0.992 1.207 224
0.569 0.353 0.986 1.204 223
0.576 0.353 0.983 1.205 227
0.581 0.353 0.978 1.203 221
-0.375 0.232 0.624 0.774 943
-0.369 0.231 0.622 0.77 942
-0.366 0.232 0.627 0.773 933
-0.363 0.232 0.631 0.775 923
-0.356 0.23 0.627 0.767 914
-0.354 0.232 0.635 0.774 913
-0.349 0.231 0.634 0.771 904
-0.345 0.232 0.637 0.771 901
-0.344 0.234 0.645 0.779 884
-0.34 0.234 0.647 0.779 877
-0.334 0.233 0.646 0.775 876
-0.33 0.233 0.648 0.775 871
-0.325 0.232 0.648 0.773 873
-0.326 0.237 0.662 0.786 871
-0.32 0.235 0.661 0.782 869
-0.31 0.231 0.651 0.768 855
-0.311 0.235 0.664 0.782 842
-0.307 0.235 0.665 0.781 833
-0.302 0.235 0.665 0.778 830
-0.299 0.236 0.672 0.784 810
-0.299 0.239 0.683 0.794 808
-0.293 0.239 0.682 0.791 801
-0.287 0.237 0.68 0.787 799
-0.285 0.239 0.687 0.793 790
-0.281 0.239 0.687 0.792 792
-0.277 0.24 0.691 0.794 785
-0.273 0.24 0.693 0.794 776
-0.27 0.241 0.698 0.798 768
-0.263 0.239 0.695 0.792 762
-0.26 0.24 0.698 0.795 760
-0.255 0.24 0.698 0.793 757
-0.253 0.242 0.708 0.802 754
-0.249 0.243 0.71 0.802 748
-0.245 0.243 0.712 0.803 744
-0.241 0.244 0.716 0.806 733
-0.235 0.242 0.714 0.802 724
-0.232 0.244 0.718 0.805 724
-0.226 0.243 0.717 0.802 722
-0.222 0.242 0.717 0.801 725
-0.22 0.246 0.729 0.812 713
-0.216 0.246 0.732 0.814 704
-0.21 0.244 0.725 0.806 698
-0.206 0.245 0.729 0.808 696
-0.204 0.248 0.739 0.818 688
-0.197 0.245 0.732 0.809 686
-0.195 0.248 0.741 0.818 669
-0.191 0.249 0.746 0.821 667
-0.184 0.246 0.738 0.812 667
-0.181 0.247 0.743 0.816 659
-0.178 0.25 0.751 0.823 652
-0.173 0.25 0.754 0.826 647
-0.169 0.251 0.757 0.827 638
-0.164 0.25 0.754 0.824 634
-0.159 0.249 0.754 0.823 635
-0.156 0.253 0.765 0.833 630
-0.15 0.25 0.759 0.826 609
-0.147 0.252 0.766 0.832 607
-0.141 0.25 0.76 0.826 587
-0.138 0.253 0.768 0.833 490
-0.133 0.253 0.77 0.835 450
-0.129 0.254 0.774 0.837 467
-0.125 0.255 0.778 0.841 543
-0.12 0.255 0.779 0.841 570
-0.115 0.254 0.775 0.836 566
-0.111 0.256 0.784 0.845 553
-0.107 0.257 0.786 0.846 558
-0.102 0.257 0.786 0.846 559
-0.097 0.257 0.787 0.846 551
-0.093 0.258 0.79 0.849 545
-0.088 0.258 0.793 0.852 545
-0.083 0.258 0.793 0.851 539
-0.079 0.26 0.799 0.857 536
-0.074 0.259 0.797 0.854 532
-0.07 0.263 0.809 0.866 532
-0.065 0.262 0.807 0.864 521
-0.061 0.263 0.81 0.866 514
-0.056 0.265 0.818 0.875 515
-0.051 0.264 0.814 0.87 512
-0.046 0.265 0.817 0.874 517
-0.041 0.264 0.814 0.87 516
-0.037 0.268 0.826 0.882 509
-0.032 0.268 0.826 0.882 497
-0.027 0.269 0.831 0.887 492
-0.022 0.268 0.829 0.884 484
-0.017 0.272 0.841 0.898 482
-0.012 0.27 0.835 0.891 470
-0.007 0.271 0.837 0.893 469
-0.002 0.272 0.839 0.895 468
0.002 0.273 0.845 0.901 468
0.007 0.27 0.835 0.891 470
0.012 0.271 0.837 0.893 462
0.017 0.274 0.846 0.903 455
0.022 0.275 0.849 0.906 456
0.027 0.273 0.844 0.901 455
0.033 0.276 0.853 0.91 454
0.037 0.275 0.849 0.907 451
0.043 0.279 0.861 0.92 446
0.048 0.277 0.856 0.914 440
0.053 0.277 0.855 0.913 440
0.059 0.28 0.862 0.922 436
0.064 0.281 0.865 0.925 431
0.07 0.282 0.87 0.93 424
0.075 0.282 0.868 0.929 418
0.08 0.283 0.871 0.933 412
0.085 0.281 0.864 0.925 408
0.091 0.283 0.87 0.933 406
0.097 0.284 0.874 0.938 409
0.102 0.285 0.877 0.941 413
0.108 0.286 0.879 0.944 411
0.113 0.287 0.88 0.946 411
0.119 0.287 0.881 0.947 408
0.125 0.289 0.887 0.954 408
0.13 0.289 0.885 0.953 403
0.137 0.293 0.896 0.966 397
0.142 0.292 0.892 0.963 396
0.148 0.293 0.895 0.967 397
0.153 0.292 0.893 0.965 389
0.16 0.294 0.897 0.97 390
0.166 0.295 0.9 0.975 389
0.172 0.296 0.9 0.976 386
0.179 0.298 0.908 0.985 385
0.184 0.297 0.904 0.982 376
0.19 0.299 0.907 0.987 368
0.197 0.301 0.914 0.995 367
0.203 0.301 0.913 0.995 358
0.208 0.301 0.911 0.995 359
0.216 0.304 0.919 1.005 364
0.221 0.303 0.914 1.001 357
0.229 0.307 0.925 1.015 348
0.236 0.308 0.928 1.019 351
0.242 0.308 0.928 1.02 350
0.25 0.311 0.935 1.03 353
0.256 0.312 0.936 1.033 347
0.262 0.312 0.935 1.033 349
0.268 0.313 0.935 1.035 344
0.276 0.314 0.939 1.041 347
0.285 0.319 0.95 1.055 342
0.289 0.316 0.941 1.047 345
0.297 0.318 0.945 1.053 341
0.303 0.318 0.944 1.054 335
0.308 0.318 0.942 1.054 323
0.312 0.316 0.933 1.047 315
0.318 0.316 0.932 1.048 314
0.325 0.317 0.933 1.05 311
0.333 0.319 0.937 1.057 299
0.34 0.32 0.939 1.061 300
0.346 0.32 0.938 1.063 297
0.354 0.322 0.941 1.068 293
0.362 0.324 0.945 1.075 290
0.366 0.322 0.938 1.07 293
0.372 0.322 0.936 1.071 285
0.383 0.326 0.946 1.084 289
0.391 0.328 0.948 1.089 285
0.397 0.328 0.946 1.09 281
0.4 0.326 0.937 1.082 280
0.412 0.331 0.95 1.1 278
0.42 0.332 0.95 1.103 273
0.423 0.329 0.941 1.095 276
0.435 0.334 0.951 1.11 270
0.44 0.333 0.947 1.108 273
0.449 0.335 0.95 1.115 262
0.456 0.336 0.95 1.119 259
0.465 0.337 0.952 1.125 254
0.473 0.339 0.954 1.13 259
0.481 0.34 0.954 1.134 255
0.493 0.344 0.964 1.148 251
0.5 0.344 0.961 1.149 249
0.508 0.346 0.962 1.154 251
0.51 0.343 0.951 1.145 244
0.523 0.347 0.961 1.16 246
0.529 0.346 0.956 1.158 245
0.543 0.352 0.967 1.176 244
0.554 0.354 0.972 1.186 233
0.557 0.352 0.963 1.179 232
0.572 0.357 0.974 1.197 239
0.573 0.354 0.961 1.186 238
-0.367 0.231 0.608 0.758 977
-0.365 0.232 0.614 0.762 975
-0.362 0.233 0.618 0.764 965
-0.356 0.232 0.617 0.76 964
-0.353 0.233 0.621 0.762 948
-0.35 0.233 0.624 0.764 939
-0.347 0.234 0.629 0.766 946
-0.345 0.236 0.636 0.772 940
-0.337 0.233 0.63 0.763 922
-0.333 0.234 0.633 0.763 923
-0.327 0.232 0.631 0.759 915
-0.325 0.234 0.637 0.764 919
-0.322 0.235 0.641 0.766 911
-0.32 0.237 0.649 0.772 908
-0.319 0.239 0.657 0.779 894
-0.312 0.237 0.654 0.774 880
-0.306 0.236 0.652 0.769 876
-0.306 0.239 0.663 0.78 871
-0.298 0.237 0.657 0.771 867
-0.297 0.239 0.666 0.779 843
-0.291 0.237 0.662 0.773 839
-0.288 0.239 0.667 0.777 835
-0.284 0.239 0.669 0.777 831
-0.283 0.242 0.68 0.787 835
-0.278 0.241 0.68 0.785 821
-0.273 0.24 0.678 0.781 812
-0.269 0.241 0.681 0.783 791
-0.266 0.242 0.686 0.786 790
-0.26 0.24 0.683 0.781 796
-0.257 0.242 0.69 0.787 797
-0.253 0.242 0.691 0.787 791
-0.248 0.242 0.693 0.787 792
-0.246 0.244 0.7 0.793 784
-0.24 0.243 0.698 0.789 772
-0.238 0.245 0.705 0.795 768
-0.232 0.243 0.7 0.789 765
-0.229 0.245 0.707 0.795 767
-0.226 0.246 0.713 0.8 759
-0.221 0.246 0.714 0.8 762
-0.217 0.246 0.715 0.799 750
-0.213 0.247 0.719 0.801 746
-0.209 0.247 0.72 0.802 737
-0.206 0.25 0.729 0.81 733
-0.2 0.247 0.723 0.802 722
-0.197 0.249 0.729 0.808 714
-0.191 0.248 0.726 0.803 700
-0.188 0.249 0.732 0.808 676
-0.182 0.247 0.726 0.801 661
-0.179 0.249 0.734 0.808 676
-0.174 0.248 0.732 0.805 677
-0.171 0.252 0.743 0.816 668
-0.166 0.251 0.74 0.812 660
-0.163 0.253 0.75 0.82 657
-0.157 0.251 0.745 0.814 654
-0.154 0.253 0.751 0.82 650
-0.149 0.253 0.75 0.818 640
-0.145 0.254 0.756 0.823 630
-0.142 0.256 0.762 0.829 560
-0.139 0.26 0.776 0.843 330
-0.134 0.258 0.771 0.837 377
-0.128 0.256 0.764 0.828 506
-0.123 0.257 0.767 0.831 600
-0.118 0.256 0.764 0.827 600
-0.114 0.256 0.766 0.828 595
-0.11 0.258 0.774 0.836 597
-0.105 0.259 0.775 0.837 592
-0.101 0.258 0.774 0.835 599
-0.097 0.262 0.786 0.847 580
-0.091 0.259 0.778 0.838 563
-0.087 0.26 0.783 0.843 554
-0.083 0.261 0.787 0.846 572
-0.078 0.262 0.788 0.847 568
-0.073 0.261 0.786 0.844 554
-0.069 0.261 0.787 0.845 556
-0.065 0.264 0.796 0.854 549
-0.06 0.263 0.795 0.852 547
-0.055 0.264 0.798 0.856 551
-0.05 0.265 0.8 0.857 546
-0.046 0.265 0.801 0.858 537
-0.041 0.268 0.811 0.868 533
-0.036 0.268 0.811 0.868 525
-0.031 0.266 0.805 0.862 520
-0.027 0.269 0.813 0.87 516
-0.022 0.269 0.815 0.871 514
-0.017 0.269 0.813 0.869 506
-0.012 0.271 0.819 0.876 499
-0.007 0.272 0.823 0.88 489
-0.002 0.271 0.822 0.878 488
0.002 0.272 0.823 0.879 492
0.007 0.274 0.828 0.885 487
0.012 0.272 0.823 0.88 482
0.017 0.274 0.83 0.888 479
0.022 0.276 0.835 0.893 477
0.027 0.276 0.834 0.892 473
0.032 0.278 0.841 0.899 471
0.037 0.278 0.842 0.9 476
0.042 0.276 0.836 0.895 463
0.047 0.279 0.844 0.904 467
0.053 0.28 0.847 0.906 460
0.058 0.281 0.85 0.91 446
0.063 0.281 0.849 0.909 439
0.069 0.284 0.857 0.919 432
0.074 0.283 0.853 0.915 436
0.08 0.286 0.864 0.927 440
0.084 0.284 0.857 0.92 434
0.09 0.285 0.859 0.922 433
0.095 0.285 0.86 0.924 425
0.1 0.285 0.858 0.923 424
0.106 0.288 0.866 0.932 428
0.112 0.288 0.867 0.934 424
0.117 0.288 0.866 0.934 424
0.124 0.292 0.878 0.947 427
0.129 0.292 0.876 0.945 413
0.135 0.292 0.876 0.947 416
0.141 0.293 0.879 0.951 415
0.146 0.294 0.881 0.953 416
0.151 0.293 0.878 0.951 409
0.157 0.294 0.878 0.952 412
0.162 0.294 0.877 0.953 411
0.169 0.296 0.885 0.961 406
0.175 0.298 0.888 0.966 398
0.181 0.298 0.889 0.968 398
0.187 0.299 0.891 0.971 390
0.193 0.3 0.892 0.974 382
0.2 0.302 0.896 0.98 382
0.206 0.304 0.9 0.985 376
0.211 0.303 0.897 0.983 375
0.218 0.304 0.9 0.988 379
0.223 0.304 0.898 0.987 374
0.231 0.307 0.907 0.998 369
0.239 0.31 0.914 1.007 365
0.245 0.311 0.915 1.01 366
0.25 0.31 0.91 1.007 364
0.256 0.31 0.909 1.007 360
0.266 0.316 0.925 1.027 349
0.271 0.315 0.922 1.025 354
0.277 0.315 0.921 1.025 350
0.282 0.314 0.915 1.02 347
0.289 0.316 0.92 1.028 341
0.292 0.313 0.91 1.018 338
0.3 0.315 0.913 1.024 333
0.304 0.313 0.906 1.019 334
0.313 0.317 0.917 1.032 326
0.323 0.321 0.926 1.045 319
0.328 0.32 0.923 1.043 314
0.334 0.32 0.92 1.042 310
0.339 0.32 0.917 1.041 315
0.349 0.323 0.925 1.053 311
0.352 0.321 0.917 1.047 304
0.361 0.324 0.923 1.055 305
0.366 0.323 0.918 1.053 300
0.376 0.327 0.928 1.066 300
0.383 0.328 0.928 1.069 299
0.391 0.329 0.93 1.074 301
0.397 0.329 0.928 1.075 298
0.401 0.327 0.92 1.068 299
0.416 0.335 0.94 1.094 293
0.418 0.332 0.928 1.083 289
0.427 0.334 0.933 1.092 290
0.436 0.336 0.936 1.099 280
0.441 0.336 0.932 1.097 277
0.449 0.336 0.932 1.101 279
0.458 0.339 0.936 1.109 271
0.464 0.339 0.934 1.109 270
0.477 0.343 0.944 1.125 266
0.487 0.346 0.949 1.134 264
0.487 0.342 0.935 1.12 265
0.494 0.343 0.934 1.123 259
0.505 0.345 0.939 1.133 257
0.514 0.348 0.942 1.14 258
0.519 0.347 0.937 1.138 262
0.535 0.353 0.951 1.159 252
0.537 0.35 0.939 1.149 247
0.547 0.352 0.943 1.158 246
0.556 0.354 0.946 1.165 249
0.566 0.356 0.948 1.173 251
-0.365 0.234 0.603 0.753 1030
-0.362 0.234 0.607 0.755 1024
-0.357 0.234 0.608 0.754 1012
-0.354 0.235 0.613 0.756 989
-0.348 0.234 0.611 0.752 990
-0.347 0.236 0.618 0.758 974
-0.341 0.234 0.616 0.753 979
-0.341 0.238 0.628 0.764 975
-0.334 0.235 0.623 0.756 967
-0.33 0.236 0.626 0.757 971
-0.328 0.237 0.632 0.762 965
-0.326 0.239 0.638 0.766 962
-0.318 0.236 0.632 0.757 957
-0.318 0.239 0.643 0.767 933
-0.312 0.238 0.641 0.763 926
-0.308 0.238 0.642 0.762 925
-0.304 0.238 0.645 0.764 896
-0.299 0.237 0.644 0.76 898
-0.299 0.241 0.656 0.771 898
-0.292 0.239 0.652 0.765 886
-0.287 0.239 0.653 0.764 887
-0.286 0.241 0.661 0.771 883
-0.281 0.241 0.661 0.769 872
-0.279 0.242 0.668 0.775 865
-0.275 0.242 0.67 0.775 855
-0.27 0.242 0.671 0.774 846
-0.267 0.243 0.675 0.777 834
-0.262 0.242 0.674 0.774 825
-0.259 0.244 0.68 0.779 829
-0.255 0.244 0.682 0.779 823
-0.251 0.244 0.684 0.78 817
-0.246 0.244 0.685 0.78 821
-0.242 0.244 0.686 0.779 816
-0.24 0.247 0.694 0.787 813
-0.234 0.246 0.693 0.783 809
-0.23 0.245 0.693 0.783 797
-0.225 0.245 0.694 0.782 796
-0.222 0.246 0.698 0.784 790
-0.219 0.248 0.704 0.79 789
-0.214 0.247 0.703 0.788 780
-0.211 0.249 0.711 0.795 781
-0.205 0.247 0.706 0.788 776
-0.202 0.248 0.711 0.792 767
-0.197 0.249 0.713 0.792 761
-0.195 0.252 0.722 0.801 747
-0.189 0.25 0.717 0.795 730
-0.184 0.249 0.717 0.793 721
-0.181 0.251 0.723 0.799 698
-0.177 0.251 0.725 0.799 677
-0.173 0.251 0.726 0.8 689
-0.168 0.251 0.725 0.798 699
-0.163 0.25 0.725 0.797 700
-0.161 0.254 0.738 0.809 692
-0.156 0.253 0.735 0.806 682
-0.151 0.253 0.736 0.806 682
-0.147 0.254 0.739 0.808 666
-0.143 0.254 0.74 0.808 642
-0.139 0.256 0.748 0.816 559
-0.135 0.256 0.747 0.814 472
-0.131 0.258 0.756 0.822 495
-0.126 0.258 0.754 0.82 611
-0.122 0.258 0.756 0.821 628
-0.117 0.258 0.756 0.821 633
-0.112 0.256 0.75 0.813 622
-0.108 0.259 0.76 0.822 619
-0.103 0.257 0.756 0.818 621
-0.1 0.26 0.764 0.826 611
-0.094 0.258 0.76 0.821 609
-0.091 0.261 0.77 0.831 594
-0.086 0.262 0.772 0.833 592
-0.082 0.262 0.772 0.832 599
-0.077 0.263 0.775 0.835 590
-0.073 0.264 0.781 0.841 586
-0.068 0.264 0.781 0.841 576
-0.063 0.263 0.777 0.836 571
-0.059 0.264 0.781 0.839 574
-0.055 0.267 0.791 0.849 569
-0.05 0.266 0.788 0.846 569
-0.045 0.267 0.79 0.848 560
-0.04 0.267 0.79 0.848 564
-0.036 0.269 0.796 0.854 550
-0.031 0.269 0.796 0.854 547
-0.026 0.269 0.798 0.855 547
-0.021 0.269 0.799 0.856 541
-0.017 0.271 0.803 0.86 537
-0.012 0.272 0.806 0.864 531
-0.007 0.272 0.806 0.863 530
-0.002 0.272 0.808 0.866 514
0.002 0.274 0.814 0.872 505
0.007 0.276 0.818 0.876 500
0.012 0.276 0.818 0.877 498
0.017 0.276 0.82 0.879 503
0.021 0.275 0.816 0.874 501
0.026 0.277 0.821 0.88 498
0.031 0.277 0.821 0.88 492
0.037 0.28 0.83 0.89 491
0.041 0.279 0.826 0.886 486
0.047 0.282 0.835 0.895 483
0.052 0.283 0.84 0.901 476
0.057 0.282 0.836 0.897 461
0.062 0.282 0.834 0.895 457
0.068 0.285 0.845 0.908 454
0.073 0.285 0.844 0.908 459
0.078 0.285 0.843 0.906 468
0.084 0.288 0.851 0.915 455
0.088 0.284 0.84 0.905 448
0.094 0.287 0.849 0.914 449
0.099 0.288 0.85 0.916 451
0.105 0.29 0.856 0.923 445
0.11 0.289 0.851 0.919 437
0.115 0.289 0.851 0.919 443
0.121 0.289 0.852 0.921 449
0.126 0.291 0.856 0.926 447
0.132 0.292 0.858 0.929 440
0.138 0.293 0.861 0.933 440
0.143 0.293 0.86 0.933 439
0.149 0.295 0.865 0.939 432
0.154 0.295 0.864 0.939 429
0.16 0.296 0.865 0.941 431
0.165 0.295 0.864 0.941 430
0.171 0.296 0.866 0.944 429
0.178 0.299 0.872 0.952 422
0.185 0.302 0.881 0.963 410
0.19 0.301 0.878 0.961 409
0.196 0.302 0.878 0.962 411
0.202 0.303 0.88 0.966 401
0.208 0.303 0.88 0.967 398
0.214 0.305 0.885 0.974 398
0.219 0.304 0.881 0.971 387
0.228 0.308 0.891 0.983 391
0.233 0.308 0.891 0.984 385
0.239 0.309 0.892 0.987 382
0.248 0.313 0.901 0.999 381
0.254 0.313 0.901 1.001 377
0.258 0.312 0.896 0.997 373
0.265 0.314 0.9 1.002 369
0.27 0.313 0.896 1 361
0.278 0.315 0.901 1.008 359
0.284 0.316 0.902 1.011 353
0.29 0.316 0.9 1.01 347
0.297 0.318 0.905 1.017 349
0.303 0.318 0.902 1.016 345
0.307 0.317 0.897 1.013 340
0.315 0.319 0.902 1.02 337
0.323 0.321 0.907 1.028 330
0.328 0.321 0.903 1.026 326
0.333 0.32 0.898 1.023 327
0.341 0.322 0.903 1.03 324
0.348 0.323 0.905 1.035 316
0.352 0.321 0.898 1.029 319
0.363 0.326 0.909 1.044 312
0.37 0.327 0.91 1.048 314
0.374 0.326 0.904 1.044 310
0.384 0.329 0.912 1.056 312
0.39 0.33 0.91 1.057 310
0.398 0.331 0.912 1.061 307
0.405 0.332 0.914 1.066 306
0.413 0.334 0.916 1.072 306
0.418 0.332 0.91 1.067 300
0.427 0.335 0.915 1.076 295
0.43 0.333 0.905 1.069 291
0.445 0.34 0.923 1.092 289
0.45 0.339 0.918 1.09 295
0.461 0.343 0.926 1.103 285
0.462 0.339 0.913 1.09 281
0.475 0.344 0.925 1.108 274
0.485 0.347 0.929 1.117 280
0.489 0.345 0.921 1.111 275
0.495 0.345 0.92 1.113 273
0.505 0.348 0.923 1.12 268
0.517 0.351 0.931 1.133 267
0.52 0.35 0.923 1.128 265
0.53 0.352 0.927 1.137 264
0.537 0.353 0.925 1.139 262
0.545 0.354 0.925 1.142 263
0.558 0.358 0.932 1.156 262
-0.361 0.235 0.595 0.745 1077
-0.356 0.235 0.596 0.743 1063
-0.355 0.237 0.602 0.749 1058
-0.346 0.234 0.596 0.738 1035
-0.345 0.236 0.604 0.745 1045
-0.347 0.24 0.617 0.759 1026
-0.339 0.237 0.612 0.749 1022
-0.333 0.236 0.611 0.746 1017
-0.33 0.237 0.615 0.749 1013
-0.328 0.239 0.621 0.753 1019
-0.324 0.238 0.622 0.751 1016
-0.322 0.24 0.628 0.756 995
-0.317 0.239 0.628 0.754 992
-0.313 0.24 0.632 0.756 969
-0.307 0.238 0.628 0.75 953
-0.304 0.24 0.634 0.754 943
-0.301 0.24 0.637 0.756 919
-0.296 0.24 0.638 0.754 935
-0.295 0.242 0.645 0.761 927
-0.289 0.241 0.644 0.758 932
-0.287 0.243 0.651 0.764 931
-0.283 0.243 0.653 0.764 923
-0.278 0.242 0.652 0.761 917
-0.274 0.243 0.656 0.763 920
-0.269 0.242 0.655 0.76 907
-0.265 0.242 0.656 0.759 896
-0.262 0.243 0.662 0.764 885
-0.26 0.245 0.668 0.769 875
-0.256 0.245 0.67 0.77 862
-0.251 0.245 0.672 0.77 858
-0.249 0.247 0.677 0.774 864
-0.243 0.245 0.673 0.768 863
-0.239 0.246 0.678 0.772 856
-0.233 0.245 0.675 0.766 844
-0.231 0.246 0.68 0.771 856
-0.228 0.248 0.686 0.776 834
-0.223 0.247 0.687 0.775 832
-0.22 0.248 0.69 0.778 829
-0.217 0.25 0.696 0.782 832
-0.21 0.248 0.691 0.775 824
-0.207 0.249 0.696 0.78 817
-0.202 0.248 0.695 0.777 822
-0.199 0.25 0.7 0.782 814
-0.195 0.251 0.703 0.784 800
-0.19 0.25 0.703 0.782 796
-0.186 0.25 0.705 0.783 787
-0.182 0.25 0.706 0.783 778
-0.179 0.253 0.714 0.791 752
-0.176 0.255 0.72 0.796 718
-0.171 0.253 0.717 0.792 693
-0.167 0.254 0.721 0.795 707
-0.162 0.253 0.719 0.792 723
-0.157 0.253 0.72 0.792 728
-0.155 0.256 0.73 0.801 722
-0.149 0.254 0.725 0.795 711
-0.145 0.254 0.725 0.795 694
-0.142 0.258 0.738 0.807 614
-0.138 0.259 0.741 0.809 547
-0.134 0.259 0.743 0.811 528
-0.129 0.259 0.741 0.808 598
-0.124 0.258 0.74 0.806 656
-0.12 0.26 0.746 0.812 653
-0.114 0.257 0.737 0.801 654
-0.11 0.256 0.737 0.8 653
-0.108 0.262 0.753 0.817 646
-0.103 0.262 0.754 0.817 639
-0.098 0.26 0.749 0.812 639
-0.095 0.264 0.761 0.824 630
-0.09 0.263 0.76 0.823 625
-0.085 0.262 0.758 0.82 621
-0.081 0.264 0.762 0.823 620
-0.076 0.262 0.758 0.818 620
-0.072 0.264 0.764 0.825 610
-0.067 0.265 0.769 0.829 613
-0.063 0.268 0.777 0.837 603
-0.058 0.268 0.776 0.836 596
-0.054 0.27 0.782 0.842 601
-0.049 0.267 0.774 0.833 593
-0.045 0.27 0.784 0.843 589
-0.04 0.269 0.782 0.841 592
-0.035 0.269 0.78 0.838 583
-0.031 0.272 0.791 0.85 574
-0.026 0.273 0.792 0.851 570
-0.021 0.271 0.787 0.845 562
-0.017 0.272 0.792 0.85 559
-0.012 0.272 0.791 0.849 555
-0.007 0.272 0.791 0.85 550
-0.002 0.273 0.795 0.853 550
0.002 0.276 0.803 0.862 537
0.006 0.277 0.806 0.865 527
0.011 0.275 0.8 0.859 528
0.016 0.276 0.803 0.862 518
0.021 0.276 0.801 0.86 517
0.026 0.278 0.808 0.868 517
0.031 0.279 0.811 0.872 517
0.036 0.28 0.813 0.874 512
0.041 0.281 0.816 0.877 513
0.046 0.284 0.825 0.887 509
0.051 0.281 0.817 0.878 498
0.056 0.283 0.821 0.883 484
0.062 0.286 0.83 0.894 483
0.067 0.285 0.826 0.89 474
0.071 0.283 0.82 0.883 479
0.077 0.285 0.826 0.89 480
0.081 0.284 0.824 0.889 480
0.087 0.286 0.83 0.895 480
0.093 0.289 0.837 0.904 470
0.098 0.289 0.836 0.903 462
0.103 0.289 0.835 0.903 465
0.108 0.29 0.838 0.906 459
0.114 0.29 0.838 0.908 462
0.119 0.29 0.838 0.907 461
0.124 0.292 0.841 0.912 462
0.131 0.294 0.847 0.919 452
0.135 0.293 0.844 0.917 453
0.142 0.297 0.855 0.929 450
0.149 0.299 0.861 0.937 447
0.154 0.298 0.857 0.934 448
0.157 0.295 0.848 0.925 451
0.163 0.296 0.849 0.927 446
0.17 0.3 0.858 0.938 443
0.176 0.3 0.859 0.94 435
0.182 0.303 0.866 0.948 432
0.188 0.303 0.866 0.95 432
0.192 0.301 0.859 0.943 424
0.199 0.303 0.864 0.95 421
0.205 0.304 0.866 0.953 420
0.212 0.308 0.874 0.964 418
0.216 0.305 0.867 0.957 408
0.223 0.308 0.873 0.966 404
0.228 0.307 0.868 0.962 408
0.235 0.31 0.876 0.971 401
0.241 0.311 0.876 0.974 404
0.246 0.31 0.873 0.971 400
0.251 0.309 0.869 0.969 397
0.261 0.314 0.882 0.985 389
0.266 0.314 0.88 0.984 383
0.272 0.314 0.879 0.985 380
0.279 0.316 0.885 0.993 375
0.285 0.317 0.884 0.995 372
0.292 0.319 0.888 1 366
0.297 0.317 0.882 0.997 367
0.305 0.32 0.888 1.004 358
0.311 0.32 0.888 1.007 357
0.317 0.321 0.887 1.008 352
0.32 0.319 0.879 1.002 344
0.327 0.32 0.881 1.006 340
0.337 0.323 0.889 1.017 340
0.341 0.322 0.884 1.013 336
0.35 0.325 0.891 1.024 334
0.358 0.327 0.895 1.03 329
0.362 0.326 0.888 1.026 327
0.371 0.329 0.894 1.035 321
0.378 0.33 0.896 1.04 326
0.385 0.331 0.897 1.044 321
0.389 0.329 0.889 1.037 325
0.399 0.333 0.897 1.049 319
0.405 0.333 0.895 1.05 319
