# .PCD v0.7 - Point Cloud Data file format
VERSION 0.7
FIELDS x y z d a
SIZE 4 4 4 4 4
TYPE F F F F F
COUNT 1 1 1 1 1
WIDTH 1723
HEIGHT 1
VIEWPOINT 0 0 0 1 0 0 0
POINTS 1723
DATA ascii
0.313 0.016 1.612 1.657 119
0.322 0.016 1.61 1.656 115
0.335 0.017 1.627 1.675 111
0.346 0.017 1.631 1.682 111
0.353 0.017 1.619 1.672 106
0.361 0.016 1.611 1.666 105
0.368 0.016 1.599 1.655 107
0.382 0.017 1.617 1.676 106
0.39 0.017 1.609 1.67 105
0.395 0.016 1.588 1.65 100
0.409 0.017 1.606 1.671 89
0.402 0.016 1.54 1.606 87
0.41 0.016 1.537 1.605 84
0.422 0.016 1.545 1.616 89
0.431 0.016 1.543 1.616 88
0.451 0.016 1.577 1.655 81
0.512 0.018 1.753 1.84 61
0.593 0.02 1.99 2.09 58
0.608 0.021 1.997 2.102 63
0.629 0.021 2.022 2.132 62
0.632 0.021 1.991 2.103 61
0.645 0.021 1.991 2.107 62
0.663 0.021 2.005 2.126 59
0.675 0.021 2.003 2.127 60
0.677 0.02 1.971 2.099 61
0.691 0.021 1.975 2.106 63
0.705 0.021 1.975 2.111 58
0.723 0.021 1.989 2.13 58
0.733 0.021 1.98 2.125 62
0.756 0.021 2.005 2.156 60
0.755 0.021 1.968 2.122 58
0.773 0.021 1.979 2.139 61
0.786 0.021 1.979 2.143 58
0.796 0.021 1.969 2.138 59
0.809 0.021 1.967 2.14 60
0.831 0.021 1.987 2.168 59
0.84 0.021 1.974 2.159 57
0.855 0.021 1.977 2.168 61
0.87 0.021 1.979 2.175 65
0.884 0.021 1.978 2.18 64
0.885 0.021 1.949 2.155 63
0.905 0.021 1.96 2.173 65
0.928 0.021 1.98 2.201 62
0.93 0.021 1.953 2.177 62
0.96 0.022 1.984 2.218 62
0.978 0.022 1.99 2.231 60
0.965 0.021 1.934 2.175 56
1.01 0.022 1.993 2.248 59
1 0.021 1.945 2.201 57
1.04 0.022 1.992 2.26 54
1.026 0.021 1.937 2.205 58
1.055 0.022 1.961 2.24 58
1.059 0.022 1.94 2.223 57
1.07 0.022 1.931 2.221 59
1.101 0.022 1.96 2.262 56
-1.198 0.037 2.137 2.462 38
-1.244 0.039 2.252 2.585 40
-1.188 0.038 2.182 2.496 43
-1.237 0.04 2.342 2.66 38
-1.198 0.039 2.303 2.608 36
-1.188 0.039 2.317 2.616 37
-1.128 0.038 2.234 2.515 34
-1.144 0.039 2.301 2.582 34
-1.154 0.04 2.358 2.638 38
-1.119 0.039 2.32 2.589 38
-1.111 0.039 2.341 2.604 33
-1.068 0.038 2.287 2.537 38
-1.034 0.038 2.248 2.487 36
-1.008 0.037 2.228 2.458 34
-0.951 0.036 2.134 2.349 35
-0.964 0.037 2.201 2.416 33
-0.942 0.036 2.185 2.392 36
-0.918 0.036 2.165 2.364 38
-0.906 0.036 2.173 2.367 38
-0.871 0.035 2.126 2.311 38
-0.841 0.034 2.088 2.264 41
-0.853 0.035 2.156 2.331 46
-0.837 0.035 2.151 2.321 45
-0.814 0.035 2.13 2.293 46
-0.807 0.035 2.149 2.309 48
-0.78 0.035 2.115 2.267 47
-0.765 0.034 2.114 2.261 46
-0.736 0.034 2.072 2.212 48
-0.721 0.034 2.069 2.204 45
-0.661 0.031 1.93 2.053 44
-0.56 0.027 1.666 1.771 64
-0.532 0.026 1.615 1.713 76
-0.513 0.026 1.587 1.681 77
-0.51 0.026 1.61 1.702 77
-0.51 0.027 1.645 1.736 84
-0.502 0.027 1.652 1.74 89
-0.495 0.027 1.664 1.749 96
-0.487 0.027 1.675 1.757 93
-0.48 0.027 1.686 1.767 97
-0.467 0.027 1.677 1.754 94
-0.454 0.027 1.67 1.744 100
-0.45 0.027 1.695 1.768 104
-0.439 0.027 1.692 1.762 108
-0.42 0.027 1.656 1.722 108
-0.416 0.027 1.684 1.748 114
-0.401 0.027 1.665 1.726 116
-0.392 0.027 1.671 1.73 114
-0.382 0.027 1.671 1.728 115
-0.369 0.027 1.659 1.713 119
-0.359 0.026 1.657 1.709 119
-0.349 0.026 1.657 1.707 118
-0.336 0.026 1.644 1.692 121
-0.327 0.026 1.645 1.691 122
-0.319 0.026 1.656 1.7 119
-0.314 0.027 1.681 1.724 123
-0.304 0.027 1.682 1.724 117
-0.292 0.027 1.673 1.712 122
-0.281 0.026 1.663 1.7 117
-0.271 0.026 1.665 1.701 118
-0.257 0.026 1.639 1.673 114
-0.251 0.026 1.658 1.691 110
-0.241 0.026 1.659 1.69 112
-0.232 0.026 1.663 1.693 113
-0.221 0.026 1.652 1.681 116
-0.212 0.026 1.658 1.686 112
-0.203 0.026 1.66 1.687 111
-0.191 0.026 1.647 1.672 110
-0.182 0.026 1.647 1.671 109
-0.172 0.026 1.644 1.668 113
-0.164 0.026 1.661 1.683 109
-0.153 0.026 1.641 1.662 109
-0.143 0.026 1.631 1.651 108
-0.135 0.026 1.655 1.675 105
-0.125 0.026 1.652 1.671 107
-0.116 0.026 1.651 1.67 108
-0.106 0.026 1.644 1.662 106
-0.096 0.026 1.633 1.65 105
-0.087 0.026 1.647 1.663 104
-0.077 0.026 1.63 1.646 105
-0.068 0.026 1.64 1.656 105
-0.059 0.026 1.649 1.664 102
-0.049 0.026 1.627 1.642 104
-0.04 0.026 1.642 1.657 107
-0.031 0.026 1.642 1.657 107
-0.021 0.026 1.627 1.641 108
-0.012 0.026 1.63 1.645 113
-0.003 0.025 1.614 1.628 109
0.005 0.026 1.636 1.651 112
0.015 0.026 1.644 1.658 112
0.024 0.026 1.632 1.647 113
0.033 0.025 1.622 1.637 114
0.043 0.026 1.633 1.648 114
0.051 0.025 1.622 1.638 113
0.061 0.026 1.639 1.655 118
0.071 0.026 1.644 1.66 116
0.078 0.025 1.59 1.606 117
0.089 0.026 1.625 1.642 114
0.098 0.026 1.621 1.639 115
0.107 0.026 1.622 1.64 114
0.115 0.025 1.599 1.617 114
0.127 0.026 1.643 1.663 111
0.135 0.026 1.627 1.647 113
0.145 0.026 1.626 1.647 117
0.152 0.025 1.604 1.626 117
0.164 0.026 1.637 1.66 121
0.17 0.025 1.603 1.627 126
0.18 0.025 1.608 1.633 123
0.19 0.026 1.614 1.64 121
0.202 0.026 1.633 1.66 125
0.209 0.026 1.62 1.648 126
0.218 0.026 1.615 1.644 129
0.225 0.025 1.595 1.626 128
0.234 0.025 1.597 1.628 127
0.246 0.026 1.61 1.644 126
0.255 0.026 1.608 1.642 126
0.268 0.026 1.628 1.665 127
0.273 0.026 1.603 1.64 128
0.284 0.026 1.612 1.651 129
0.29 0.025 1.59 1.631 129
0.304 0.026 1.615 1.657 128
0.31 0.026 1.601 1.645 129
0.318 0.025 1.593 1.639 120
0.329 0.026 1.599 1.647 119
0.338 0.026 1.596 1.646 119
0.348 0.026 1.594 1.646 111
0.354 0.025 1.579 1.633 110
0.366 0.026 1.588 1.644 107
0.372 0.025 1.575 1.633 107
0.385 0.026 1.59 1.65 106
0.394 0.026 1.584 1.647 107
0.395 0.025 1.55 1.614 103
0.404 0.025 1.55 1.616 97
0.408 0.025 1.526 1.594 95
0.414 0.025 1.514 1.584 91
0.428 0.025 1.531 1.604 89
0.435 0.025 1.523 1.598 93
0.448 0.025 1.534 1.612 85
0.549 0.03 1.839 1.934 65
0.593 0.032 1.947 2.049 63
0.613 0.032 1.971 2.079 67
0.624 0.032 1.967 2.078 68
0.637 0.032 1.965 2.08 67
0.641 0.032 1.941 2.059 66
0.666 0.032 1.977 2.1 65
0.665 0.032 1.937 2.062 64
0.682 0.032 1.949 2.079 66
0.709 0.033 1.986 2.123 66
0.712 0.032 1.958 2.098 64
0.718 0.032 1.939 2.081 62
0.732 0.032 1.941 2.088 64
0.755 0.033 1.966 2.12 64
0.751 0.032 1.922 2.078 64
0.776 0.032 1.951 2.114 67
0.795 0.033 1.966 2.135 65
0.794 0.032 1.93 2.101 63
0.808 0.032 1.931 2.107 63
0.82 0.032 1.927 2.108 67
0.841 0.033 1.944 2.132 70
0.857 0.033 1.949 2.144 69
0.873 0.033 1.953 2.153 67
0.873 0.033 1.923 2.126 70
0.89 0.033 1.928 2.138 71
0.897 0.033 1.913 2.126 69
0.91 0.033 1.911 2.13 67
0.928 0.033 1.918 2.145 67
0.936 0.033 1.905 2.136 64
0.977 0.034 1.958 2.202 63
0.987 0.034 1.949 2.199 63
0.988 0.033 1.921 2.174 63
1.014 0.034 1.943 2.205 65
1.025 0.034 1.934 2.203 61
1.028 0.033 1.912 2.185 62
1.039 0.033 1.903 2.182 62
1.056 0.034 1.907 2.194 61
1.055 0.033 1.877 2.167 66
-1.183 0.05 2.109 2.431 38
-1.145 0.049 2.072 2.38 40
-1.171 0.051 2.15 2.46 37
-1.208 0.054 2.286 2.598 39
-1.176 0.053 2.26 2.56 36
-1.165 0.054 2.307 2.597 36
-1.138 0.053 2.289 2.569 35
-1.146 0.054 2.34 2.619 38
-1.085 0.052 2.251 2.511 35
-1.048 0.051 2.207 2.456 38
-1.008 0.05 2.157 2.394 41
-1.009 0.05 2.193 2.427 37
-1 0.051 2.209 2.437 38
-0.958 0.049 2.15 2.367 37
-0.958 0.05 2.186 2.399 38
-0.928 0.049 2.153 2.358 38
-0.898 0.048 2.119 2.315 41
-0.887 0.048 2.127 2.318 42
-0.861 0.048 2.101 2.284 44
-0.85 0.048 2.109 2.287 42
-0.819 0.047 2.067 2.237 48
-0.823 0.048 2.116 2.284 48
-0.8 0.047 2.092 2.253 50
-0.791 0.047 2.107 2.264 52
-0.763 0.046 2.069 2.218 51
-0.75 0.046 2.071 2.216 48
-0.748 0.047 2.106 2.248 49
-0.667 0.043 1.911 2.037 45
-0.562 0.037 1.639 1.746 63
-0.536 0.036 1.595 1.696 71
-0.527 0.036 1.599 1.697 76
-0.51 0.035 1.577 1.671 78
-0.513 0.036 1.618 1.711 78
-0.507 0.036 1.635 1.725 95
-0.499 0.036 1.643 1.731 99
-0.49 0.037 1.648 1.733 100
-0.482 0.037 1.655 1.738 103
-0.474 0.037 1.664 1.744 102
-0.453 0.036 1.628 1.704 101
-0.45 0.036 1.653 1.727 111
-0.441 0.036 1.659 1.73 110
-0.427 0.036 1.645 1.713 111
-0.415 0.036 1.636 1.702 120
-0.406 0.036 1.643 1.706 121
-0.394 0.036 1.634 1.695 119
-0.39 0.036 1.66 1.719 120
-0.372 0.036 1.626 1.682 123
-0.366 0.036 1.641 1.695 123
-0.356 0.036 1.642 1.694 125
-0.345 0.036 1.637 1.686 123
-0.337 0.036 1.649 1.697 127
-0.326 0.036 1.642 1.689 128
-0.318 0.036 1.65 1.695 127
-0.308 0.036 1.651 1.693 129
-0.293 0.035 1.619 1.659 128
-0.285 0.035 1.632 1.671 124
-0.275 0.035 1.627 1.664 125
-0.265 0.035 1.628 1.664 122
-0.253 0.035 1.609 1.643 118
-0.246 0.035 1.629 1.662 119
-0.235 0.035 1.618 1.65 118
-0.226 0.035 1.618 1.648 120
-0.218 0.035 1.63 1.659 119
-0.21 0.035 1.645 1.673 118
-0.2 0.035 1.64 1.666 117
-0.19 0.035 1.632 1.658 118
-0.179 0.035 1.623 1.647 117
-0.17 0.035 1.626 1.649 117
-0.16 0.035 1.62 1.642 117
-0.152 0.035 1.626 1.648 113
-0.14 0.034 1.6 1.621 113
-0.131 0.034 1.605 1.625 113
-0.121 0.034 1.594 1.613 116
-0.113 0.035 1.615 1.633 115
-0.104 0.035 1.612 1.629 115
-0.094 0.034 1.604 1.621 117
-0.085 0.035 1.61 1.627 113
-0.076 0.034 1.608 1.624 113
-0.067 0.035 1.613 1.629 115
-0.058 0.034 1.603 1.619 113
-0.048 0.034 1.591 1.606 115
-0.039 0.034 1.601 1.616 115
-0.031 0.035 1.638 1.653 114
-0.021 0.034 1.61 1.625 114
-0.012 0.034 1.608 1.622 116
-0.003 0.034 1.598 1.612 116
0.005 0.034 1.604 1.618 116
0.014 0.034 1.602 1.616 118
0.023 0.034 1.6 1.614 117
0.032 0.034 1.599 1.614 116
0.042 0.035 1.612 1.627 116
0.051 0.034 1.597 1.612 119
0.06 0.034 1.608 1.623 118
0.069 0.034 1.604 1.62 119
0.079 0.035 1.614 1.63 119
0.088 0.035 1.611 1.628 121
0.097 0.034 1.604 1.622 118
0.105 0.034 1.588 1.606 119
0.113 0.034 1.582 1.601 120
0.124 0.034 1.603 1.622 119
0.132 0.034 1.583 1.603 120
0.142 0.034 1.595 1.616 123
0.15 0.034 1.586 1.608 118
0.16 0.034 1.59 1.612 124
0.168 0.034 1.585 1.608 128
0.176 0.034 1.576 1.601 127
0.188 0.034 1.595 1.621 125
0.196 0.034 1.589 1.616 130
0.204 0.034 1.578 1.605 131
0.214 0.034 1.586 1.616 131
0.222 0.034 1.577 1.607 127
0.23 0.034 1.567 1.598 128
0.24 0.034 1.57 1.602 125
0.248 0.034 1.564 1.598 126
0.257 0.034 1.563 1.599 129
0.269 0.034 1.581 1.618 126
0.28 0.035 1.592 1.631 129
0.287 0.034 1.576 1.616 128
0.294 0.034 1.564 1.606 128
0.305 0.034 1.571 1.615 127
0.309 0.034 1.544 1.589 122
0.321 0.034 1.557 1.604 120
0.334 0.034 1.575 1.625 118
0.342 0.034 1.567 1.618 114
0.346 0.034 1.545 1.598 109
0.353 0.034 1.534 1.589 107
0.371 0.035 1.57 1.628 108
0.371 0.034 1.531 1.59 107
0.383 0.034 1.542 1.603 108
0.39 0.034 1.53 1.594 114
0.402 0.034 1.54 1.606 114
0.408 0.034 1.526 1.594 112
0.41 0.033 1.501 1.571 105
0.416 0.033 1.488 1.559 108
0.434 0.034 1.517 1.592 105
0.435 0.033 1.487 1.564 111
0.475 0.035 1.59 1.674 91
0.569 0.041 1.868 1.968 70
0.608 0.043 1.954 2.061 76
0.61 0.043 1.922 2.031 74
0.63 0.043 1.944 2.058 76
0.633 0.043 1.915 2.032 73
0.65 0.043 1.929 2.05 75
0.672 0.044 1.955 2.082 71
0.669 0.043 1.911 2.04 72
0.691 0.044 1.938 2.072 72
0.7 0.043 1.925 2.062 69
0.727 0.044 1.963 2.107 71
0.734 0.044 1.948 2.096 72
0.73 0.043 1.902 2.052 74
0.75 0.044 1.919 2.074 72
0.777 0.044 1.955 2.118 70
0.767 0.043 1.896 2.059 74
0.79 0.044 1.919 2.089 70
0.818 0.045 1.955 2.133 71
0.804 0.043 1.888 2.066 74
0.821 0.044 1.898 2.083 73
0.834 0.044 1.896 2.085 72
0.847 0.044 1.894 2.089 77
0.877 0.045 1.93 2.134 71
0.883 0.044 1.913 2.121 74
0.89 0.044 1.898 2.11 70
0.898 0.044 1.884 2.101 66
0.923 0.045 1.908 2.134 66
0.935 0.045 1.903 2.134 69
0.949 0.045 1.902 2.14 67
0.966 0.045 1.906 2.15 64
0.975 0.045 1.895 2.145 69
0.989 0.045 1.895 2.151 64
0.995 0.045 1.878 2.139 70
1.017 0.045 1.89 2.16 68
1.043 0.046 1.91 2.19 66
1.036 0.045 1.87 2.152 66
1.059 0.045 1.884 2.175 66
-1.185 0.064 2.114 2.436 41
-1.157 0.063 2.093 2.404 42
-1.169 0.065 2.146 2.456 45
-1.137 0.064 2.118 2.417 39
-1.208 0.068 2.286 2.599 41
-1.132 0.065 2.173 2.463 39
-1.153 0.067 2.249 2.541 39
-1.071 0.063 2.119 2.387 40
-1.048 0.062 2.106 2.366 38
-1.077 0.065 2.198 2.461 40
-1.064 0.065 2.206 2.463 38
-1 0.062 2.105 2.343 39
-1.013 0.063 2.166 2.405 37
-0.984 0.062 2.139 2.367 40
-0.951 0.061 2.1 2.319 41
-0.967 0.063 2.169 2.388 44
-0.918 0.061 2.094 2.3 40
-0.913 0.061 2.117 2.319 41
-0.892 0.061 2.104 2.298 45
-0.882 0.061 2.115 2.305 47
-0.845 0.059 2.061 2.241 47
-0.819 0.058 2.031 2.204 49
-0.815 0.059 2.057 2.226 50
-0.798 0.059 2.05 2.213 52
-0.79 0.059 2.065 2.225 55
-0.774 0.059 2.06 2.214 53
-0.758 0.058 2.055 2.204 53
-0.734 0.058 2.028 2.17 50
-0.675 0.054 1.899 2.029 50
-0.562 0.046 1.608 1.717 66
-0.541 0.045 1.577 1.681 83
-0.52 0.044 1.545 1.644 80
-0.511 0.044 1.549 1.644 83
-0.518 0.045 1.602 1.697 87
-0.506 0.045 1.598 1.69 97
-0.51 0.046 1.642 1.733 107
-0.497 0.046 1.637 1.724 106
-0.475 0.045 1.595 1.678 107
-0.476 0.046 1.635 1.716 107
-0.46 0.045 1.615 1.693 106
-0.451 0.045 1.619 1.695 112
-0.442 0.045 1.625 1.698 116
-0.434 0.046 1.633 1.704 118
-0.42 0.045 1.617 1.684 124
-0.412 0.045 1.626 1.691 126
-0.402 0.045 1.626 1.689 129
-0.396 0.046 1.644 1.705 127
-0.378 0.045 1.607 1.665 125
-0.372 0.045 1.627 1.683 128
-0.357 0.044 1.601 1.655 127
-0.345 0.044 1.589 1.64 126
-0.337 0.044 1.598 1.647 126
-0.333 0.045 1.626 1.674 131
-0.318 0.044 1.603 1.648 132
-0.311 0.044 1.614 1.658 133
-0.298 0.044 1.596 1.638 129
-0.286 0.043 1.581 1.621 129
-0.28 0.044 1.603 1.642 130
-0.27 0.044 1.598 1.635 128
-0.262 0.044 1.606 1.642 125
-0.254 0.044 1.618 1.652 122
-0.243 0.044 1.608 1.641 124
-0.234 0.044 1.609 1.64 125
-0.224 0.044 1.601 1.631 126
-0.215 0.044 1.605 1.634 124
-0.203 0.043 1.59 1.617 123
-0.194 0.043 1.585 1.611 124
-0.187 0.044 1.607 1.632 119
-0.177 0.044 1.598 1.622 120
-0.166 0.043 1.582 1.605 118
-0.157 0.043 1.582 1.604 119
-0.149 0.044 1.599 1.621 119
-0.139 0.043 1.583 1.604 117
-0.129 0.043 1.577 1.597 118
-0.119 0.043 1.57 1.589 116
-0.11 0.043 1.563 1.581 117
-0.103 0.043 1.592 1.609 117
-0.093 0.043 1.585 1.602 118
-0.085 0.043 1.6 1.617 117
-0.075 0.043 1.59 1.606 118
-0.066 0.043 1.585 1.601 118
-0.057 0.043 1.59 1.606 117
-0.047 0.043 1.566 1.581 119
-0.039 0.043 1.602 1.617 114
-0.03 0.043 1.57 1.585 116
-0.021 0.042 1.563 1.578 114
-0.012 0.043 1.591 1.606 119
-0.003 0.042 1.559 1.573 116
0.005 0.042 1.555 1.569 117
0.014 0.042 1.547 1.562 119
0.023 0.043 1.581 1.596 115
0.032 0.043 1.569 1.584 116
0.041 0.043 1.573 1.588 115
0.049 0.042 1.562 1.578 116
0.059 0.043 1.567 1.583 117
0.067 0.043 1.564 1.58 117
0.075 0.042 1.533 1.549 117
0.084 0.042 1.534 1.551 117
0.093 0.042 1.548 1.566 118
0.101 0.042 1.537 1.555 116
0.11 0.042 1.529 1.548 115
0.119 0.042 1.536 1.555 115
0.13 0.043 1.562 1.582 114
0.137 0.042 1.544 1.565 116
0.145 0.042 1.537 1.559 113
0.155 0.042 1.545 1.567 116
0.163 0.042 1.538 1.562 119
0.172 0.042 1.535 1.56 117
0.179 0.042 1.522 1.547 118
0.189 0.042 1.529 1.555 118
0.199 0.042 1.536 1.563 122
0.206 0.042 1.527 1.556 119
0.214 0.042 1.519 1.549 119
0.224 0.042 1.528 1.559 116
0.233 0.042 1.528 1.56 115
0.24 0.042 1.512 1.546 120
0.25 0.042 1.521 1.556 114
0.259 0.042 1.522 1.558 113
0.264 0.041 1.498 1.536 113
0.274 0.041 1.502 1.542 116
0.282 0.041 1.498 1.539 116
0.295 0.042 1.523 1.566 113
0.303 0.042 1.514 1.558 112
0.309 0.042 1.498 1.544 110
0.319 0.042 1.504 1.552 113
0.321 0.041 1.474 1.523 111
0.337 0.042 1.502 1.554 115
0.341 0.041 1.483 1.537 111
0.357 0.042 1.51 1.567 115
0.363 0.042 1.499 1.557 115
0.371 0.042 1.493 1.553 118
0.379 0.042 1.488 1.55 124
0.389 0.042 1.49 1.554 135
0.4 0.042 1.498 1.565 146
0.408 0.042 1.493 1.563 146
0.42 0.042 1.501 1.573 148
0.428 0.042 1.497 1.571 141
0.431 0.042 1.473 1.549 142
0.442 0.042 1.478 1.558 137
0.497 0.046 1.631 1.72 96
0.583 0.053 1.873 1.976 80
0.603 0.054 1.899 2.007 83
0.623 0.054 1.922 2.036 83
0.618 0.053 1.869 1.983 81
0.638 0.054 1.893 2.012 84
0.665 0.055 1.935 2.061 80
0.674 0.055 1.925 2.054 82
0.676 0.054 1.894 2.025 83
0.682 0.054 1.876 2.011 78
0.702 0.054 1.897 2.037 80
0.708 0.054 1.877 2.021 81
0.731 0.055 1.905 2.056 79
0.743 0.055 1.901 2.055 82
0.751 0.054 1.889 2.048 79
0.748 0.053 1.848 2.008 79
0.774 0.054 1.881 2.049 76
0.783 0.054 1.871 2.043 78
0.79 0.054 1.855 2.031 81
0.825 0.056 1.908 2.093 79
0.835 0.055 1.898 2.088 76
0.844 0.055 1.887 2.081 75
0.866 0.056 1.906 2.108 77
0.858 0.055 1.857 2.06 76
0.872 0.055 1.858 2.067 74
0.903 0.056 1.895 2.114 69
0.906 0.056 1.871 2.093 71
0.915 0.055 1.862 2.089 71
0.942 0.056 1.886 2.123 69
0.951 0.056 1.877 2.118 71
0.967 0.056 1.879 2.127 71
0.996 0.057 1.906 2.165 69
0.981 0.056 1.851 2.109 71
1.004 0.056 1.866 2.133 67
1.019 0.057 1.866 2.141 72
1.004 0.055 1.811 2.085 71
1.022 0.056 1.818 2.1 69
-1.153 0.076 2.056 2.37 42
-1.133 0.075 2.048 2.354 43
-1.135 0.076 2.083 2.385 45
-1.125 0.076 2.096 2.391 41
-1.101 0.076 2.082 2.368 36
-1.113 0.077 2.137 2.423 43
-1.107 0.078 2.157 2.438 42
-1.059 0.075 2.096 2.361 44
-1.033 0.075 2.076 2.332 45
-1.04 0.076 2.122 2.376 45
-1.035 0.077 2.146 2.396 43
-1.004 0.075 2.114 2.354 43
-0.983 0.075 2.103 2.335 47
-0.965 0.074 2.097 2.322 44
-0.945 0.074 2.087 2.305 47
-0.925 0.073 2.075 2.286 46
-0.898 0.072 2.048 2.25 44
-0.899 0.073 2.085 2.284 46
-0.879 0.073 2.073 2.265 49
-0.852 0.071 2.042 2.226 53
-0.835 0.071 2.036 2.215 51
-0.826 0.071 2.048 2.222 54
-0.804 0.071 2.029 2.196 54
-0.788 0.07 2.025 2.186 55
-0.769 0.07 2.009 2.165 57
-0.76 0.07 2.024 2.176 56
-0.723 0.068 1.959 2.102 51
-0.7 0.067 1.931 2.067 51
-0.574 0.056 1.61 1.723 71
-0.541 0.053 1.546 1.652 91
-0.52 0.052 1.515 1.616 88
-0.521 0.053 1.547 1.646 86
-0.517 0.054 1.567 1.664 94
-0.507 0.054 1.567 1.661 99
-0.501 0.054 1.58 1.672 106
-0.494 0.054 1.59 1.679 105
-0.48 0.054 1.579 1.664 100
-0.471 0.054 1.581 1.664 103
-0.469 0.055 1.61 1.691 106
-0.453 0.054 1.59 1.668 110
-0.44 0.054 1.578 1.652 112
-0.43 0.053 1.578 1.649 114
-0.415 0.053 1.561 1.63 121
-0.414 0.054 1.594 1.661 123
-0.401 0.053 1.582 1.647 120
-0.391 0.053 1.578 1.64 119
-0.38 0.053 1.574 1.633 123
-0.366 0.052 1.558 1.615 123
-0.364 0.053 1.588 1.643 124
-0.352 0.053 1.577 1.63 120
-0.338 0.052 1.558 1.608 122
-0.33 0.052 1.567 1.616 122
-0.316 0.052 1.543 1.59 123
-0.312 0.053 1.572 1.617 120
-0.303 0.052 1.573 1.617 119
-0.294 0.052 1.574 1.616 121
-0.284 0.052 1.57 1.61 120
-0.272 0.052 1.552 1.59 121
-0.264 0.052 1.559 1.596 115
-0.258 0.052 1.579 1.614 114
-0.243 0.051 1.544 1.578 115
-0.236 0.052 1.559 1.591 116
-0.224 0.051 1.541 1.572 116
-0.215 0.051 1.542 1.571 114
-0.209 0.052 1.559 1.588 114
-0.198 0.051 1.549 1.576 112
-0.19 0.051 1.552 1.578 113
-0.181 0.051 1.551 1.576 112
-0.169 0.051 1.532 1.556 111
-0.162 0.051 1.547 1.571 111
-0.152 0.051 1.533 1.555 109
-0.143 0.051 1.535 1.556 109
-0.134 0.05 1.528 1.549 111
-0.124 0.05 1.516 1.536 112
-0.115 0.05 1.51 1.529 114
-0.107 0.05 1.528 1.547 111
-0.098 0.05 1.516 1.534 114
-0.091 0.051 1.541 1.559 111
-0.081 0.05 1.529 1.546 111
-0.072 0.05 1.518 1.535 113
-0.064 0.05 1.521 1.538 108
-0.056 0.051 1.544 1.56 107
-0.046 0.05 1.51 1.525 113
-0.037 0.05 1.513 1.528 108
-0.029 0.05 1.516 1.531 110
-0.02 0.05 1.509 1.524 112
-0.011 0.05 1.513 1.528 113
-0.003 0.05 1.513 1.528 114
0.005 0.049 1.5 1.515 114
0.013 0.05 1.508 1.523 115
0.022 0.05 1.532 1.547 113
0.03 0.049 1.485 1.5 113
0.039 0.049 1.499 1.515 114
0.047 0.049 1.495 1.511 116
0.057 0.05 1.518 1.534 117
0.065 0.049 1.5 1.516 121
0.075 0.05 1.529 1.546 118
0.081 0.049 1.487 1.504 119
0.09 0.049 1.49 1.508 120
0.1 0.05 1.513 1.531 120
0.106 0.049 1.482 1.5 123
0.115 0.049 1.485 1.505 121
0.124 0.049 1.488 1.509 123
0.134 0.05 1.504 1.525 122
0.141 0.049 1.492 1.514 123
0.149 0.049 1.484 1.507 122
0.158 0.049 1.487 1.511 126
0.166 0.049 1.486 1.511 124
0.174 0.049 1.479 1.504 128
0.18 0.048 1.461 1.487 127
0.19 0.049 1.47 1.497 130
0.199 0.049 1.475 1.503 134
0.209 0.049 1.486 1.515 134
0.216 0.049 1.473 1.504 134
0.225 0.049 1.476 1.508 136
0.236 0.049 1.486 1.519 138
0.244 0.05 1.485 1.52 141
0.251 0.049 1.475 1.511 142
0.261 0.049 1.481 1.519 143
0.267 0.049 1.464 1.503 145
0.276 0.049 1.469 1.509 148
0.288 0.05 1.482 1.524 150
0.302 0.05 1.507 1.552 153
0.304 0.05 1.477 1.523 157
0.315 0.05 1.485 1.533 163
0.326 0.05 1.496 1.547 168
0.33 0.05 1.474 1.525 175
0.34 0.05 1.479 1.532 184
0.348 0.05 1.472 1.528 187
0.357 0.05 1.473 1.531 198
0.364 0.05 1.465 1.524 202
0.372 0.049 1.46 1.521 210
0.379 0.049 1.454 1.517 221
0.397 0.05 1.487 1.554 233
0.404 0.05 1.479 1.548 241
0.413 0.05 1.476 1.548 247
0.42 0.05 1.47 1.544 247
0.426 0.05 1.457 1.533 244
0.433 0.05 1.448 1.527 246
0.467 0.052 1.53 1.615 154
0.574 0.063 1.844 1.946 87
0.594 0.064 1.87 1.978 87
0.604 0.064 1.863 1.974 88
0.617 0.064 1.865 1.98 89
0.631 0.064 1.871 1.99 85
0.645 0.065 1.877 2 87
0.647 0.064 1.846 1.972 86
0.668 0.065 1.872 2.003 87
0.677 0.064 1.863 1.997 89
0.696 0.065 1.878 2.018 86
0.69 0.064 1.829 1.97 85
0.711 0.064 1.852 1.999 86
0.718 0.064 1.836 1.986 84
0.735 0.065 1.849 2.005 85
0.757 0.065 1.87 2.032 85
0.764 0.065 1.855 2.021 82
0.779 0.065 1.86 2.031 82
0.789 0.065 1.853 2.028 81
0.792 0.065 1.83 2.009 83
0.817 0.066 1.856 2.042 82
0.83 0.066 1.855 2.047 77
0.849 0.066 1.867 2.065 80
0.865 0.067 1.873 2.078 78
0.856 0.065 1.824 2.029 80
0.877 0.066 1.841 2.054 78
0.879 0.065 1.815 2.031 77
0.907 0.067 1.844 2.07 72
0.925 0.067 1.853 2.085 78
0.929 0.066 1.832 2.068 75
0.953 0.067 1.851 2.096 77
0.961 0.067 1.839 2.089 78
0.964 0.066 1.817 2.071 73
0.993 0.068 1.845 2.11 75
0.98 0.066 1.794 2.059 72
0.999 0.067 1.803 2.076 74
1.037 0.068 1.843 2.129 74
-1.124 0.087 2.002 2.309 45
-1.113 0.087 2.012 2.313 50
-1.076 0.085 1.974 2.261 49
-1.094 0.087 2.038 2.327 43
-1.1 0.089 2.079 2.366 45
-1.06 0.087 2.035 2.308 46
-1.084 0.09 2.113 2.388 46
-1.046 0.088 2.07 2.333 49
-1.03 0.087 2.069 2.325 46
-1.027 0.088 2.094 2.346 47
-1.014 0.088 2.1 2.346 49
-0.981 0.086 2.064 2.299 46
-0.952 0.085 2.035 2.26 45
-0.962 0.087 2.09 2.315 46
-0.913 0.084 2.013 2.224 49
-0.899 0.084 2.016 2.221 50
-0.899 0.085 2.051 2.253 51
-0.879 0.084 2.036 2.232 52
-0.864 0.084 2.037 2.226 50
-0.832 0.082 1.994 2.175 50
-0.821 0.082 2 2.176 53
-0.795 0.081 1.97 2.138 54
-0.798 0.082 2.013 2.179 56
-0.766 0.08 1.965 2.123 55
-0.744 0.079 1.943 2.095 59
-0.744 0.08 1.98 2.13 58
-0.678 0.075 1.837 1.972 52
-0.573 0.064 1.578 1.693 79
-0.542 0.062 1.52 1.628 102
-0.533 0.062 1.523 1.628 103
-0.52 0.061 1.514 1.615 105
-0.523 0.063 1.553 1.653 102
-0.512 0.063 1.552 1.649 100
-0.5 0.062 1.545 1.638 101
-0.485 0.062 1.53 1.62 105
-0.477 0.062 1.535 1.622 104
-0.468 0.062 1.537 1.621 105
-0.46 0.062 1.544 1.626 104
-0.437 0.06 1.501 1.577 105
-0.433 0.061 1.52 1.595 107
-0.427 0.061 1.53 1.603 108
-0.409 0.06 1.502 1.571 109
-0.405 0.061 1.523 1.59 112
-0.394 0.06 1.516 1.581 110
-0.381 0.06 1.501 1.564 110
-0.378 0.06 1.525 1.586 111
-0.367 0.06 1.52 1.578 113
-0.352 0.059 1.497 1.552 115
-0.342 0.059 1.493 1.547 114
-0.337 0.059 1.509 1.56 111
-0.331 0.06 1.524 1.574 111
-0.317 0.059 1.501 1.549 115
-0.31 0.059 1.512 1.559 117
-0.295 0.058 1.485 1.529 111
-0.291 0.059 1.506 1.549 117
-0.283 0.059 1.511 1.552 113
-0.274 0.059 1.511 1.551 116
-0.261 0.058 1.49 1.527 117
-0.258 0.06 1.523 1.559 115
-0.243 0.058 1.486 1.521 117
-0.235 0.058 1.493 1.526 118
-0.226 0.058 1.492 1.524 119
-0.216 0.058 1.486 1.517 118
-0.21 0.059 1.505 1.535 124
-0.199 0.058 1.489 1.517 123
-0.189 0.058 1.478 1.505 124
-0.182 0.058 1.486 1.512 125
-0.176 0.059 1.511 1.536 127
-0.166 0.058 1.497 1.521 125
-0.156 0.058 1.489 1.512 129
-0.149 0.058 1.5 1.523 128
-0.14 0.058 1.501 1.523 129
-0.131 0.058 1.497 1.518 130
-0.122 0.058 1.495 1.515 135
-0.115 0.058 1.506 1.526 136
-0.106 0.058 1.505 1.524 139
-0.095 0.057 1.477 1.495 142
-0.088 0.058 1.489 1.506 145
-0.08 0.058 1.495 1.512 150
-0.071 0.057 1.486 1.503 149
-0.062 0.057 1.486 1.503 152
-0.054 0.058 1.49 1.506 156
-0.046 0.058 1.5 1.516 162
-0.037 0.058 1.493 1.508 161
-0.028 0.057 1.464 1.479 166
-0.02 0.057 1.472 1.487 172
-0.011 0.057 1.487 1.503 172
-0.003 0.057 1.462 1.477 174
0.005 0.057 1.468 1.483 177
0.013 0.057 1.478 1.493 182
0.021 0.057 1.466 1.482 184
0.03 0.057 1.467 1.483 187
0.039 0.057 1.487 1.502 190
0.047 0.057 1.483 1.499 196
0.056 0.058 1.491 1.507 201
0.064 0.058 1.492 1.508 203
0.072 0.057 1.476 1.493 205
0.08 0.057 1.474 1.491 209
0.088 0.056 1.455 1.473 212
0.096 0.056 1.455 1.473 217
0.104 0.056 1.455 1.474 224
0.113 0.057 1.464 1.483 229
0.121 0.057 1.458 1.478 234
0.131 0.057 1.471 1.492 237
0.138 0.057 1.463 1.485 234
0.148 0.057 1.473 1.496 236
0.157 0.057 1.479 1.503 239
0.164 0.057 1.467 1.491 241
0.17 0.056 1.443 1.468 245
0.18 0.057 1.456 1.482 263
0.187 0.056 1.447 1.475 274
0.195 0.056 1.446 1.474 280
0.203 0.056 1.443 1.473 281
0.213 0.057 1.454 1.485 296
0.22 0.056 1.441 1.473 307
0.23 0.057 1.45 1.483 309
0.241 0.057 1.468 1.503 314
0.249 0.057 1.463 1.5 314
0.259 0.058 1.472 1.51 325
0.264 0.057 1.452 1.491 329
0.273 0.057 1.449 1.49 332
0.285 0.058 1.466 1.508 340
0.298 0.059 1.49 1.534 343
0.31 0.059 1.503 1.55 356
0.317 0.059 1.495 1.544 366
0.328 0.059 1.502 1.553 368
0.338 0.059 1.506 1.558 375
0.347 0.06 1.508 1.563 390
0.352 0.059 1.489 1.545 398
0.359 0.059 1.479 1.537 408
0.365 0.058 1.469 1.529 413
0.37 0.058 1.451 1.513 409
0.381 0.058 1.46 1.524 419
0.397 0.059 1.487 1.554 426
0.409 0.06 1.497 1.567 430
0.413 0.059 1.475 1.547 430
0.418 0.058 1.46 1.534 420
0.42 0.058 1.436 1.511 408
0.431 0.058 1.441 1.519 374
0.467 0.061 1.53 1.615 175
0.576 0.074 1.849 1.952 89
0.586 0.074 1.843 1.949 91
0.604 0.075 1.863 1.973 91
0.611 0.074 1.847 1.96 90
0.624 0.075 1.851 1.969 90
0.64 0.075 1.862 1.984 90
0.644 0.074 1.838 1.963 91
0.642 0.073 1.799 1.925 95
0.671 0.075 1.843 1.977 90
0.688 0.076 1.857 1.996 92
0.69 0.075 1.828 1.969 89
0.696 0.074 1.813 1.957 92
0.723 0.076 1.849 2.001 88
0.719 0.074 1.808 1.961 88
0.752 0.076 1.857 2.019 83
0.745 0.075 1.808 1.971 86
0.765 0.076 1.827 1.996 87
0.786 0.076 1.845 2.021 83
0.77 0.074 1.778 1.953 83
0.802 0.076 1.822 2.006 80
0.819 0.076 1.83 2.02 82
0.839 0.077 1.847 2.044 81
0.833 0.076 1.803 2.002 81
0.846 0.076 1.803 2.006 82
0.86 0.076 1.804 2.014 86
0.881 0.077 1.819 2.036 80
0.888 0.076 1.805 2.027 78
0.908 0.077 1.817 2.046 82
0.915 0.077 1.805 2.038 84
0.918 0.076 1.783 2.021 80
0.936 0.077 1.79 2.035 79
0.951 0.077 1.793 2.044 83
0.982 0.079 1.824 2.086 78
0.964 0.076 1.764 2.025 78
0.981 0.077 1.769 2.038 75
1.002 0.077 1.782 2.059 79
-1.125 0.1 2.003 2.311 50
-1.083 0.097 1.958 2.252 51
-1.082 0.098 1.984 2.274 51
-1.084 0.099 2.018 2.305 49
-1.053 0.098 1.989 2.265 47
-1.045 0.098 2.004 2.274 50
-1.044 0.099 2.032 2.299 51
-1.006 0.097 1.989 2.243 52
-1.008 0.098 2.023 2.275 46
-1.017 0.1 2.073 2.323 49
-1.012 0.101 2.096 2.342 48
-0.963 0.098 2.026 2.257 48
-0.924 0.095 1.974 2.194 49
-0.921 0.096 2 2.216 48
-0.9 0.095 1.986 2.195 56
-0.899 0.096 2.016 2.222 52
-0.868 0.094 1.977 2.174 56
-0.849 0.093 1.965 2.155 55
-0.828 0.092 1.949 2.132 56
-0.824 0.093 1.974 2.154 56
-0.802 0.092 1.954 2.126 55
-0.781 0.091 1.936 2.102 56
-0.774 0.092 1.953 2.115 59
-0.755 0.091 1.938 2.094 61
-0.747 0.091 1.952 2.105 62
-0.701 0.087 1.864 2.007 65
-0.575 0.073 1.553 1.67 106
-0.548 0.071 1.507 1.618 135
-0.537 0.07 1.504 1.611 141
-0.531 0.071 1.518 1.622 143
-0.516 0.07 1.503 1.603 150
-0.501 0.069 1.486 1.583 147
-0.499 0.07 1.511 1.605 145
-0.487 0.07 1.505 1.596 143
-0.474 0.069 1.495 1.583 146
-0.468 0.07 1.507 1.592 143
-0.46 0.07 1.512 1.595 150
-0.445 0.069 1.493 1.572 150
-0.436 0.069 1.494 1.571 150
-0.421 0.068 1.475 1.549 154
-0.414 0.068 1.484 1.556 155
-0.41 0.069 1.506 1.576 157
-0.398 0.068 1.494 1.561 159
-0.389 0.068 1.495 1.56 165
-0.377 0.068 1.485 1.547 171
-0.367 0.067 1.482 1.542 173
-0.358 0.067 1.484 1.541 180
-0.35 0.067 1.485 1.54 183
-0.341 0.068 1.489 1.543 187
-0.334 0.068 1.497 1.549 192
-0.323 0.067 1.49 1.539 194
-0.313 0.067 1.483 1.53 196
-0.305 0.067 1.489 1.535 201
-0.294 0.067 1.478 1.522 205
-0.288 0.067 1.49 1.533 212
-0.277 0.067 1.479 1.52 216
-0.27 0.067 1.493 1.532 215
-0.26 0.067 1.485 1.523 219
-0.251 0.066 1.481 1.517 222
-0.242 0.067 1.484 1.519 224
-0.234 0.067 1.484 1.518 223
-0.224 0.066 1.475 1.507 227
-0.215 0.066 1.475 1.506 237
-0.206 0.066 1.476 1.506 244
-0.198 0.066 1.477 1.506 246
-0.188 0.066 1.469 1.496 252
-0.181 0.066 1.48 1.506 255
-0.173 0.066 1.482 1.507 255
-0.165 0.066 1.486 1.511 258
-0.158 0.067 1.51 1.533 261
-0.149 0.067 1.507 1.53 276
-0.14 0.067 1.5 1.522 286
-0.132 0.067 1.51 1.531 293
-0.123 0.067 1.505 1.526 298
-0.114 0.067 1.503 1.523 307
-0.105 0.066 1.493 1.512 318
-0.095 0.066 1.474 1.492 333
-0.086 0.065 1.46 1.478 342
-0.078 0.066 1.475 1.492 348
-0.071 0.067 1.503 1.52 359
-0.063 0.067 1.5 1.517 364
-0.054 0.067 1.511 1.527 371
-0.046 0.067 1.505 1.521 369
-0.037 0.066 1.491 1.507 377
-0.028 0.065 1.462 1.478 391
-0.019 0.064 1.446 1.461 398
-0.011 0.064 1.441 1.457 405
-0.003 0.064 1.45 1.466 403
0.005 0.064 1.452 1.467 417
0.013 0.064 1.449 1.464 420
0.021 0.065 1.454 1.47 417
0.03 0.065 1.462 1.478 412
0.038 0.066 1.483 1.499 414
0.047 0.067 1.501 1.517 419
0.056 0.067 1.511 1.527 425
0.065 0.067 1.505 1.522 421
0.073 0.066 1.491 1.509 426
0.08 0.065 1.461 1.479 432
0.087 0.064 1.447 1.465 432
0.095 0.064 1.439 1.458 429
0.103 0.064 1.443 1.462 429
0.112 0.064 1.446 1.466 430
0.122 0.065 1.463 1.483 432
0.131 0.065 1.47 1.491 420
0.141 0.066 1.489 1.511 412
0.149 0.066 1.487 1.511 406
0.158 0.066 1.484 1.508 409
0.165 0.066 1.471 1.496 418
0.17 0.065 1.444 1.47 417
0.178 0.064 1.438 1.464 425
0.184 0.064 1.426 1.453 435
0.194 0.064 1.435 1.463 443
0.203 0.064 1.438 1.468 438
0.211 0.064 1.434 1.465 447
0.221 0.065 1.45 1.482 447
0.232 0.066 1.461 1.495 444
0.241 0.066 1.465 1.5 441
0.252 0.066 1.479 1.516 437
0.259 0.066 1.468 1.507 441
0.266 0.066 1.457 1.497 442
0.274 0.066 1.456 1.498 436
0.288 0.067 1.481 1.525 442
0.302 0.068 1.508 1.553 446
0.314 0.069 1.525 1.573 449
0.327 0.07 1.543 1.593 450
0.332 0.069 1.52 1.572 446
0.341 0.069 1.523 1.576 453
0.352 0.069 1.527 1.583 456
0.359 0.069 1.52 1.578 470
0.362 0.068 1.494 1.553 476
0.363 0.067 1.459 1.519 479
0.369 0.066 1.447 1.509 467
0.383 0.067 1.467 1.532 466
0.399 0.068 1.491 1.559 468
0.411 0.069 1.504 1.575 476
0.414 0.068 1.478 1.55 480
0.419 0.067 1.464 1.539 478
0.421 0.066 1.439 1.515 472
0.427 0.066 1.43 1.508 384
0.474 0.072 1.552 1.638 165
0.558 0.083 1.793 1.894 95
0.582 0.084 1.83 1.936 95
0.594 0.085 1.83 1.94 93
0.612 0.086 1.85 1.965 93
0.61 0.084 1.807 1.923 92
0.633 0.085 1.841 1.963 92
0.632 0.084 1.802 1.925 93
0.646 0.084 1.808 1.936 94
0.656 0.084 1.803 1.934 93
0.674 0.085 1.82 1.956 96
0.685 0.085 1.816 1.957 93
0.692 0.085 1.801 1.945 92
0.708 0.085 1.81 1.96 92
0.709 0.084 1.783 1.934 89
0.736 0.086 1.818 1.978 86
0.735 0.085 1.784 1.945 92
0.763 0.086 1.821 1.99 90
0.76 0.085 1.784 1.955 89
0.778 0.086 1.797 1.973 89
0.787 0.086 1.788 1.97 90
0.791 0.085 1.768 1.952 87
0.817 0.086 1.797 1.989 87
0.822 0.086 1.779 1.975 88
0.834 0.086 1.776 1.977 86
0.849 0.086 1.779 1.987 90
0.871 0.087 1.798 2.013 87
0.853 0.084 1.732 1.946 89
0.89 0.087 1.782 2.008 90
0.897 0.087 1.768 1.998 84
0.911 0.087 1.769 2.005 85
0.95 0.089 1.817 2.066 85
0.941 0.088 1.774 2.023 82
0.938 0.086 1.741 1.993 84
0.946 0.086 1.73 1.987 82
0.977 0.088 1.762 2.03 83
0.988 0.088 1.755 2.029 84
-1.092 0.109 1.944 2.244 59
-1.064 0.108 1.922 2.211 53
-1.063 0.109 1.949 2.235 55
-1.045 0.108 1.945 2.223 56
-1.034 0.108 1.953 2.224 57
-1.03 0.109 1.974 2.241 49
-1.011 0.109 1.968 2.227 52
-1.012 0.11 2 2.256 49
-0.983 0.108 1.972 2.218 46
-0.994 0.111 2.026 2.272 50
-0.966 0.109 1.999 2.235 50
-0.943 0.108 1.983 2.211 50
-0.933 0.108 1.992 2.214 54
-0.898 0.106 1.949 2.161 55
-0.89 0.106 1.963 2.17 55
-0.881 0.106 1.974 2.177 60
-0.846 0.104 1.926 2.119 65
-0.833 0.104 1.929 2.116 61
-0.834 0.105 1.963 2.147 61
-0.791 0.101 1.893 2.067 59
-0.791 0.103 1.925 2.097 60
-0.772 0.102 1.913 2.078 62
-0.762 0.102 1.92 2.08 63
-0.733 0.1 1.879 2.032 69
-0.725 0.1 1.892 2.042 66
-0.712 0.1 1.891 2.036 69
-0.567 0.081 1.532 1.649 158
-0.54 0.078 1.484 1.594 250
-0.534 0.079 1.497 1.604 297
-0.522 0.078 1.489 1.593 323
-0.507 0.078 1.477 1.576 332
-0.501 0.078 1.487 1.584 328
-0.493 0.078 1.493 1.587 334
-0.483 0.078 1.49 1.582 331
-0.474 0.078 1.495 1.583 319
-0.464 0.078 1.493 1.579 315
-0.454 0.078 1.491 1.574 327
-0.444 0.078 1.491 1.571 332
-0.432 0.077 1.481 1.558 342
-0.426 0.077 1.493 1.567 342
-0.412 0.076 1.476 1.548 352
-0.406 0.077 1.49 1.56 349
-0.392 0.076 1.471 1.537 352
-0.385 0.076 1.481 1.546 359
-0.377 0.076 1.483 1.545 372
-0.369 0.076 1.487 1.547 368
-0.357 0.076 1.479 1.537 380
-0.351 0.076 1.49 1.546 398
-0.34 0.076 1.484 1.538 399
-0.334 0.077 1.496 1.548 407
-0.321 0.076 1.478 1.527 402
-0.313 0.076 1.484 1.532 393
-0.305 0.076 1.487 1.534 396
-0.295 0.076 1.483 1.528 399
-0.286 0.075 1.482 1.525 400
-0.277 0.075 1.481 1.522 405
-0.269 0.075 1.486 1.525 403
-0.26 0.075 1.486 1.524 413
-0.251 0.075 1.484 1.52 406
-0.242 0.075 1.48 1.516 395
-0.233 0.075 1.481 1.515 393
-0.226 0.075 1.491 1.524 406
-0.217 0.075 1.491 1.522 419
-0.209 0.075 1.494 1.524 419
-0.2 0.075 1.491 1.52 414
-0.19 0.075 1.486 1.514 413
-0.181 0.075 1.482 1.509 419
-0.174 0.075 1.494 1.52 409
-0.167 0.076 1.505 1.53 408
-0.161 0.077 1.532 1.556 407
-0.154 0.078 1.549 1.573 426
-0.146 0.078 1.56 1.583 425
-0.136 0.078 1.554 1.576 425
-0.127 0.078 1.555 1.576 430
-0.118 0.078 1.548 1.568 431
-0.107 0.076 1.523 1.543 430
-0.096 0.074 1.476 1.495 437
-0.086 0.073 1.458 1.477 443
-0.079 0.074 1.476 1.494 445
-0.072 0.076 1.518 1.536 448
-0.064 0.077 1.541 1.558 444
-0.056 0.078 1.56 1.577 446
-0.047 0.077 1.536 1.553 447
-0.037 0.076 1.507 1.524 452
-0.028 0.073 1.46 1.476 458
-0.019 0.073 1.448 1.464 466
-0.011 0.072 1.432 1.447 474
-0.003 0.072 1.443 1.458 477
0.004 0.072 1.435 1.451 483
0.013 0.072 1.436 1.452 488
0.021 0.073 1.455 1.471 487
0.03 0.073 1.465 1.481 479
0.039 0.075 1.49 1.507 479
0.048 0.076 1.518 1.535 473
0.057 0.077 1.537 1.554 465
0.066 0.077 1.531 1.548 465
0.073 0.075 1.506 1.524 463
0.081 0.074 1.478 1.496 469
0.087 0.073 1.452 1.47 471
0.094 0.072 1.433 1.452 457
0.103 0.072 1.439 1.459 446
0.113 0.073 1.455 1.475 448
0.121 0.073 1.46 1.481 438
0.132 0.074 1.481 1.503 420
0.142 0.075 1.498 1.52 424
0.151 0.076 1.505 1.528 426
0.159 0.075 1.497 1.521 432
0.164 0.074 1.467 1.493 434
0.172 0.074 1.459 1.485 431
0.179 0.073 1.45 1.477 431
0.186 0.072 1.435 1.463 434
0.195 0.073 1.446 1.475 433
0.203 0.073 1.442 1.472 426
0.212 0.073 1.44 1.471 424
0.222 0.074 1.456 1.489 406
0.233 0.075 1.471 1.505 384
0.244 0.075 1.484 1.52 388
0.256 0.076 1.503 1.541 390
0.263 0.076 1.489 1.528 400
0.268 0.075 1.471 1.512 398
0.277 0.075 1.472 1.514 388
0.29 0.076 1.493 1.537 392
0.305 0.078 1.524 1.571 403
0.319 0.079 1.546 1.595 399
0.33 0.079 1.557 1.608 400
0.337 0.079 1.542 1.595 396
0.346 0.079 1.544 1.598 394
0.357 0.079 1.548 1.605 402
0.36 0.078 1.523 1.581 447
0.364 0.077 1.5 1.56 470
0.367 0.076 1.476 1.537 471
0.373 0.075 1.461 1.524 452
0.385 0.076 1.473 1.538 436
0.403 0.078 1.508 1.577 443
0.414 0.078 1.511 1.583 456
0.418 0.077 1.491 1.565 466
0.419 0.076 1.464 1.539 473
0.424 0.075 1.449 1.526 491
0.431 0.075 1.443 1.522 379
0.49 0.083 1.604 1.694 145
0.557 0.093 1.789 1.89 104
0.577 0.094 1.814 1.919 101
0.583 0.094 1.797 1.905 100
0.587 0.093 1.773 1.884 99
0.603 0.094 1.788 1.903 97
0.618 0.094 1.797 1.917 98
0.632 0.095 1.802 1.926 98
0.64 0.094 1.792 1.92 99
0.646 0.094 1.774 1.904 99
0.65 0.093 1.754 1.887 97
0.672 0.094 1.78 1.919 96
0.686 0.095 1.786 1.929 96
0.701 0.095 1.791 1.939 95
0.709 0.095 1.782 1.934 96
0.723 0.095 1.785 1.942 98
0.739 0.096 1.793 1.956 96
0.73 0.093 1.741 1.904 93
0.753 0.095 1.768 1.938 95
0.761 0.095 1.755 1.929 96
0.793 0.097 1.801 1.984 95
0.782 0.095 1.746 1.929 95
0.805 0.096 1.769 1.959 96
0.811 0.096 1.755 1.949 89
0.839 0.097 1.787 1.991 93
0.849 0.097 1.779 1.987 95
0.855 0.097 1.764 1.976 93
0.862 0.096 1.751 1.967 90
0.858 0.095 1.716 1.935 93
0.903 0.098 1.779 2.011 91
0.922 0.099 1.789 2.028 92
0.922 0.098 1.764 2.006 91
0.931 0.098 1.754 2.001 89
0.934 0.097 1.734 1.985 89
0.967 0.099 1.768 2.031 88
0.949 0.096 1.71 1.972 91
0.985 0.099 1.749 2.023 91
-1.084 0.121 1.93 2.228 58
-1.053 0.119 1.9 2.187 59
-1.017 0.116 1.863 2.138 62
-1.012 0.117 1.882 2.152 57
-1.023 0.12 1.93 2.199 54
-1.026 0.121 1.966 2.233 55
-0.991 0.119 1.928 2.183 54
-0.993 0.12 1.961 2.213 52
-0.976 0.12 1.957 2.202 53
-0.95 0.118 1.935 2.171 53
-0.931 0.117 1.926 2.155 53
-0.93 0.119 1.954 2.18 57
-0.915 0.118 1.952 2.171 62
-0.874 0.115 1.895 2.102 62
-0.853 0.113 1.879 2.079 63
-0.845 0.114 1.891 2.087 60
-0.828 0.113 1.884 2.073 64
-0.815 0.113 1.885 2.069 60
-0.808 0.114 1.902 2.082 63
-0.783 0.112 1.873 2.046 63
-0.774 0.112 1.884 2.053 65
-0.767 0.113 1.898 2.063 68
-0.743 0.111 1.873 2.031 65
-0.733 0.111 1.88 2.034 74
-0.715 0.11 1.867 2.015 72
-0.699 0.109 1.858 2.001 75
-0.577 0.092 1.558 1.676 153
-0.546 0.089 1.502 1.614 311
-0.536 0.088 1.502 1.61 392
-0.525 0.088 1.499 1.603 411
-0.514 0.088 1.495 1.597 420
-0.505 0.088 1.498 1.596 428
-0.492 0.087 1.489 1.583 426
-0.486 0.087 1.501 1.593 422
-0.477 0.087 1.502 1.591 410
-0.464 0.087 1.492 1.578 402
-0.458 0.087 1.503 1.587 392
-0.447 0.087 1.499 1.579 400
-0.437 0.087 1.497 1.575 411
-0.426 0.086 1.493 1.568 423
-0.418 0.086 1.498 1.571 433
-0.407 0.086 1.493 1.563 428
-0.398 0.086 1.492 1.56 421
-0.39 0.086 1.498 1.564 418
-0.379 0.086 1.491 1.554 428
-0.371 0.086 1.496 1.557 437
-0.363 0.086 1.5 1.559 442
-0.352 0.085 1.496 1.552 450
-0.342 0.085 1.493 1.547 451
-0.335 0.085 1.499 1.552 452
-0.324 0.085 1.492 1.543 448
-0.314 0.085 1.488 1.537 443
-0.306 0.085 1.494 1.541 442
-0.298 0.085 1.497 1.542 441
-0.289 0.085 1.494 1.538 438
-0.28 0.085 1.495 1.537 442
-0.272 0.085 1.504 1.544 443
-0.262 0.084 1.493 1.532 446
-0.254 0.085 1.501 1.538 437
-0.243 0.084 1.487 1.523 424
-0.236 0.085 1.499 1.534 423
-0.226 0.084 1.494 1.527 436
-0.218 0.084 1.496 1.528 437
-0.21 0.084 1.5 1.531 437
-0.201 0.085 1.503 1.532 432
-0.194 0.085 1.51 1.538 431
-0.183 0.084 1.498 1.525 430
-0.175 0.084 1.503 1.529 423
-0.169 0.085 1.524 1.55 409
-0.162 0.087 1.546 1.571 407
-0.156 0.088 1.575 1.599 410
-0.148 0.089 1.583 1.606 415
-0.137 0.088 1.566 1.588 417
-0.13 0.089 1.583 1.605 430
-0.119 0.087 1.563 1.584 444
-0.108 0.086 1.531 1.551 450
-0.096 0.083 1.492 1.511 457
-0.087 0.082 1.47 1.488 454
-0.079 0.083 1.481 1.5 447
-0.072 0.085 1.516 1.534 446
-0.065 0.087 1.559 1.577 436
-0.056 0.087 1.564 1.581 432
-0.047 0.087 1.552 1.569 443
-0.038 0.085 1.526 1.543 448
-0.028 0.083 1.486 1.502 456
-0.019 0.081 1.454 1.47 463
-0.011 0.081 1.444 1.46 475
-0.003 0.081 1.449 1.465 484
0.005 0.081 1.455 1.471 473
0.013 0.081 1.455 1.471 446
0.021 0.082 1.473 1.49 409
0.03 0.083 1.488 1.505 391
0.039 0.085 1.519 1.536 381
0.049 0.087 1.554 1.571 361
0.059 0.088 1.58 1.598 342
0.068 0.088 1.572 1.59 337
0.076 0.087 1.556 1.574 341
0.083 0.085 1.528 1.547 337
0.09 0.084 1.499 1.518 327
0.099 0.084 1.496 1.516 314
0.108 0.084 1.505 1.526 303
0.117 0.084 1.505 1.526 300
0.127 0.085 1.523 1.545 293
0.138 0.087 1.553 1.576 281
0.147 0.087 1.553 1.577 280
0.156 0.087 1.556 1.58 281
0.166 0.088 1.567 1.592 271
0.176 0.088 1.569 1.595 270
0.183 0.087 1.55 1.577 269
0.191 0.087 1.546 1.574 264
0.198 0.086 1.528 1.557 257
0.21 0.087 1.554 1.584 250
0.219 0.087 1.555 1.587 241
0.229 0.088 1.562 1.595 234
0.24 0.089 1.572 1.607 234
0.252 0.09 1.588 1.624 230
0.262 0.09 1.592 1.63 226
0.273 0.091 1.603 1.643 224
0.285 0.091 1.615 1.656 227
0.293 0.091 1.605 1.649 222
0.304 0.091 1.613 1.658 218
0.311 0.091 1.603 1.65 219
0.322 0.091 1.609 1.658 215
0.337 0.093 1.633 1.684 216
0.345 0.092 1.626 1.679 220
0.35 0.091 1.603 1.658 237
0.349 0.089 1.555 1.611 292
0.353 0.087 1.532 1.589 353
0.359 0.087 1.519 1.577 413
0.366 0.086 1.51 1.57 464
0.369 0.085 1.484 1.546 469
0.378 0.085 1.483 1.547 458
0.388 0.085 1.484 1.55 463
0.402 0.086 1.503 1.572 464
0.409 0.086 1.496 1.567 469
0.417 0.086 1.489 1.563 470
0.426 0.086 1.487 1.564 463
0.432 0.086 1.478 1.556 466
0.447 0.087 1.495 1.576 362
0.505 0.096 1.654 1.746 133
0.557 0.104 1.788 1.889 107
0.571 0.104 1.796 1.902 108
0.571 0.102 1.759 1.866 106
0.591 0.104 1.787 1.899 105
0.594 0.103 1.759 1.874 106
0.606 0.103 1.762 1.88 105
0.617 0.103 1.76 1.882 106
0.625 0.103 1.749 1.874 106
0.639 0.103 1.753 1.883 103
0.657 0.104 1.77 1.905 102
0.664 0.104 1.759 1.897 105
0.681 0.105 1.773 1.916 104
0.691 0.105 1.766 1.913 103
0.701 0.105 1.76 1.911 103
0.711 0.104 1.755 1.91 99
0.725 0.105 1.758 1.918 99
0.733 0.105 1.747 1.911 100
0.749 0.105 1.757 1.926 99
0.754 0.105 1.741 1.914 99
0.757 0.103 1.717 1.893 103
0.777 0.105 1.736 1.918 98
0.784 0.104 1.723 1.909 98
0.799 0.105 1.728 1.92 97
0.816 0.106 1.738 1.936 101
0.823 0.105 1.723 1.926 101
0.84 0.106 1.733 1.943 100
0.847 0.105 1.72 1.933 99
0.864 0.106 1.727 1.948 101
0.862 0.105 1.697 1.919 97
0.874 0.105 1.695 1.924 95
0.901 0.107 1.723 1.961 99
0.916 0.107 1.725 1.97 96
0.91 0.105 1.687 1.933 96
0.95 0.109 1.736 1.995 98
0.968 0.109 1.743 2.01 97
0.935 0.105 1.66 1.922 94
-1.036 0.128 1.843 2.13 63
-1.038 0.129 1.873 2.157 65
-1.024 0.129 1.876 2.153 60
-1.028 0.131 1.91 2.185 65
-1.003 0.129 1.892 2.157 62
-1.023 0.134 1.96 2.227 60
-0.988 0.131 1.922 2.177 59
-0.944 0.126 1.864 2.105 58
-0.951 0.129 1.906 2.146 55
-0.932 0.128 1.898 2.131 59
-0.913 0.127 1.888 2.113 60
-0.896 0.126 1.88 2.099 61
-0.888 0.127 1.895 2.108 67
-0.869 0.126 1.885 2.092 67
-0.862 0.126 1.898 2.1 65
-0.846 0.126 1.895 2.091 66
-0.815 0.123 1.855 2.042 68
-0.824 0.126 1.906 2.093 64
-0.79 0.123 1.859 2.036 67
-0.772 0.122 1.847 2.018 68
-0.761 0.122 1.851 2.017 71
-0.748 0.121 1.851 2.013 73
-0.732 0.12 1.842 1.998 73
-0.717 0.12 1.837 1.988 75
-0.701 0.119 1.828 1.974 78
-0.709 0.122 1.885 2.03 78
-0.6 0.105 1.62 1.744 119
-0.55 0.098 1.511 1.623 279
-0.537 0.098 1.503 1.612 367
-0.53 0.098 1.512 1.618 412
-0.522 0.098 1.518 1.622 427
-0.506 0.097 1.5 1.598 433
-0.498 0.097 1.508 1.604 427
-0.487 0.097 1.504 1.597 428
-0.479 0.097 1.508 1.598 424
-0.468 0.097 1.506 1.593 409
-0.46 0.097 1.511 1.595 372
-0.449 0.096 1.506 1.588 358
-0.445 0.097 1.527 1.607 356
-0.433 0.097 1.516 1.593 359
-0.426 0.097 1.526 1.6 348
-0.417 0.097 1.529 1.601 329
-0.409 0.097 1.536 1.606 328
-0.397 0.096 1.524 1.591 345
-0.388 0.097 1.527 1.592 351
-0.378 0.096 1.525 1.587 350
-0.37 0.096 1.529 1.589 351
-0.359 0.096 1.524 1.582 348
-0.352 0.096 1.534 1.59 347
-0.341 0.096 1.528 1.582 340
-0.334 0.096 1.536 1.588 337
-0.326 0.097 1.543 1.593 327
-0.316 0.097 1.543 1.591 322
-0.306 0.096 1.537 1.583 311
-0.299 0.097 1.547 1.593 312
-0.289 0.096 1.543 1.586 316
-0.279 0.096 1.537 1.579 303
-0.272 0.097 1.55 1.59 303
-0.263 0.097 1.551 1.59 295
-0.253 0.097 1.552 1.589 284
-0.247 0.097 1.567 1.603 278
-0.238 0.098 1.572 1.606 279
-0.227 0.097 1.561 1.594 272
-0.22 0.098 1.575 1.607 269
-0.209 0.097 1.563 1.594 266
-0.201 0.097 1.569 1.599 258
-0.191 0.097 1.565 1.594 255
-0.184 0.098 1.583 1.611 249
-0.176 0.098 1.593 1.62 238
-0.168 0.099 1.6 1.626 234
-0.161 0.1 1.627 1.652 242
-0.151 0.1 1.613 1.637 248
-0.14 0.099 1.598 1.621 278
-0.129 0.097 1.573 1.595 348
-0.119 0.096 1.561 1.582 411
-0.108 0.094 1.529 1.549 437
-0.097 0.092 1.498 1.518 459
-0.088 0.092 1.489 1.509 450
-0.08 0.093 1.503 1.522 445
-0.072 0.094 1.526 1.544 437
-0.064 0.094 1.527 1.545 430
-0.056 0.095 1.543 1.561 432
-0.047 0.094 1.533 1.551 435
-0.038 0.094 1.525 1.543 437
-0.029 0.093 1.503 1.52 441
-0.02 0.091 1.482 1.499 439
-0.011 0.091 1.481 1.497 461
-0.003 0.091 1.478 1.495 474
0.005 0.092 1.492 1.509 443
0.013 0.093 1.505 1.522 372
0.022 0.095 1.537 1.555 295
0.033 0.099 1.616 1.633 214
0.044 0.104 1.688 1.706 170
0.055 0.105 1.714 1.732 167
0.064 0.105 1.706 1.724 161
0.075 0.107 1.735 1.754 163
0.085 0.107 1.742 1.762 161
0.095 0.107 1.742 1.762 160
0.106 0.108 1.75 1.771 156
0.116 0.108 1.756 1.778 155
0.126 0.108 1.754 1.776 155
0.136 0.108 1.753 1.776 154
0.149 0.11 1.787 1.811 152
0.16 0.11 1.794 1.819 153
0.171 0.111 1.804 1.829 150
0.183 0.112 1.823 1.85 148
0.192 0.112 1.81 1.838 146
0.204 0.112 1.821 1.85 145
0.217 0.113 1.837 1.867 140
0.227 0.113 1.835 1.866 146
0.236 0.113 1.825 1.858 143
0.245 0.112 1.809 1.844 146
0.258 0.113 1.828 1.864 145
0.269 0.113 1.828 1.865 145
0.278 0.113 1.819 1.858 144
0.289 0.113 1.822 1.862 149
0.301 0.114 1.831 1.874 153
0.315 0.115 1.849 1.893 157
0.324 0.114 1.837 1.883 160
0.335 0.114 1.838 1.886 161
0.347 0.115 1.842 1.892 161
0.356 0.114 1.831 1.882 148
0.361 0.112 1.802 1.855 135
0.371 0.112 1.799 1.855 141
0.373 0.11 1.758 1.815 160
0.376 0.108 1.725 1.783 177
0.358 0.1 1.594 1.65 260
0.355 0.097 1.542 1.599 369
0.356 0.095 1.503 1.561 439
0.365 0.095 1.503 1.563 480
0.372 0.094 1.493 1.556 477
0.381 0.094 1.492 1.557 467
0.39 0.095 1.493 1.56 464
0.399 0.095 1.493 1.562 473
0.408 0.095 1.489 1.561 480
0.419 0.095 1.496 1.571 478
0.426 0.095 1.489 1.566 464
0.435 0.095 1.485 1.564 457
0.447 0.096 1.496 1.578 327
0.513 0.107 1.679 1.773 129
0.548 0.112 1.757 1.858 114
0.561 0.113 1.762 1.867 114
0.574 0.113 1.769 1.877 113
0.576 0.112 1.739 1.849 108
0.591 0.113 1.751 1.866 109
0.596 0.112 1.73 1.847 109
0.605 0.111 1.725 1.845 111
0.619 0.112 1.731 1.855 111
0.638 0.114 1.752 1.882 109
0.635 0.111 1.71 1.842 110
0.651 0.112 1.723 1.859 112
0.668 0.113 1.736 1.878 109
0.684 0.114 1.748 1.895 108
0.685 0.113 1.718 1.867 111
0.71 0.115 1.752 1.907 109
0.705 0.113 1.71 1.867 106
0.727 0.114 1.734 1.898 106
0.734 0.114 1.721 1.889 107
0.743 0.114 1.714 1.885 108
0.757 0.114 1.717 1.893 105
0.757 0.113 1.688 1.867 102
0.778 0.114 1.709 1.895 103
0.793 0.115 1.714 1.906 104
0.81 0.116 1.724 1.922 105
0.803 0.113 1.682 1.881 102
0.823 0.115 1.698 1.904 102
0.841 0.115 1.707 1.92 105
0.845 0.115 1.688 1.905 105
0.86 0.115 1.693 1.916 104
0.877 0.116 1.702 1.931 106
0.89 0.116 1.7 1.935 102
0.871 0.113 1.64 1.874 105
0.913 0.117 1.693 1.94 102
0.92 0.116 1.681 1.933 103
0.943 0.118 1.698 1.96 97
0.939 0.116 1.667 1.93 102
-1.039 0.14 1.847 2.136 65
-0.996 0.136 1.796 2.07 67
-1.005 0.138 1.839 2.112 66
-0.994 0.138 1.846 2.113 65
-0.999 0.141 1.883 2.148 59
-0.963 0.138 1.844 2.097 61
-0.951 0.137 1.848 2.095 62
-0.951 0.139 1.876 2.12 66
-0.94 0.139 1.883 2.121 63
-0.915 0.137 1.861 2.09 63
-0.888 0.135 1.835 2.055 64
-0.891 0.137 1.871 2.089 64
-0.865 0.135 1.845 2.055 67
-0.848 0.134 1.837 2.04 69
-0.82 0.132 1.806 2 73
-0.828 0.135 1.852 2.045 68
-0.804 0.133 1.829 2.015 71
-0.786 0.131 1.816 1.995 74
-0.783 0.133 1.839 2.016 75
-0.765 0.132 1.828 1.999 74
-0.745 0.13 1.811 1.975 75
-0.737 0.131 1.824 1.984 79
-0.712 0.128 1.792 1.946 80
-0.715 0.131 1.831 1.983 82
-0.693 0.129 1.807 1.952 83
-0.689 0.13 1.829 1.972 85
-0.645 0.124 1.744 1.876 100
-0.555 0.108 1.525 1.639 269
-0.541 0.107 1.516 1.626 385
-0.528 0.107 1.506 1.613 425
-0.52 0.107 1.514 1.617 431
-0.509 0.106 1.509 1.609 433
-0.499 0.106 1.51 1.607 432
-0.492 0.107 1.518 1.612 435
-0.481 0.106 1.514 1.605 439
-0.47 0.106 1.51 1.598 439
-0.461 0.106 1.515 1.6 410
-0.458 0.107 1.535 1.619 362
-0.453 0.108 1.554 1.635 306
-0.454 0.111 1.591 1.672 245
-0.453 0.113 1.623 1.702 211
-0.448 0.114 1.644 1.721 203
-0.446 0.116 1.675 1.751 196
-0.439 0.117 1.687 1.76 186
-0.429 0.117 1.691 1.762 170
-0.419 0.117 1.693 1.761 171
-0.414 0.118 1.716 1.783 169
-0.411 0.12 1.747 1.813 165
-0.399 0.119 1.74 1.803 164
-0.388 0.119 1.739 1.799 157
-0.379 0.12 1.746 1.804 157
-0.368 0.119 1.742 1.798 155
-0.357 0.119 1.741 1.795 149
-0.351 0.12 1.765 1.817 151
-0.342 0.121 1.774 1.825 152
-0.332 0.121 1.775 1.823 148
-0.323 0.121 1.786 1.832 147
-0.31 0.12 1.773 1.817 146
-0.304 0.122 1.796 1.839 143
-0.293 0.122 1.796 1.838 141
-0.283 0.122 1.8 1.84 142
-0.275 0.123 1.818 1.856 140
-0.265 0.123 1.822 1.859 138
-0.252 0.122 1.806 1.842 140
-0.244 0.123 1.821 1.855 137
-0.233 0.123 1.821 1.854 135
-0.223 0.123 1.829 1.861 135
-0.214 0.124 1.842 1.873 135
-0.202 0.123 1.825 1.854 136
-0.191 0.123 1.825 1.853 135
-0.18 0.123 1.821 1.847 135
-0.17 0.123 1.827 1.852 138
-0.15 0.115 1.714 1.738 167
-0.128 0.105 1.559 1.581 284
-0.116 0.103 1.521 1.542 380
-0.107 0.102 1.513 1.534 430
-0.097 0.101 1.503 1.524 458
-0.089 0.102 1.512 1.532 449
-0.08 0.102 1.51 1.529 451
-0.072 0.102 1.507 1.526 451
-0.063 0.102 1.515 1.534 442
-0.055 0.102 1.514 1.532 443
-0.046 0.102 1.511 1.529 444
-0.037 0.101 1.505 1.523 445
-0.029 0.102 1.514 1.531 454
-0.02 0.101 1.502 1.52 448
-0.011 0.101 1.502 1.52 463
