# .PCD v0.7 - Point Cloud Data file format
VERSION 0.7
FIELDS x y z d a
SIZE 4 4 4 4 4
TYPE F F F F F
COUNT 1 1 1 1 1
WIDTH 1702
HEIGHT 1
VIEWPOINT 0 0 0 1 0 0 0
POINTS 1702
DATA ascii
0.289 0.114 1.532 1.577 469
0.298 0.114 1.53 1.577 471
0.306 0.114 1.529 1.577 474
0.316 0.114 1.531 1.582 469
0.326 0.114 1.534 1.586 456
0.335 0.114 1.531 1.586 412
0.346 0.115 1.542 1.599 278
0.376 0.122 1.63 1.692 151
0.387 0.122 1.635 1.699 143
0.4 0.123 1.645 1.712 145
0.409 0.123 1.642 1.711 143
0.419 0.123 1.641 1.713 138
0.432 0.124 1.651 1.725 141
0.438 0.123 1.636 1.712 139
0.448 0.123 1.637 1.716 134
0.465 0.125 1.659 1.742 133
0.472 0.125 1.649 1.734 129
0.484 0.125 1.653 1.741 134
0.497 0.126 1.663 1.754 132
0.503 0.125 1.646 1.739 134
0.515 0.125 1.65 1.747 135
0.527 0.126 1.656 1.757 130
0.532 0.125 1.638 1.741 134
0.549 0.126 1.655 1.762 130
0.55 0.125 1.627 1.736 127
0.573 0.127 1.661 1.776 129
0.585 0.128 1.664 1.782 125
0.593 0.127 1.657 1.778 124
0.606 0.128 1.661 1.787 119
0.622 0.129 1.676 1.806 122
0.634 0.13 1.677 1.812 120
0.64 0.129 1.662 1.799 120
0.655 0.13 1.67 1.813 118
0.665 0.13 1.669 1.815 117
0.666 0.128 1.641 1.789 116
0.701 0.133 1.699 1.856 117
0.705 0.132 1.68 1.841 117
0.719 0.132 1.683 1.849 116
0.729 0.132 1.679 1.848 116
0.749 0.134 1.697 1.874 110
0.761 0.134 1.697 1.879 114
0.763 0.133 1.674 1.858 111
0.781 0.134 1.687 1.877 114
0.811 0.137 1.723 1.923 112
0.807 0.135 1.689 1.89 111
0.827 0.136 1.704 1.913 108
0.843 0.137 1.711 1.926 105
0.849 0.137 1.695 1.914 107
0.853 0.136 1.678 1.901 108
0.884 0.139 1.713 1.946 106
0.872 0.135 1.664 1.896 110
0.908 0.139 1.707 1.952 102
0.909 0.138 1.685 1.933 104
0.926 0.139 1.691 1.946 100
0.944 0.14 1.699 1.962 101
0.952 0.139 1.687 1.955 99
-0.77 0.122 1.364 1.583 202
-0.767 0.122 1.377 1.593 202
-0.758 0.122 1.382 1.593 205
-0.748 0.122 1.385 1.591 206
-0.73 0.121 1.37 1.569 205
-0.721 0.121 1.375 1.569 206
-0.709 0.12 1.373 1.562 211
-0.714 0.123 1.404 1.592 209
-0.689 0.12 1.374 1.553 206
-0.692 0.122 1.402 1.58 211
-0.686 0.122 1.412 1.587 214
-0.673 0.122 1.408 1.578 216
-0.662 0.121 1.406 1.571 216
-0.655 0.121 1.413 1.575 219
-0.649 0.122 1.423 1.581 222
-0.632 0.121 1.41 1.562 230
-0.628 0.121 1.424 1.573 230
-0.624 0.122 1.437 1.584 238
-0.615 0.122 1.44 1.583 263
-0.607 0.123 1.447 1.586 276
-0.597 0.122 1.446 1.582 285
-0.589 0.122 1.451 1.583 287
-0.579 0.122 1.453 1.582 293
-0.569 0.122 1.453 1.578 293
-0.562 0.122 1.459 1.581 290
-0.553 0.122 1.462 1.581 297
-0.547 0.123 1.473 1.589 295
-0.538 0.123 1.476 1.589 286
-0.531 0.123 1.485 1.595 271
-0.517 0.122 1.473 1.579 262
-0.513 0.123 1.49 1.594 256
-0.502 0.123 1.486 1.586 247
-0.491 0.122 1.484 1.581 242
-0.482 0.122 1.486 1.58 243
-0.477 0.123 1.501 1.593 242
-0.464 0.122 1.491 1.58 237
-0.457 0.123 1.5 1.586 237
-0.447 0.123 1.499 1.582 234
-0.44 0.123 1.507 1.588 234
-0.432 0.123 1.511 1.589 236
-0.424 0.124 1.517 1.593 236
-0.414 0.123 1.517 1.591 237
-0.403 0.123 1.509 1.58 242
-0.394 0.122 1.51 1.579 238
-0.388 0.124 1.527 1.594 234
-0.377 0.123 1.518 1.582 232
-0.369 0.123 1.526 1.588 233
-0.359 0.123 1.522 1.582 229
-0.351 0.123 1.529 1.587 231
-0.343 0.123 1.534 1.59 226
-0.334 0.123 1.536 1.591 230
-0.324 0.123 1.531 1.583 228
-0.316 0.123 1.537 1.587 234
-0.306 0.123 1.533 1.581 228
-0.299 0.124 1.549 1.596 233
-0.29 0.124 1.546 1.592 236
-0.278 0.122 1.533 1.576 230
-0.272 0.124 1.551 1.593 238
-0.261 0.123 1.538 1.578 236
-0.253 0.123 1.547 1.586 243
-0.243 0.122 1.538 1.576 202
-0.234 0.122 1.539 1.575 197
-0.222 0.121 1.524 1.558 310
-0.213 0.121 1.518 1.552 384
-0.204 0.121 1.521 1.553 407
-0.194 0.12 1.513 1.544 419
-0.186 0.12 1.517 1.547 438
-0.178 0.121 1.526 1.555 441
-0.168 0.12 1.515 1.543 414
-0.16 0.12 1.52 1.547 435
-0.151 0.12 1.516 1.542 459
-0.142 0.12 1.518 1.543 492
-0.133 0.12 1.521 1.545 482
-0.125 0.121 1.526 1.55 482
-0.116 0.12 1.524 1.547 495
-0.108 0.121 1.531 1.554 473
-0.099 0.121 1.53 1.552 434
-0.091 0.122 1.544 1.565 366
-0.084 0.124 1.575 1.596 268
-0.077 0.127 1.615 1.636 242
-0.067 0.126 1.601 1.622 239
-0.058 0.127 1.613 1.633 239
-0.049 0.127 1.613 1.633 236
-0.04 0.126 1.603 1.623 235
-0.031 0.127 1.617 1.636 236
-0.021 0.127 1.619 1.638 234
-0.012 0.128 1.623 1.642 235
-0.003 0.128 1.621 1.641 237
0.005 0.128 1.625 1.644 233
0.015 0.128 1.621 1.64 232
0.024 0.128 1.625 1.645 234
0.033 0.128 1.627 1.647 233
0.043 0.129 1.639 1.659 233
0.052 0.129 1.633 1.653 230
0.062 0.13 1.65 1.67 232
0.071 0.129 1.641 1.662 236
0.081 0.13 1.654 1.675 232
0.09 0.13 1.646 1.668 234
0.1 0.13 1.649 1.672 229
0.109 0.13 1.646 1.669 233
0.118 0.129 1.64 1.664 226
0.128 0.131 1.656 1.68 229
0.138 0.131 1.656 1.681 225
0.148 0.131 1.656 1.682 225
0.157 0.131 1.66 1.687 223
0.169 0.133 1.678 1.705 228
0.177 0.131 1.664 1.692 233
0.187 0.132 1.667 1.697 231
0.196 0.131 1.66 1.691 233
0.207 0.132 1.669 1.701 236
0.218 0.134 1.686 1.719 241
0.227 0.133 1.673 1.707 260
0.235 0.132 1.663 1.698 252
0.246 0.133 1.673 1.71 217
0.247 0.128 1.616 1.654 280
0.249 0.125 1.567 1.605 394
0.253 0.122 1.532 1.572 455
0.262 0.122 1.533 1.574 473
0.27 0.122 1.531 1.574 476
0.28 0.122 1.532 1.576 463
0.289 0.123 1.533 1.579 467
0.298 0.123 1.531 1.578 468
0.306 0.122 1.525 1.575 470
0.317 0.123 1.533 1.585 460
0.325 0.123 1.53 1.583 446
0.334 0.123 1.528 1.583 396
0.351 0.126 1.563 1.621 242
0.37 0.129 1.604 1.666 159
0.381 0.13 1.61 1.674 154
0.396 0.132 1.63 1.697 152
0.407 0.132 1.632 1.701 150
0.413 0.131 1.616 1.687 148
0.419 0.13 1.603 1.676 148
0.426 0.129 1.589 1.665 145
0.448 0.133 1.634 1.713 142
0.454 0.132 1.62 1.701 144
0.467 0.133 1.63 1.715 141
0.475 0.132 1.621 1.708 139
0.487 0.133 1.628 1.718 140
0.496 0.133 1.623 1.716 141
0.512 0.135 1.641 1.738 136
0.517 0.133 1.623 1.722 138
0.531 0.134 1.633 1.736 135
0.541 0.135 1.632 1.739 137
0.55 0.134 1.626 1.735 135
0.566 0.136 1.641 1.755 128
0.575 0.136 1.636 1.753 130
0.581 0.135 1.624 1.744 127
0.599 0.137 1.642 1.767 123
0.609 0.137 1.64 1.769 121
0.621 0.137 1.642 1.775 128
0.637 0.138 1.653 1.791 124
0.654 0.14 1.667 1.81 123
0.643 0.135 1.61 1.753 125
0.675 0.14 1.662 1.813 121
0.69 0.141 1.671 1.827 127
0.702 0.141 1.672 1.832 121
0.71 0.141 1.663 1.828 120
0.718 0.14 1.653 1.822 120
0.732 0.141 1.659 1.833 119
0.754 0.143 1.68 1.86 115
0.768 0.144 1.684 1.869 115
0.765 0.142 1.65 1.838 117
0.789 0.144 1.676 1.872 109
0.805 0.145 1.683 1.885 112
0.816 0.145 1.68 1.886 116
0.812 0.143 1.647 1.855 115
0.839 0.146 1.676 1.893 115
0.847 0.145 1.665 1.887 112
0.86 0.146 1.666 1.894 111
0.873 0.146 1.666 1.9 115
0.893 0.147 1.677 1.919 109
0.902 0.147 1.67 1.917 109
0.918 0.148 1.676 1.93 106
0.935 0.149 1.682 1.944 106
0.947 0.149 1.679 1.947 112
-0.758 0.128 1.34 1.557 209
-0.745 0.128 1.337 1.548 214
-0.743 0.129 1.354 1.562 215
-0.729 0.128 1.348 1.55 210
-0.728 0.129 1.367 1.566 213
-0.716 0.129 1.363 1.557 218
-0.698 0.127 1.35 1.537 220
-0.692 0.127 1.359 1.542 219
-0.687 0.128 1.371 1.551 218
-0.68 0.128 1.376 1.552 219
-0.671 0.128 1.379 1.551 222
-0.666 0.129 1.391 1.559 221
-0.653 0.128 1.387 1.551 226
-0.644 0.128 1.389 1.549 225
-0.636 0.128 1.393 1.549 226
-0.63 0.129 1.404 1.557 229
-0.627 0.13 1.419 1.569 233
-0.614 0.129 1.414 1.559 239
-0.606 0.129 1.419 1.56 258
-0.592 0.128 1.41 1.547 273
-0.592 0.13 1.434 1.569 280
-0.586 0.131 1.443 1.575 285
-0.572 0.129 1.433 1.561 292
-0.564 0.13 1.439 1.563 286
-0.559 0.13 1.451 1.573 289
-0.548 0.13 1.45 1.568 289
-0.539 0.13 1.451 1.566 295
-0.531 0.13 1.458 1.57 287
-0.516 0.129 1.441 1.549 270
-0.516 0.131 1.469 1.575 264
-0.503 0.13 1.459 1.562 257
-0.494 0.13 1.462 1.561 251
-0.484 0.13 1.462 1.559 245
-0.474 0.129 1.461 1.554 251
-0.47 0.13 1.478 1.569 249
-0.462 0.131 1.482 1.57 245
-0.451 0.13 1.478 1.563 242
-0.441 0.13 1.476 1.559 241
-0.438 0.131 1.497 1.578 241
-0.425 0.13 1.486 1.564 241
-0.416 0.13 1.489 1.565 240
-0.406 0.13 1.487 1.56 241
-0.395 0.129 1.48 1.551 241
-0.389 0.13 1.492 1.56 242
-0.382 0.131 1.503 1.57 241
-0.375 0.131 1.512 1.577 240
-0.366 0.131 1.514 1.576 238
-0.354 0.13 1.499 1.559 236
-0.347 0.131 1.511 1.569 237
-0.338 0.131 1.512 1.569 233
-0.332 0.132 1.526 1.581 234
-0.321 0.131 1.518 1.57 237
-0.314 0.132 1.528 1.579 236
-0.304 0.131 1.522 1.571 234
-0.295 0.131 1.527 1.575 239
-0.285 0.131 1.521 1.566 238
-0.277 0.131 1.525 1.569 240
-0.266 0.13 1.518 1.56 244
-0.257 0.13 1.516 1.556 248
-0.25 0.131 1.529 1.569 246
-0.237 0.128 1.501 1.538 227
-0.229 0.129 1.505 1.541 240
-0.221 0.129 1.515 1.55 297
-0.212 0.129 1.513 1.547 317
-0.203 0.129 1.513 1.546 327
-0.194 0.129 1.51 1.541 329
-0.185 0.129 1.511 1.542 338
-0.176 0.128 1.507 1.536 342
-0.166 0.127 1.496 1.524 339
-0.159 0.128 1.509 1.537 348
-0.151 0.129 1.518 1.545 363
-0.142 0.129 1.516 1.542 379
-0.133 0.129 1.519 1.544 379
-0.125 0.129 1.524 1.548 387
-0.116 0.129 1.525 1.549 397
-0.108 0.13 1.529 1.552 398
-0.099 0.129 1.529 1.551 376
-0.091 0.13 1.538 1.56 329
-0.083 0.132 1.555 1.577 272
-0.075 0.133 1.577 1.599 248
-0.066 0.134 1.586 1.607 241
-0.057 0.133 1.575 1.596 240
-0.048 0.134 1.591 1.612 236
-0.039 0.134 1.585 1.605 239
-0.03 0.135 1.598 1.617 234
-0.021 0.135 1.594 1.614 238
-0.012 0.135 1.594 1.613 235
-0.003 0.135 1.604 1.624 237
0.005 0.135 1.601 1.62 235
0.014 0.136 1.604 1.624 235
0.024 0.136 1.609 1.629 233
0.033 0.135 1.598 1.618 235
0.042 0.136 1.616 1.636 236
0.051 0.136 1.612 1.633 232
0.061 0.138 1.628 1.649 235
0.071 0.139 1.641 1.662 236
0.079 0.136 1.614 1.636 237
0.089 0.138 1.632 1.654 240
0.098 0.138 1.629 1.652 235
0.107 0.137 1.624 1.647 235
0.117 0.138 1.631 1.656 230
0.127 0.138 1.631 1.656 232
0.136 0.138 1.635 1.661 233
0.146 0.139 1.643 1.67 232
0.155 0.139 1.637 1.665 228
0.164 0.138 1.63 1.658 233
0.175 0.14 1.646 1.676 238
0.184 0.139 1.643 1.673 237
0.194 0.14 1.645 1.677 239
0.205 0.141 1.659 1.692 240
0.214 0.141 1.654 1.688 246
0.223 0.14 1.649 1.685 258
0.23 0.139 1.628 1.665 258
0.242 0.14 1.646 1.683 236
0.243 0.135 1.586 1.624 299
0.247 0.133 1.554 1.593 408
0.254 0.132 1.542 1.583 460
0.263 0.132 1.54 1.582 470
0.272 0.132 1.538 1.582 469
0.28 0.132 1.535 1.58 459
0.289 0.131 1.532 1.578 461
0.299 0.132 1.537 1.585 461
0.307 0.132 1.532 1.582 468
0.318 0.132 1.538 1.59 456
0.326 0.132 1.531 1.585 433
0.336 0.133 1.537 1.593 369
0.35 0.135 1.558 1.617 213
0.364 0.136 1.576 1.638 164
0.38 0.139 1.605 1.669 161
0.388 0.138 1.598 1.664 161
0.397 0.138 1.591 1.66 157
0.406 0.138 1.591 1.662 155
0.418 0.139 1.597 1.67 154
0.43 0.14 1.604 1.68 152
0.439 0.14 1.601 1.68 151
0.45 0.14 1.605 1.687 148
0.465 0.142 1.621 1.706 147
0.468 0.14 1.595 1.682 144
0.476 0.139 1.589 1.678 145
0.493 0.142 1.611 1.705 144
0.504 0.142 1.612 1.709 143
0.509 0.141 1.595 1.694 140
0.523 0.142 1.607 1.71 140
0.539 0.144 1.624 1.731 141
0.548 0.144 1.62 1.731 138
0.556 0.143 1.611 1.724 135
0.567 0.143 1.613 1.729 132
0.583 0.145 1.627 1.748 133
0.592 0.145 1.622 1.747 131
0.592 0.142 1.592 1.718 125
0.618 0.146 1.632 1.765 129
0.631 0.147 1.636 1.774 132
0.627 0.144 1.599 1.738 131
0.651 0.147 1.63 1.775 129
0.662 0.147 1.631 1.78 127
0.674 0.148 1.631 1.784 127
0.681 0.147 1.62 1.777 126
0.698 0.149 1.634 1.797 125
0.704 0.148 1.62 1.786 126
0.717 0.148 1.622 1.793 127
0.736 0.15 1.64 1.817 120
0.745 0.15 1.632 1.814 122
0.765 0.152 1.65 1.839 118
0.781 0.153 1.658 1.853 115
0.782 0.151 1.635 1.832 119
0.794 0.152 1.634 1.836 118
0.811 0.153 1.643 1.852 117
0.83 0.154 1.656 1.872 122
0.829 0.152 1.628 1.847 114
0.848 0.154 1.641 1.867 113
0.849 0.152 1.619 1.848 111
0.869 0.154 1.632 1.869 116
0.885 0.155 1.638 1.882 111
0.903 0.156 1.647 1.898 118
0.925 0.158 1.661 1.921 115
0.928 0.157 1.644 1.907 114
-0.758 0.137 1.34 1.557 218
-0.744 0.136 1.334 1.545 224
-0.741 0.137 1.349 1.557 218
-0.724 0.136 1.339 1.54 217
-0.716 0.136 1.343 1.54 220
-0.707 0.136 1.347 1.539 223
-0.696 0.135 1.345 1.532 229
-0.685 0.135 1.344 1.527 223
-0.681 0.136 1.358 1.537 220
-0.668 0.135 1.352 1.526 223
-0.662 0.135 1.36 1.53 229
-0.659 0.136 1.376 1.544 225
-0.646 0.135 1.37 1.533 231
-0.645 0.137 1.39 1.55 226
-0.625 0.135 1.369 1.523 232
-0.623 0.136 1.386 1.538 233
-0.61 0.135 1.38 1.527 234
-0.608 0.137 1.398 1.543 243
-0.6 0.137 1.404 1.546 263
-0.586 0.136 1.395 1.532 278
-0.588 0.138 1.423 1.558 284
-0.576 0.137 1.418 1.549 280
-0.566 0.137 1.418 1.545 287
-0.56 0.137 1.427 1.552 291
-0.55 0.137 1.428 1.549 286
-0.544 0.138 1.439 1.557 287
-0.535 0.138 1.441 1.556 283
-0.525 0.138 1.44 1.551 278
-0.516 0.137 1.442 1.551 273
-0.505 0.137 1.438 1.543 263
-0.498 0.137 1.444 1.547 255
-0.489 0.137 1.448 1.547 252
-0.482 0.138 1.453 1.55 244
-0.473 0.138 1.457 1.551 249
-0.462 0.137 1.45 1.541 247
-0.455 0.137 1.459 1.547 241
-0.448 0.138 1.468 1.554 246
-0.437 0.137 1.461 1.544 240
-0.428 0.137 1.463 1.543 240
-0.423 0.138 1.479 1.558 241
-0.411 0.137 1.471 1.547 247
-0.404 0.138 1.478 1.551 249
-0.397 0.138 1.484 1.556 249
-0.385 0.137 1.477 1.546 246
-0.376 0.137 1.476 1.543 247
-0.367 0.137 1.478 1.543 245
-0.359 0.137 1.48 1.543 244
-0.35 0.137 1.482 1.542 244
-0.341 0.137 1.485 1.543 239
-0.335 0.138 1.497 1.553 239
-0.322 0.136 1.48 1.535 244
-0.316 0.138 1.494 1.547 246
-0.308 0.138 1.499 1.55 240
-0.297 0.137 1.486 1.535 245
-0.29 0.137 1.498 1.545 244
-0.282 0.138 1.501 1.547 247
-0.274 0.138 1.509 1.553 250
-0.264 0.138 1.502 1.545 251
-0.254 0.137 1.496 1.537 255
-0.247 0.138 1.51 1.55 251
-0.237 0.137 1.502 1.541 230
-0.228 0.137 1.499 1.536 251
-0.219 0.137 1.498 1.534 295
-0.21 0.136 1.496 1.53 311
-0.202 0.137 1.505 1.539 324
-0.192 0.136 1.491 1.523 334
-0.184 0.136 1.499 1.53 338
-0.174 0.135 1.491 1.521 333
-0.167 0.136 1.501 1.53 325
-0.157 0.136 1.495 1.523 337
-0.149 0.136 1.498 1.525 349
-0.14 0.135 1.493 1.52 348
-0.133 0.137 1.513 1.539 333
-0.123 0.136 1.504 1.529 334
-0.115 0.136 1.506 1.53 331
-0.106 0.137 1.508 1.532 312
-0.098 0.137 1.515 1.539 309
-0.09 0.137 1.518 1.541 292
-0.082 0.139 1.541 1.564 263
-0.074 0.14 1.549 1.571 250
-0.065 0.139 1.543 1.565 243
-0.056 0.14 1.555 1.576 242
-0.048 0.142 1.569 1.59 240
-0.038 0.141 1.557 1.578 238
-0.03 0.142 1.573 1.593 238
-0.021 0.142 1.568 1.588 239
-0.012 0.141 1.564 1.584 239
-0.003 0.143 1.581 1.601 239
0.005 0.142 1.579 1.599 235
0.014 0.143 1.589 1.61 235
0.023 0.143 1.581 1.602 234
0.032 0.142 1.571 1.592 235
0.041 0.143 1.582 1.603 232
0.051 0.144 1.592 1.613 236
0.06 0.144 1.594 1.615 235
0.069 0.143 1.587 1.609 239
0.078 0.144 1.599 1.622 240
0.088 0.145 1.608 1.631 238
0.098 0.146 1.614 1.637 241
0.106 0.145 1.604 1.628 236
0.116 0.145 1.609 1.633 236
0.125 0.145 1.608 1.633 236
0.134 0.145 1.602 1.628 234
0.144 0.146 1.617 1.644 238
0.153 0.146 1.613 1.641 235
0.163 0.147 1.62 1.649 237
0.172 0.146 1.614 1.644 239
0.182 0.147 1.622 1.653 238
0.192 0.148 1.629 1.661 241
0.2 0.147 1.617 1.65 245
0.21 0.147 1.617 1.652 250
0.22 0.147 1.621 1.657 257
0.229 0.148 1.621 1.658 262
0.237 0.147 1.611 1.649 259
0.241 0.143 1.573 1.612 325
0.248 0.142 1.557 1.598 420
0.254 0.14 1.538 1.579 469
0.262 0.14 1.536 1.578 470
0.272 0.141 1.538 1.582 462
0.28 0.141 1.535 1.581 447
0.289 0.14 1.531 1.578 405
0.298 0.14 1.528 1.577 428
0.307 0.141 1.532 1.582 457
0.317 0.141 1.533 1.586 455
0.326 0.141 1.535 1.589 432
0.335 0.141 1.531 1.587 343
0.349 0.143 1.552 1.611 190
0.364 0.146 1.577 1.639 170
0.375 0.146 1.583 1.648 164
0.383 0.146 1.574 1.64 163
0.395 0.147 1.583 1.652 161
0.403 0.146 1.577 1.648 161
0.411 0.146 1.569 1.642 158
0.424 0.147 1.583 1.659 158
0.437 0.149 1.595 1.675 158
0.449 0.149 1.601 1.683 155
0.456 0.149 1.59 1.675 151
0.467 0.149 1.592 1.68 151
0.478 0.15 1.596 1.687 151
0.483 0.148 1.576 1.669 150
0.501 0.151 1.605 1.702 148
0.504 0.149 1.578 1.677 145
0.522 0.151 1.603 1.706 144
0.525 0.15 1.582 1.687 145
0.543 0.152 1.603 1.713 144
0.553 0.152 1.602 1.716 138
0.561 0.151 1.593 1.71 140
0.574 0.153 1.602 1.723 138
0.585 0.153 1.6 1.724 134
0.591 0.152 1.589 1.716 132
0.605 0.153 1.596 1.728 134
0.615 0.153 1.596 1.731 136
0.632 0.155 1.609 1.75 136
0.634 0.153 1.587 1.73 131
0.65 0.155 1.6 1.748 133
0.667 0.156 1.613 1.766 131
0.688 0.159 1.636 1.796 128
0.688 0.156 1.608 1.77 126
0.702 0.157 1.614 1.781 132
0.709 0.157 1.605 1.776 130
0.724 0.158 1.612 1.788 127
0.729 0.157 1.598 1.777 124
0.736 0.156 1.586 1.769 127
0.761 0.159 1.615 1.806 126
0.778 0.161 1.625 1.822 124
0.779 0.159 1.602 1.802 124
0.805 0.162 1.631 1.839 121
0.81 0.161 1.615 1.827 125
0.824 0.162 1.617 1.835 122
0.824 0.16 1.593 1.814 119
0.841 0.161 1.603 1.831 121
0.857 0.162 1.608 1.842 118
0.87 0.163 1.608 1.849 117
0.881 0.163 1.606 1.852 119
0.922 0.169 1.657 1.917 117
0.918 0.166 1.625 1.887 115
-0.735 0.141 1.299 1.51 228
-0.735 0.143 1.318 1.527 228
-0.729 0.144 1.327 1.533 228
-0.719 0.143 1.328 1.529 228
-0.715 0.144 1.34 1.537 228
-0.697 0.142 1.327 1.518 229
-0.696 0.144 1.345 1.533 224
-0.689 0.144 1.351 1.535 231
-0.671 0.142 1.336 1.514 227
-0.666 0.143 1.348 1.522 233
-0.659 0.143 1.353 1.523 235
-0.649 0.143 1.354 1.52 231
-0.639 0.142 1.354 1.516 235
-0.638 0.144 1.374 1.534 238
-0.619 0.142 1.355 1.508 238
-0.611 0.142 1.359 1.509 240
-0.605 0.142 1.367 1.514 243
-0.597 0.143 1.373 1.517 249
-0.595 0.144 1.39 1.531 266
-0.583 0.143 1.387 1.523 277
-0.58 0.145 1.404 1.538 284
-0.567 0.144 1.396 1.526 287
-0.564 0.145 1.412 1.54 290
-0.556 0.145 1.416 1.541 297
-0.545 0.145 1.414 1.535 293
-0.538 0.145 1.422 1.54 291
-0.524 0.144 1.41 1.523 288
-0.516 0.144 1.415 1.526 286
-0.507 0.144 1.415 1.522 277
-0.505 0.145 1.437 1.543 264
-0.493 0.144 1.428 1.531 257
-0.484 0.144 1.43 1.53 255
-0.473 0.144 1.426 1.522 248
-0.465 0.144 1.431 1.525 246
-0.458 0.144 1.438 1.529 248
-0.45 0.145 1.443 1.532 249
-0.438 0.143 1.434 1.52 247
-0.434 0.145 1.452 1.536 248
-0.424 0.145 1.45 1.531 250
-0.418 0.145 1.459 1.538 248
-0.409 0.145 1.46 1.536 247
-0.397 0.144 1.452 1.525 250
-0.389 0.144 1.454 1.526 253
-0.381 0.145 1.46 1.529 254
-0.373 0.145 1.462 1.529 253
-0.363 0.144 1.459 1.524 253
-0.352 0.143 1.45 1.512 250
-0.345 0.144 1.462 1.522 250
-0.339 0.145 1.474 1.533 249
-0.328 0.144 1.462 1.519 249
-0.322 0.145 1.477 1.532 247
-0.31 0.144 1.464 1.517 245
-0.304 0.145 1.479 1.531 246
-0.295 0.144 1.476 1.526 247
-0.289 0.146 1.491 1.539 250
-0.278 0.144 1.479 1.526 251
-0.271 0.145 1.489 1.534 255
-0.261 0.145 1.487 1.531 257
-0.251 0.144 1.477 1.519 260
-0.244 0.145 1.488 1.528 248
-0.236 0.145 1.493 1.532 211
-0.225 0.144 1.481 1.519 255
-0.218 0.144 1.489 1.526 291
-0.209 0.145 1.491 1.526 309
-0.2 0.144 1.487 1.521 327
-0.192 0.145 1.496 1.529 334
-0.183 0.144 1.489 1.521 335
-0.175 0.144 1.494 1.524 325
-0.166 0.144 1.494 1.524 321
-0.157 0.144 1.491 1.52 339
-0.148 0.143 1.484 1.512 346
-0.141 0.145 1.5 1.527 350
-0.132 0.145 1.502 1.529 332
-0.123 0.145 1.499 1.525 341
-0.115 0.145 1.5 1.525 343
-0.106 0.145 1.504 1.528 320
-0.098 0.145 1.508 1.532 300
-0.089 0.145 1.507 1.53 284
-0.081 0.147 1.523 1.546 260
-0.073 0.147 1.532 1.554 251
-0.064 0.147 1.533 1.556 246
-0.055 0.147 1.534 1.556 241
-0.047 0.149 1.549 1.57 241
-0.038 0.149 1.546 1.567 242
-0.029 0.149 1.546 1.568 240
-0.021 0.149 1.548 1.569 240
-0.012 0.15 1.56 1.581 242
-0.003 0.149 1.551 1.572 241
0.005 0.15 1.56 1.581 238
0.014 0.15 1.558 1.579 238
0.023 0.151 1.567 1.589 235
0.032 0.15 1.564 1.585 235
0.041 0.151 1.572 1.593 235
0.05 0.151 1.571 1.593 237
0.059 0.152 1.581 1.603 238
0.068 0.152 1.577 1.6 240
0.077 0.151 1.575 1.599 238
0.087 0.152 1.585 1.609 239
0.095 0.151 1.571 1.595 240
0.105 0.153 1.589 1.614 239
0.114 0.153 1.589 1.615 238
0.124 0.153 1.591 1.617 239
0.132 0.153 1.584 1.611 239
0.142 0.153 1.588 1.615 243
0.15 0.152 1.579 1.607 239
0.16 0.153 1.586 1.615 243
0.17 0.154 1.594 1.624 249
0.179 0.154 1.596 1.627 244
0.189 0.154 1.599 1.632 245
0.198 0.155 1.6 1.634 248
0.206 0.154 1.591 1.626 253
0.216 0.154 1.591 1.627 266
0.226 0.155 1.598 1.635 266
0.234 0.154 1.588 1.627 275
0.239 0.151 1.558 1.598 344
0.245 0.15 1.542 1.582 433
0.253 0.149 1.536 1.578 470
0.262 0.149 1.535 1.579 461
0.271 0.149 1.533 1.579 457
0.28 0.149 1.533 1.58 433
0.29 0.15 1.538 1.587 383
0.298 0.149 1.53 1.58 410
0.307 0.149 1.527 1.579 453
0.318 0.15 1.536 1.589 441
0.326 0.15 1.531 1.587 420
0.334 0.15 1.527 1.584 312
0.349 0.152 1.551 1.611 183
0.361 0.154 1.563 1.626 170
0.37 0.153 1.559 1.623 168
0.382 0.154 1.568 1.635 166
0.392 0.155 1.572 1.641 168
0.399 0.154 1.559 1.631 164
0.411 0.155 1.568 1.643 163
0.419 0.155 1.563 1.64 160
0.43 0.155 1.565 1.645 160
0.438 0.155 1.56 1.641 160
0.45 0.156 1.568 1.652 155
0.459 0.156 1.564 1.652 156
0.468 0.156 1.561 1.651 159
0.478 0.156 1.56 1.653 156
0.487 0.156 1.556 1.652 152
0.503 0.158 1.577 1.677 151
0.51 0.157 1.566 1.669 152
0.528 0.16 1.591 1.698 150
0.534 0.159 1.575 1.685 148
0.546 0.16 1.581 1.694 145
0.547 0.157 1.552 1.667 145
0.571 0.161 1.591 1.711 141
0.574 0.159 1.569 1.692 139
0.586 0.16 1.575 1.702 140
0.603 0.162 1.59 1.722 140
0.606 0.16 1.571 1.705 139
0.618 0.161 1.574 1.712 139
0.634 0.163 1.587 1.73 137
0.641 0.162 1.576 1.723 137
0.66 0.164 1.595 1.748 134
0.669 0.164 1.591 1.747 137
0.69 0.167 1.613 1.776 137
0.695 0.166 1.598 1.765 137
0.704 0.166 1.592 1.762 133
0.716 0.166 1.592 1.767 131
0.724 0.166 1.585 1.764 129
0.739 0.167 1.592 1.777 131
0.759 0.169 1.609 1.801 127
0.758 0.167 1.582 1.775 130
0.78 0.169 1.603 1.804 128
0.787 0.169 1.593 1.798 127
0.799 0.169 1.591 1.802 126
0.813 0.17 1.596 1.813 124
0.829 0.171 1.602 1.825 127
0.838 0.171 1.596 1.825 124
0.863 0.174 1.62 1.857 122
0.856 0.17 1.583 1.821 119
0.886 0.174 1.613 1.862 117
0.891 0.173 1.6 1.853 122
0.895 0.172 1.583 1.84 125
-0.741 0.151 1.309 1.523 228
-0.728 0.15 1.304 1.512 232
-0.718 0.15 1.305 1.509 232
-0.709 0.15 1.308 1.507 234
-0.695 0.149 1.302 1.495 232
-0.693 0.15 1.317 1.507 233
-0.684 0.15 1.319 1.505 236
-0.676 0.15 1.325 1.507 242
-0.67 0.15 1.334 1.513 237
-0.66 0.15 1.335 1.509 237
-0.647 0.149 1.328 1.497 240
-0.636 0.148 1.326 1.491 238
-0.635 0.15 1.345 1.507 239
-0.624 0.15 1.344 1.501 243
-0.616 0.15 1.348 1.502 242
-0.608 0.15 1.352 1.503 242
-0.595 0.149 1.344 1.49 243
-0.591 0.15 1.357 1.5 250
-0.585 0.15 1.366 1.506 262
-0.581 0.152 1.382 1.519 278
-0.574 0.152 1.388 1.523 284
-0.569 0.153 1.399 1.53 287
-0.555 0.151 1.39 1.517 293
-0.548 0.152 1.395 1.519 293
-0.541 0.152 1.403 1.524 291
-0.532 0.152 1.405 1.522 293
-0.524 0.152 1.408 1.522 297
-0.51 0.15 1.395 1.505 286
-0.502 0.151 1.399 1.506 279
-0.496 0.151 1.409 1.515 266
-0.483 0.15 1.401 1.502 259
-0.475 0.15 1.402 1.501 259
-0.466 0.15 1.405 1.501 253
-0.462 0.151 1.42 1.514 252
-0.453 0.151 1.423 1.514 253
-0.442 0.15 1.416 1.504 252
-0.433 0.15 1.417 1.503 257
-0.426 0.151 1.424 1.507 255
-0.418 0.151 1.429 1.509 255
-0.408 0.151 1.426 1.504 255
-0.4 0.151 1.429 1.504 252
-0.395 0.152 1.442 1.516 256
-0.385 0.151 1.441 1.512 256
-0.378 0.152 1.446 1.516 252
-0.368 0.151 1.445 1.512 258
-0.36 0.152 1.449 1.514 254
-0.35 0.151 1.441 1.504 256
-0.342 0.151 1.447 1.508 253
-0.336 0.152 1.459 1.518 253
-0.326 0.151 1.453 1.51 254
-0.317 0.151 1.453 1.508 258
-0.309 0.152 1.458 1.512 254
-0.299 0.151 1.452 1.504 254
-0.291 0.151 1.458 1.508 253
-0.284 0.152 1.465 1.513 255
-0.274 0.151 1.457 1.503 257
-0.267 0.152 1.469 1.514 260
-0.258 0.151 1.465 1.509 264
-0.249 0.151 1.466 1.509 259
-0.241 0.152 1.471 1.512 236
-0.233 0.152 1.473 1.513 220
-0.223 0.151 1.467 1.505 266
-0.216 0.152 1.479 1.517 290
-0.206 0.151 1.47 1.506 304
-0.199 0.152 1.481 1.516 323
-0.189 0.151 1.472 1.505 332
-0.182 0.152 1.478 1.511 323
-0.174 0.152 1.485 1.517 317
-0.165 0.152 1.481 1.512 313
-0.156 0.152 1.483 1.512 321
-0.147 0.151 1.479 1.508 329
-0.14 0.153 1.492 1.52 334
-0.132 0.153 1.496 1.523 315
-0.122 0.152 1.484 1.51 321
-0.113 0.152 1.485 1.511 328
-0.105 0.152 1.487 1.512 309
-0.097 0.153 1.497 1.521 285
-0.089 0.153 1.499 1.523 281
-0.08 0.153 1.497 1.521 257
-0.071 0.153 1.499 1.522 250
-0.063 0.154 1.514 1.537 244
-0.055 0.155 1.518 1.541 244
-0.046 0.155 1.518 1.541 243
-0.037 0.154 1.511 1.534 240
-0.029 0.154 1.514 1.536 245
-0.02 0.155 1.525 1.547 239
-0.012 0.157 1.541 1.563 242
-0.003 0.155 1.526 1.548 242
0.005 0.155 1.521 1.543 238
0.014 0.156 1.535 1.557 239
0.023 0.158 1.547 1.569 239
0.032 0.158 1.549 1.571 241
0.04 0.157 1.546 1.568 235
0.049 0.158 1.552 1.575 237
0.058 0.158 1.549 1.572 239
0.067 0.157 1.544 1.568 240
0.076 0.157 1.543 1.566 240
0.085 0.158 1.554 1.578 238
0.094 0.159 1.554 1.579 240
0.103 0.159 1.557 1.583 245
0.111 0.158 1.55 1.576 240
0.121 0.159 1.559 1.586 237
0.13 0.16 1.563 1.59 244
0.14 0.16 1.567 1.596 245
0.148 0.16 1.562 1.591 242
0.159 0.162 1.582 1.613 241
0.167 0.16 1.565 1.596 248
0.176 0.16 1.563 1.595 249
0.187 0.162 1.583 1.616 248
0.195 0.162 1.576 1.61 248
0.204 0.161 1.568 1.604 251
0.213 0.161 1.568 1.605 259
0.222 0.161 1.567 1.605 268
0.231 0.161 1.564 1.604 286
0.239 0.16 1.559 1.599 320
0.246 0.159 1.546 1.588 381
0.254 0.158 1.537 1.58 418
0.263 0.159 1.538 1.583 424
0.27 0.158 1.527 1.573 427
0.279 0.158 1.527 1.574 401
0.29 0.159 1.537 1.587 364
0.298 0.159 1.532 1.583 409
0.308 0.159 1.535 1.588 437
0.316 0.158 1.526 1.58 434
0.325 0.159 1.527 1.583 388
0.337 0.16 1.538 1.596 262
0.346 0.16 1.535 1.596 184
0.356 0.161 1.54 1.603 180
0.365 0.16 1.536 1.601 180
0.374 0.161 1.537 1.604 175
0.385 0.161 1.541 1.61 170
0.395 0.162 1.542 1.614 171
0.4 0.16 1.528 1.602 167
0.415 0.162 1.545 1.622 166
0.422 0.162 1.536 1.615 166
0.432 0.162 1.538 1.62 163
0.444 0.163 1.545 1.629 161
0.449 0.162 1.53 1.617 164
0.467 0.165 1.558 1.649 161
0.476 0.164 1.552 1.645 161
0.485 0.164 1.549 1.645 163
0.496 0.165 1.553 1.652 160
0.509 0.166 1.562 1.665 157
0.509 0.163 1.532 1.637 157
0.528 0.166 1.558 1.667 155
0.544 0.169 1.574 1.688 152
0.548 0.167 1.557 1.673 151
0.556 0.167 1.55 1.669 152
0.566 0.167 1.548 1.67 146
0.579 0.168 1.554 1.681 148
0.592 0.169 1.561 1.692 145
0.593 0.166 1.536 1.668 144
0.609 0.168 1.549 1.686 144
0.623 0.169 1.557 1.699 142
0.636 0.17 1.562 1.709 147
0.646 0.171 1.562 1.712 141
0.652 0.17 1.549 1.703 143
0.678 0.174 1.584 1.745 144
0.69 0.174 1.585 1.751 138
0.693 0.173 1.566 1.734 137
0.699 0.172 1.553 1.725 133
0.718 0.174 1.571 1.75 137
0.727 0.174 1.565 1.748 134
0.741 0.175 1.569 1.758 137
0.751 0.175 1.567 1.76 133
0.774 0.178 1.59 1.791 134
0.78 0.177 1.577 1.782 130
0.788 0.177 1.569 1.778 133
0.811 0.179 1.59 1.807 129
0.827 0.181 1.598 1.822 126
0.836 0.18 1.59 1.819 127
0.844 0.18 1.583 1.816 127
0.851 0.179 1.572 1.81 128
0.86 0.179 1.564 1.807 125
0.892 0.184 1.6 1.854 128
0.892 0.182 1.577 1.834 126
-0.73 0.157 1.287 1.499 235
-0.722 0.157 1.292 1.499 241
-0.721 0.159 1.309 1.514 237
-0.704 0.157 1.298 1.497 235
-0.695 0.157 1.301 1.495 240
-0.686 0.157 1.303 1.492 242
-0.671 0.155 1.294 1.478 241
-0.667 0.156 1.306 1.486 242
-0.657 0.156 1.307 1.483 242
-0.647 0.155 1.306 1.477 244
-0.642 0.156 1.316 1.484 248
-0.635 0.156 1.323 1.488 248
-0.627 0.157 1.327 1.488 245
-0.611 0.155 1.314 1.469 248
-0.613 0.157 1.34 1.494 249
-0.596 0.155 1.323 1.472 252
-0.591 0.156 1.334 1.48 252
-0.585 0.157 1.344 1.487 257
-0.579 0.157 1.351 1.49 266
-0.573 0.158 1.362 1.498 278
-0.564 0.158 1.362 1.495 286
-0.557 0.158 1.368 1.498 292
-0.55 0.158 1.375 1.502 289
-0.541 0.158 1.377 1.501 295
-0.532 0.158 1.378 1.498 288
-0.527 0.159 1.39 1.507 293
-0.52 0.16 1.397 1.512 300
-0.506 0.158 1.384 1.494 291
-0.502 0.159 1.399 1.508 285
-0.49 0.158 1.393 1.497 272
-0.481 0.158 1.394 1.496 263
-0.47 0.157 1.387 1.486 268
-0.463 0.157 1.393 1.489 256
-0.456 0.158 1.402 1.496 257
-0.446 0.157 1.398 1.488 256
-0.439 0.158 1.406 1.494 258
-0.428 0.157 1.399 1.484 258
-0.423 0.158 1.413 1.496 254
-0.413 0.157 1.408 1.489 257
-0.402 0.157 1.402 1.48 260
-0.396 0.157 1.412 1.488 257
-0.389 0.158 1.418 1.492 256
-0.38 0.158 1.421 1.492 257
-0.374 0.159 1.429 1.499 255
-0.363 0.157 1.421 1.488 256
-0.353 0.157 1.417 1.481 256
-0.345 0.157 1.422 1.485 257
-0.339 0.158 1.432 1.493 255
-0.328 0.157 1.425 1.484 259
-0.322 0.158 1.435 1.492 260
-0.314 0.158 1.439 1.494 257
-0.305 0.158 1.44 1.494 259
-0.296 0.158 1.437 1.489 257
-0.287 0.158 1.437 1.487 259
-0.279 0.157 1.436 1.484 260
-0.271 0.158 1.444 1.491 259
-0.262 0.158 1.442 1.488 261
-0.255 0.158 1.447 1.491 263
-0.247 0.159 1.455 1.498 262
-0.238 0.158 1.453 1.494 206
-0.23 0.159 1.457 1.497 219
-0.222 0.158 1.455 1.494 272
-0.213 0.158 1.457 1.495 290
-0.205 0.159 1.459 1.496 305
-0.196 0.158 1.458 1.493 322
-0.189 0.159 1.467 1.501 324
-0.179 0.158 1.456 1.489 326
-0.172 0.159 1.468 1.5 318
-0.164 0.16 1.474 1.505 316
-0.154 0.158 1.462 1.492 318
-0.147 0.159 1.473 1.503 329
-0.137 0.158 1.464 1.493 327
-0.13 0.16 1.477 1.506 318
-0.121 0.159 1.468 1.495 313
-0.112 0.159 1.47 1.497 315
-0.105 0.16 1.484 1.51 309
-0.096 0.159 1.476 1.501 280
-0.087 0.159 1.473 1.498 277
-0.079 0.16 1.486 1.511 263
-0.072 0.162 1.501 1.525 251
-0.063 0.161 1.497 1.521 252
-0.055 0.163 1.509 1.533 248
-0.046 0.163 1.512 1.536 244
-0.037 0.162 1.5 1.523 241
-0.029 0.162 1.504 1.527 243
-0.02 0.163 1.511 1.534 241
-0.011 0.163 1.511 1.534 239
-0.003 0.163 1.513 1.536 238
0.005 0.162 1.504 1.527 236
0.014 0.164 1.519 1.542 237
0.022 0.164 1.519 1.542 237
0.031 0.163 1.517 1.54 235
0.04 0.164 1.52 1.544 236
0.049 0.165 1.531 1.555 236
0.057 0.164 1.524 1.548 238
0.066 0.165 1.535 1.56 240
0.075 0.165 1.529 1.554 238
0.084 0.166 1.54 1.565 242
0.092 0.165 1.528 1.554 239
0.102 0.165 1.533 1.56 245
0.111 0.167 1.546 1.573 243
0.12 0.167 1.543 1.571 242
0.128 0.165 1.529 1.557 244
0.138 0.167 1.542 1.571 243
0.147 0.167 1.545 1.575 242
0.156 0.167 1.548 1.579 247
0.166 0.168 1.555 1.587 245
0.175 0.169 1.558 1.591 247
0.184 0.168 1.553 1.587 249
0.193 0.169 1.559 1.594 250
0.202 0.168 1.554 1.59 249
0.21 0.168 1.55 1.587 259
0.218 0.167 1.54 1.578 263
0.227 0.167 1.539 1.579 282
0.235 0.167 1.532 1.573 302
0.245 0.167 1.538 1.581 311
0.252 0.166 1.528 1.572 326
0.263 0.167 1.536 1.581 332
0.269 0.166 1.52 1.567 334
0.28 0.167 1.53 1.578 324
0.287 0.166 1.517 1.567 309
0.297 0.167 1.525 1.577 334
0.307 0.167 1.527 1.581 355
0.317 0.168 1.53 1.585 337
0.322 0.166 1.51 1.567 298
0.331 0.166 1.512 1.571 232
0.342 0.167 1.517 1.578 195
0.353 0.168 1.528 1.591 189
0.359 0.167 1.513 1.579 184
0.37 0.168 1.521 1.588 185
0.383 0.17 1.533 1.603 180
0.391 0.169 1.526 1.598 181
0.402 0.17 1.531 1.606 174
0.408 0.169 1.521 1.598 171
0.422 0.171 1.535 1.615 169
0.427 0.169 1.518 1.6 167
0.441 0.171 1.535 1.62 169
0.449 0.17 1.527 1.614 169
0.456 0.17 1.52 1.61 169
0.471 0.172 1.536 1.63 164
0.475 0.17 1.517 1.612 167
0.49 0.172 1.534 1.633 161
0.499 0.172 1.53 1.633 163
0.508 0.172 1.527 1.632 161
0.525 0.175 1.547 1.656 162
0.536 0.175 1.55 1.663 163
0.538 0.173 1.527 1.643 159
0.551 0.174 1.534 1.653 157
0.559 0.174 1.529 1.651 151
0.57 0.174 1.528 1.654 153
0.586 0.176 1.543 1.674 149
0.599 0.178 1.551 1.686 148
0.605 0.177 1.54 1.677 151
0.62 0.178 1.548 1.691 153
0.629 0.178 1.544 1.69 152
0.641 0.179 1.548 1.698 149
0.652 0.179 1.549 1.704 150
0.663 0.18 1.548 1.707 145
0.667 0.178 1.531 1.693 149
0.68 0.179 1.535 1.702 143
0.698 0.181 1.551 1.724 143
0.718 0.184 1.57 1.75 142
0.719 0.182 1.546 1.728 144
0.739 0.184 1.564 1.753 140
0.752 0.185 1.568 1.762 140
0.761 0.185 1.561 1.759 139
0.759 0.182 1.533 1.734 139
0.783 0.185 1.558 1.767 137
0.801 0.187 1.57 1.786 134
0.804 0.186 1.552 1.771 131
0.828 0.189 1.574 1.802 137
0.832 0.188 1.559 1.79 128
0.845 0.188 1.56 1.797 134
0.857 0.189 1.559 1.802 130
0.873 0.19 1.564 1.815 132
0.898 0.193 1.585 1.845 137
-0.726 0.165 1.28 1.492 235
-0.71 0.163 1.269 1.475 238
-0.711 0.165 1.29 1.493 243
-0.702 0.165 1.294 1.493 244
-0.683 0.162 1.277 1.469 246
-0.681 0.164 1.293 1.482 246
-0.672 0.164 1.294 1.479 246
-0.656 0.162 1.284 1.463 247
-0.651 0.163 1.293 1.469 250
-0.647 0.164 1.305 1.478 249
-0.635 0.163 1.301 1.469 248
-0.632 0.164 1.316 1.481 252
-0.624 0.164 1.319 1.48 249
-0.606 0.161 1.301 1.456 253
-0.599 0.162 1.307 1.459 258
-0.591 0.162 1.311 1.459 260
-0.587 0.163 1.325 1.471 253
-0.586 0.165 1.344 1.488 258
-0.575 0.164 1.342 1.482 269
-0.569 0.165 1.35 1.486 283
-0.56 0.165 1.351 1.484 293
-0.553 0.165 1.358 1.488 293
-0.542 0.164 1.353 1.479 296
-0.538 0.166 1.368 1.492 294
-0.528 0.165 1.365 1.486 292
-0.519 0.165 1.369 1.486 296
-0.512 0.165 1.373 1.487 297
-0.501 0.165 1.37 1.481 297
-0.491 0.164 1.367 1.474 284
-0.486 0.165 1.378 1.484 272
-0.473 0.163 1.368 1.469 270
-0.464 0.163 1.369 1.468 266
-0.461 0.165 1.388 1.484 263
-0.449 0.164 1.378 1.471 265
-0.441 0.164 1.381 1.472 265
-0.433 0.164 1.383 1.471 264
-0.424 0.164 1.383 1.469 261
-0.415 0.164 1.385 1.468 260
-0.408 0.164 1.39 1.471 260
-0.401 0.164 1.397 1.475 262
-0.39 0.163 1.389 1.465 259
-0.383 0.164 1.395 1.469 258
-0.374 0.163 1.394 1.466 256
-0.365 0.163 1.394 1.463 261
-0.358 0.164 1.401 1.468 262
-0.35 0.164 1.404 1.47 260
-0.342 0.164 1.406 1.469 263
-0.333 0.164 1.407 1.469 260
-0.327 0.165 1.418 1.478 260
-0.318 0.164 1.417 1.474 260
-0.309 0.164 1.416 1.472 262
-0.3 0.164 1.413 1.467 264
-0.294 0.165 1.427 1.479 262
-0.285 0.164 1.423 1.474 266
-0.276 0.164 1.421 1.471 264
-0.268 0.165 1.427 1.474 265
-0.26 0.164 1.427 1.473 264
-0.251 0.164 1.425 1.47 262
-0.243 0.164 1.429 1.473 257
-0.236 0.165 1.438 1.48 202
-0.228 0.165 1.438 1.479 228
-0.22 0.166 1.445 1.485 267
-0.211 0.165 1.439 1.477 286
-0.203 0.165 1.444 1.481 301
-0.195 0.165 1.445 1.481 314
-0.187 0.166 1.448 1.483 319
-0.178 0.165 1.443 1.477 326
-0.171 0.166 1.457 1.49 317
-0.162 0.166 1.453 1.485 319
-0.154 0.166 1.455 1.486 315
-0.145 0.166 1.452 1.482 321
-0.137 0.166 1.454 1.484 318
-0.129 0.167 1.463 1.491 320
-0.12 0.166 1.457 1.485 313
-0.113 0.168 1.472 1.5 306
-0.103 0.166 1.459 1.486 303
-0.095 0.166 1.459 1.485 277
-0.087 0.167 1.466 1.492 265
-0.079 0.167 1.471 1.497 261
-0.07 0.167 1.471 1.496 258
-0.062 0.168 1.483 1.507 250
-0.053 0.167 1.471 1.496 253
-0.045 0.167 1.473 1.497 250
-0.037 0.167 1.475 1.499 249
-0.028 0.167 1.475 1.498 246
-0.02 0.167 1.473 1.496 246
-0.011 0.167 1.473 1.497 245
-0.003 0.17 1.496 1.519 246
0.005 0.17 1.494 1.517 242
0.013 0.17 1.5 1.523 240
0.022 0.171 1.504 1.528 242
0.03 0.17 1.494 1.518 233
0.039 0.17 1.494 1.518 234
0.048 0.171 1.51 1.534 240
0.056 0.17 1.493 1.517 244
0.065 0.171 1.504 1.529 240
0.074 0.171 1.506 1.531 239
0.082 0.171 1.501 1.526 244
0.092 0.173 1.52 1.547 244
0.1 0.172 1.51 1.537 242
0.109 0.172 1.511 1.539 246
0.118 0.172 1.512 1.54 241
0.127 0.173 1.519 1.548 248
0.136 0.173 1.519 1.549 244
0.144 0.173 1.518 1.549 242
0.154 0.174 1.53 1.561 248
0.163 0.174 1.529 1.561 247
0.171 0.174 1.523 1.557 251
0.181 0.174 1.527 1.562 248
0.191 0.176 1.538 1.574 250
0.199 0.175 1.533 1.57 251
0.209 0.176 1.539 1.577 255
0.217 0.175 1.531 1.57 260
0.226 0.175 1.532 1.572 276
0.232 0.174 1.515 1.557 296
0.241 0.174 1.513 1.556 313
0.252 0.175 1.525 1.57 318
0.26 0.174 1.518 1.564 317
0.269 0.175 1.52 1.568 318
0.276 0.174 1.508 1.557 318
0.287 0.175 1.519 1.57 309
0.295 0.175 1.514 1.566 315
0.305 0.175 1.517 1.572 314
0.313 0.175 1.511 1.567 298
0.322 0.175 1.51 1.568 276
0.332 0.175 1.513 1.573 244
0.338 0.174 1.499 1.56 217
0.347 0.174 1.5 1.563 209
0.358 0.175 1.507 1.573 198
0.367 0.175 1.505 1.573 194
0.378 0.176 1.511 1.581 192
0.385 0.175 1.503 1.575 188
0.395 0.176 1.504 1.579 182
0.406 0.177 1.511 1.588 178
0.41 0.175 1.492 1.571 183
0.424 0.177 1.507 1.59 176
0.432 0.177 1.503 1.588 178
0.443 0.177 1.506 1.594 178
0.453 0.178 1.507 1.598 174
0.462 0.178 1.507 1.601 171
0.473 0.179 1.511 1.607 173
0.484 0.179 1.513 1.612 167
0.494 0.18 1.513 1.615 171
0.501 0.179 1.504 1.609 169
0.513 0.18 1.511 1.619 169
0.518 0.178 1.495 1.606 167
0.535 0.181 1.516 1.632 166
0.544 0.181 1.514 1.633 164
0.554 0.182 1.514 1.636 164
0.571 0.184 1.531 1.658 165
0.573 0.182 1.509 1.638 159
0.583 0.182 1.507 1.639 161
0.602 0.185 1.529 1.667 155
0.612 0.185 1.528 1.67 158
0.617 0.184 1.514 1.658 160
0.633 0.186 1.527 1.677 157
0.641 0.185 1.519 1.673 159
0.651 0.186 1.519 1.676 155
0.668 0.188 1.533 1.696 152
0.681 0.189 1.536 1.705 151
0.696 0.19 1.546 1.719 147
0.709 0.191 1.549 1.728 147
0.72 0.192 1.548 1.732 146
0.737 0.194 1.56 1.75 145
0.745 0.193 1.552 1.746 145
0.751 0.192 1.541 1.738 145
0.751 0.19 1.517 1.717 148
0.767 0.191 1.525 1.731 140
0.781 0.192 1.53 1.742 140
0.787 0.191 1.518 1.734 142
0.811 0.195 1.542 1.766 139
0.82 0.195 1.535 1.765 136
0.836 0.196 1.542 1.779 140
0.845 0.196 1.535 1.776 137
0.856 0.196 1.532 1.779 137
0.869 0.197 1.534 1.787 136
-0.72 0.172 1.267 1.479 243
-0.707 0.17 1.264 1.47 239
-0.694 0.169 1.259 1.459 246
-0.689 0.17 1.268 1.464 247
-0.677 0.169 1.264 1.455 250
-0.671 0.17 1.273 1.46 252
-0.659 0.169 1.269 1.451 253
-0.649 0.168 1.269 1.448 251
-0.637 0.167 1.265 1.438 253
-0.632 0.168 1.274 1.444 253
-0.628 0.169 1.286 1.453 255
-0.625 0.171 1.301 1.465 253
-0.605 0.167 1.278 1.436 260
-0.601 0.168 1.291 1.446 257
-0.595 0.169 1.299 1.451 261
-0.586 0.169 1.3 1.448 261
-0.579 0.169 1.306 1.451 264
-0.569 0.168 1.303 1.444 263
-0.569 0.171 1.326 1.466 269
-0.56 0.17 1.326 1.462 284
-0.553 0.171 1.334 1.466 289
-0.546 0.172 1.34 1.47 296
-0.537 0.171 1.341 1.467 296
-0.53 0.171 1.346 1.469 297
-0.522 0.172 1.35 1.47 288
-0.514 0.172 1.353 1.47 297
-0.506 0.172 1.357 1.471 301
-0.494 0.17 1.349 1.459 302
-0.489 0.172 1.362 1.47 287
-0.474 0.169 1.343 1.447 283
-0.466 0.169 1.346 1.447 271
-0.46 0.17 1.357 1.456 271
-0.457 0.172 1.373 1.47 267
-0.444 0.17 1.36 1.454 265
-0.434 0.169 1.358 1.448 267
-0.426 0.17 1.362 1.45 264
-0.421 0.171 1.375 1.461 261
-0.409 0.169 1.364 1.447 260
-0.402 0.17 1.369 1.45 266
-0.397 0.171 1.381 1.46 262
-0.383 0.169 1.365 1.441 261
-0.378 0.17 1.377 1.451 260
-0.368 0.169 1.373 1.445 264
-0.364 0.171 1.391 1.461 260
-0.353 0.17 1.381 1.449 266
-0.345 0.17 1.384 1.45 265
-0.34 0.171 1.399 1.464 267
-0.33 0.17 1.393 1.455 261
-0.32 0.17 1.389 1.448 263
-0.313 0.17 1.395 1.453 261
-0.306 0.171 1.401 1.457 263
-0.297 0.17 1.396 1.45 265
-0.289 0.171 1.402 1.455 261
-0.283 0.171 1.411 1.463 262
-0.271 0.169 1.396 1.445 267
-0.268 0.172 1.421 1.47 268
-0.258 0.172 1.416 1.463 263
-0.248 0.17 1.405 1.45 267
-0.241 0.171 1.417 1.461 242
-0.235 0.173 1.429 1.472 202
-0.225 0.171 1.42 1.461 252
-0.216 0.171 1.416 1.457 271
-0.208 0.171 1.417 1.456 288
-0.2 0.171 1.419 1.457 300
-0.192 0.171 1.424 1.461 309
-0.185 0.172 1.432 1.467 318
-0.177 0.173 1.437 1.472 319
-0.168 0.172 1.435 1.469 321
-0.16 0.172 1.433 1.465 318
-0.152 0.172 1.436 1.468 315
-0.144 0.173 1.443 1.474 313
-0.136 0.173 1.444 1.475 320
-0.128 0.174 1.449 1.479 320
-0.119 0.173 1.444 1.473 307
-0.111 0.173 1.448 1.476 306
-0.103 0.173 1.448 1.476 303
-0.094 0.173 1.446 1.474 282
-0.086 0.173 1.451 1.478 267
-0.077 0.173 1.447 1.473 266
-0.07 0.175 1.461 1.486 262
-0.061 0.174 1.453 1.478 255
-0.053 0.173 1.449 1.474 253
-0.045 0.174 1.461 1.486 252
-0.036 0.175 1.463 1.488 249
-0.028 0.175 1.466 1.491 248
-0.02 0.175 1.463 1.488 247
-0.011 0.176 1.471 1.495 245
-0.003 0.175 1.464 1.488 252
0.005 0.175 1.468 1.492 247
0.013 0.175 1.467 1.491 248
0.022 0.176 1.477 1.502 241
0.03 0.175 1.469 1.493 241
0.039 0.177 1.481 1.506 241
0.047 0.177 1.485 1.51 242
0.056 0.178 1.495 1.52 244
0.064 0.178 1.487 1.513 245
0.073 0.178 1.492 1.518 241
0.082 0.178 1.49 1.517 247
0.09 0.178 1.492 1.519 246
0.099 0.179 1.496 1.524 244
0.108 0.179 1.496 1.524 246
0.117 0.18 1.502 1.531 242
0.125 0.179 1.494 1.524 244
0.134 0.18 1.501 1.532 247
0.144 0.181 1.511 1.543 245
0.152 0.181 1.507 1.54 247
0.161 0.181 1.509 1.542 246
0.168 0.179 1.496 1.53 245
0.179 0.181 1.509 1.544 247
0.187 0.181 1.504 1.54 251
0.197 0.182 1.513 1.55 253
0.205 0.181 1.509 1.547 253
0.214 0.182 1.51 1.55 259
0.223 0.182 1.511 1.552 272
0.229 0.18 1.491 1.533 288
0.24 0.181 1.503 1.547 304
0.249 0.182 1.505 1.55 308
0.258 0.182 1.503 1.55 307
0.267 0.182 1.505 1.553 312
0.277 0.183 1.512 1.562 314
0.284 0.182 1.502 1.553 312
0.292 0.181 1.496 1.549 311
0.301 0.182 1.498 1.552 303
0.311 0.182 1.498 1.555 300
0.318 0.181 1.491 1.549 282
0.328 0.182 1.496 1.557 247
0.335 0.181 1.484 1.546 230
0.343 0.181 1.481 1.545 222
0.354 0.182 1.489 1.555 211
0.364 0.183 1.492 1.56 206
0.374 0.183 1.494 1.565 199
0.384 0.184 1.498 1.571 195
0.391 0.183 1.488 1.563 192
0.4 0.183 1.488 1.565 185
0.413 0.185 1.5 1.58 188
0.423 0.185 1.503 1.587 186
0.429 0.184 1.489 1.575 183
0.44 0.185 1.496 1.584 180
0.449 0.185 1.494 1.585 186
0.458 0.185 1.49 1.584 183
0.467 0.185 1.49 1.586 179
0.48 0.187 1.499 1.598 181
0.485 0.186 1.487 1.589 178
0.498 0.187 1.496 1.602 176
0.507 0.187 1.491 1.6 175
0.519 0.188 1.498 1.61 174
0.526 0.187 1.491 1.606 171
0.537 0.188 1.493 1.612 172
0.549 0.189 1.499 1.622 170
0.567 0.192 1.521 1.648 171
0.572 0.191 1.506 1.636 169
0.582 0.191 1.503 1.637 164
0.586 0.189 1.488 1.624 166
0.601 0.191 1.498 1.639 163
0.614 0.192 1.505 1.65 163
0.628 0.194 1.513 1.663 166
0.636 0.193 1.507 1.66 164
0.643 0.193 1.498 1.654 161
0.652 0.193 1.495 1.656 164
0.672 0.196 1.515 1.682 156
0.674 0.194 1.495 1.665 152
0.692 0.196 1.51 1.686 153
0.7 0.196 1.503 1.683 157
0.711 0.196 1.504 1.689 151
0.729 0.198 1.517 1.708 151
0.75 0.202 1.537 1.735 152
0.755 0.2 1.523 1.725 147
0.763 0.2 1.515 1.721 150
0.777 0.201 1.521 1.733 144
0.784 0.2 1.51 1.726 148
0.804 0.203 1.527 1.751 148
0.815 0.203 1.525 1.754 144
0.813 0.2 1.498 1.729 144
0.836 0.204 1.519 1.759 143
0.85 0.205 1.522 1.768 141
0.863 0.205 1.522 1.774 142
-0.705 0.176 1.24 1.449 251
-0.706 0.178 1.261 1.468 245
-0.694 0.177 1.257 1.458 251
-0.676 0.175 1.243 1.437 249
-0.675 0.177 1.26 1.452 256
-0.661 0.175 1.253 1.439 256
-0.654 0.176 1.259 1.441 258
-0.641 0.174 1.252 1.429 264
-0.641 0.176 1.271 1.446 257
-0.63 0.175 1.269 1.439 257
-0.623 0.176 1.274 1.441 263
-0.613 0.175 1.274 1.436 263
-0.611 0.177 1.29 1.45 262
-0.6 0.176 1.288 1.443 265
-0.587 0.175 1.279 1.43 264
-0.579 0.175 1.283 1.43 262
-0.57 0.174 1.284 1.428 265
-0.562 0.174 1.287 1.427 265
-0.557 0.175 1.298 1.435 276
-0.556 0.177 1.316 1.452 288
-0.551 0.179 1.328 1.461 296
-0.538 0.177 1.318 1.447 301
-0.533 0.178 1.33 1.456 299
-0.527 0.179 1.338 1.461 299
-0.519 0.179 1.341 1.461 295
-0.506 0.177 1.33 1.446 296
-0.501 0.178 1.342 1.456 302
-0.491 0.178 1.34 1.451 302
-0.48 0.177 1.336 1.443 289
-0.473 0.177 1.342 1.446 290
-0.464 0.177 1.339 1.441 273
-0.455 0.176 1.34 1.439 273
-0.442 0.175 1.329 1.424 275
-0.439 0.176 1.344 1.438 270
-0.429 0.176 1.342 1.433 267
-0.42 0.175 1.342 1.43 266
-0.411 0.175 1.341 1.427 263
-0.404 0.175 1.345 1.429 267
-0.397 0.176 1.351 1.432 264
-0.39 0.176 1.356 1.435 264
-0.383 0.176 1.362 1.439 259
-0.372 0.175 1.353 1.427 266
-0.365 0.176 1.361 1.434 268
-0.358 0.176 1.365 1.435 267
-0.351 0.177 1.372 1.44 265
-0.344 0.178 1.38 1.446 264
-0.336 0.177 1.38 1.445 266
-0.326 0.176 1.374 1.436 268
-0.316 0.176 1.369 1.429 263
-0.309 0.176 1.373 1.431 266
-0.302 0.177 1.383 1.44 271
-0.292 0.176 1.374 1.428 267
-0.286 0.177 1.386 1.44 268
-0.278 0.177 1.388 1.44 267
-0.271 0.177 1.392 1.442 275
-0.262 0.177 1.389 1.438 269
-0.254 0.177 1.392 1.439 268
-0.247 0.178 1.4 1.446 268
-0.24 0.178 1.405 1.45 235
-0.233 0.179 1.415 1.458 212
-0.222 0.177 1.4 1.442 264
-0.214 0.178 1.403 1.444 277
-0.206 0.177 1.401 1.441 290
-0.198 0.178 1.407 1.446 303
-0.191 0.179 1.417 1.455 317
-0.183 0.179 1.421 1.458 316
-0.175 0.179 1.418 1.453 315
-0.167 0.179 1.425 1.459 313
-0.158 0.179 1.419 1.452 318
-0.151 0.18 1.427 1.46 314
-0.143 0.18 1.433 1.465 306
-0.135 0.18 1.431 1.462 313
-0.126 0.18 1.429 1.46 313
-0.118 0.18 1.434 1.464 307
-0.11 0.179 1.429 1.458 305
-0.102 0.18 1.434 1.462 301
-0.093 0.179 1.43 1.458 284
-0.085 0.18 1.439 1.467 268
-0.077 0.179 1.432 1.459 269
-0.068 0.179 1.427 1.453 262
-0.06 0.179 1.427 1.453 257
-0.052 0.18 1.438 1.464 255
-0.044 0.18 1.438 1.464 252
-0.036 0.181 1.441 1.467 252
-0.028 0.181 1.442 1.467 253
-0.019 0.181 1.445 1.47 249
-0.011 0.181 1.444 1.469 251
-0.003 0.182 1.45 1.475 255
0.005 0.183 1.464 1.489 249
0.013 0.182 1.457 1.483 250
0.021 0.183 1.459 1.485 245
0.029 0.182 1.451 1.476 246
0.038 0.182 1.454 1.48 245
0.047 0.184 1.466 1.492 246
0.055 0.183 1.46 1.487 247
0.064 0.184 1.469 1.496 246
0.072 0.184 1.465 1.493 245
0.081 0.184 1.471 1.498 250
0.089 0.185 1.473 1.501 251
0.098 0.185 1.474 1.503 246
0.106 0.184 1.466 1.496 248
0.115 0.185 1.478 1.508 247
0.123 0.184 1.469 1.5 245
0.132 0.185 1.476 1.507 246
0.141 0.186 1.477 1.509 245
0.149 0.186 1.478 1.511 247
0.159 0.187 1.49 1.524 249
0.166 0.185 1.472 1.507 248
0.177 0.188 1.492 1.529 249
0.186 0.189 1.497 1.534 247
0.193 0.187 1.484 1.522 249
0.202 0.188 1.489 1.528 252
0.212 0.188 1.493 1.534 257
0.221 0.189 1.495 1.537 269
0.229 0.189 1.492 1.536 285
0.239 0.189 1.495 1.54 299
0.247 0.189 1.494 1.54 298
0.256 0.189 1.491 1.539 298
0.265 0.19 1.495 1.544 300
0.273 0.189 1.491 1.541 300
0.282 0.189 1.487 1.539 299
0.289 0.188 1.481 1.534 303
0.299 0.189 1.484 1.539 301
0.311 0.191 1.498 1.555 286
0.317 0.19 1.486 1.545 273
0.324 0.189 1.476 1.537 247
0.331 0.188 1.466 1.529 236
0.342 0.189 1.475 1.54 225
0.349 0.188 1.465 1.532 220
0.36 0.19 1.476 1.545 217
0.372 0.191 1.488 1.56 210
0.379 0.19 1.478 1.552 206
0.392 0.192 1.49 1.567 202
0.398 0.191 1.478 1.557 199
0.407 0.191 1.477 1.558 197
0.416 0.191 1.477 1.56 194
0.429 0.193 1.489 1.575 193
0.434 0.191 1.473 1.562 191
0.447 0.193 1.485 1.576 192
0.45 0.191 1.463 1.556 189
0.463 0.193 1.476 1.573 186
0.471 0.192 1.47 1.569 185
0.483 0.193 1.477 1.579 186
0.492 0.193 1.475 1.581 186
0.507 0.196 1.492 1.602 182
0.512 0.194 1.476 1.588 178
0.524 0.196 1.484 1.6 176
0.529 0.194 1.469 1.587 175
0.545 0.197 1.485 1.608 177
0.551 0.196 1.476 1.601 175
0.567 0.198 1.491 1.621 173
0.575 0.198 1.486 1.62 172
0.592 0.201 1.503 1.642 169
0.593 0.198 1.479 1.62 166
0.612 0.201 1.498 1.644 166
0.614 0.199 1.479 1.627 169
0.624 0.199 1.477 1.63 170
0.632 0.198 1.471 1.627 168
0.65 0.201 1.489 1.651 169
0.656 0.2 1.479 1.644 171
0.676 0.204 1.499 1.67 168
0.691 0.205 1.508 1.685 161
0.704 0.206 1.511 1.693 161
0.715 0.207 1.512 1.699 157
0.723 0.206 1.504 1.695 156
0.727 0.205 1.487 1.681 150
0.74 0.206 1.491 1.69 152
0.753 0.207 1.496 1.701 151
0.765 0.208 1.496 1.707 150
0.761 0.204 1.465 1.676 152
0.792 0.21 1.502 1.724 156
0.797 0.208 1.488 1.714 154
0.808 0.209 1.488 1.719 149
0.82 0.209 1.487 1.724 150
0.833 0.21 1.489 1.732 151
0.859 0.214 1.514 1.767 145
-0.701 0.183 1.233 1.442 257
-0.688 0.182 1.226 1.429 255
-0.687 0.184 1.243 1.443 247
-0.671 0.182 1.234 1.428 253
-0.667 0.183 1.243 1.434 258
-0.659 0.183 1.247 1.434 257
-0.647 0.182 1.244 1.426 259
-0.637 0.181 1.243 1.42 265
-0.628 0.181 1.244 1.417 264
-0.62 0.181 1.247 1.416 265
-0.616 0.182 1.259 1.425 266
-0.609 0.182 1.265 1.428 266
-0.596 0.181 1.257 1.414 267
-0.592 0.182 1.269 1.424 266
-0.582 0.181 1.268 1.419 269
-0.573 0.181 1.269 1.416 264
-0.563 0.18 1.266 1.409 265
-0.557 0.181 1.274 1.414 269
-0.551 0.181 1.281 1.419 274
-0.549 0.183 1.299 1.435 287
-0.54 0.183 1.3 1.432 295
-0.539 0.185 1.32 1.45 296
-0.525 0.183 1.308 1.434 299
-0.519 0.184 1.315 1.438 301
-0.511 0.184 1.319 1.439 300
-0.501 0.184 1.317 1.434 296
-0.494 0.184 1.323 1.437 297
-0.484 0.183 1.32 1.43 294
-0.476 0.183 1.322 1.429 294
-0.47 0.184 1.33 1.435 288
-0.456 0.182 1.317 1.419 282
-0.45 0.182 1.324 1.423 281
-0.442 0.182 1.327 1.424 274
-0.436 0.183 1.335 1.429 273
-0.425 0.182 1.327 1.418 272
-0.417 0.182 1.332 1.42 275
-0.41 0.182 1.336 1.422 270
-0.4 0.181 1.331 1.414 268
-0.394 0.183 1.341 1.423 270
-0.384 0.182 1.336 1.415 272
-0.375 0.181 1.334 1.41 268
-0.371 0.183 1.35 1.425 269
-0.363 0.183 1.35 1.423 273
-0.354 0.182 1.35 1.42 269
-0.346 0.182 1.349 1.418 272
-0.337 0.182 1.348 1.415 273
-0.331 0.183 1.36 1.425 275
-0.322 0.182 1.356 1.419 280
-0.314 0.182 1.357 1.418 278
-0.306 0.182 1.359 1.419 274
-0.299 0.183 1.367 1.425 279
-0.29 0.182 1.361 1.417 273
-0.282 0.182 1.362 1.416 277
-0.274 0.182 1.365 1.418 274
-0.266 0.182 1.367 1.418 279
-0.258 0.182 1.367 1.416 279
-0.251 0.183 1.374 1.422 273
-0.242 0.182 1.371 1.417 277
-0.232 0.18 1.358 1.403 264
-0.225 0.182 1.368 1.412 258
-0.219 0.183 1.381 1.424 279
-0.211 0.183 1.383 1.425 286
