# .PCD v0.7 - Point Cloud Data file format
VERSION 0.7
FIELDS x y z d a
SIZE 4 4 4 4 4
TYPE F F F F F
COUNT 1 1 1 1 1
WIDTH 1708
HEIGHT 1
VIEWPOINT 0 0 0 1 0 0 0
POINTS 1708
DATA ascii
-0.597 0.108 1.675 1.795 195
-0.591 0.109 1.689 1.805 191
-0.575 0.108 1.676 1.788 196
-0.569 0.109 1.689 1.798 205
-0.558 0.109 1.692 1.798 202
-0.552 0.109 1.706 1.809 203
-0.532 0.108 1.679 1.778 197
-0.531 0.109 1.711 1.808 195
-0.524 0.11 1.724 1.818 201
-0.509 0.109 1.708 1.799 201
-0.5 0.109 1.716 1.804 197
-0.486 0.108 1.707 1.791 197
-0.482 0.11 1.731 1.813 196
-0.473 0.11 1.736 1.816 203
-0.464 0.11 1.743 1.82 198
-0.452 0.11 1.741 1.816 200
-0.442 0.11 1.744 1.816 195
-0.431 0.11 1.743 1.813 199
-0.423 0.11 1.754 1.821 198
-0.413 0.11 1.758 1.823 199
-0.403 0.11 1.757 1.82 199
-0.392 0.11 1.76 1.82 201
-0.383 0.111 1.766 1.824 200
-0.371 0.11 1.761 1.817 198
-0.362 0.111 1.77 1.823 198
-0.353 0.111 1.777 1.829 200
-0.343 0.111 1.782 1.831 198
-0.335 0.112 1.791 1.839 200
-0.323 0.111 1.784 1.83 194
-0.313 0.111 1.788 1.832 188
-0.302 0.111 1.789 1.831 195
-0.293 0.111 1.795 1.835 192
-0.282 0.111 1.793 1.832 195
-0.272 0.111 1.797 1.835 195
-0.261 0.111 1.796 1.832 201
-0.254 0.113 1.82 1.855 211
-0.243 0.112 1.818 1.851 213
-0.233 0.113 1.823 1.855 214
-0.222 0.112 1.817 1.848 217
-0.213 0.113 1.832 1.862 209
-0.203 0.114 1.842 1.87 207
-0.193 0.113 1.84 1.868 209
-0.182 0.113 1.841 1.867 207
-0.172 0.114 1.846 1.871 205
-0.161 0.113 1.839 1.864 201
-0.15 0.113 1.84 1.864 195
-0.14 0.114 1.849 1.871 187
-0.13 0.113 1.847 1.869 185
-0.12 0.114 1.858 1.88 186
-0.11 0.115 1.868 1.888 184
-0.099 0.114 1.863 1.883 181
-0.088 0.114 1.861 1.881 181
-0.078 0.115 1.88 1.899 182
-0.067 0.115 1.873 1.892 179
-0.057 0.116 1.885 1.903 178
-0.046 0.116 1.9 1.918 178
-0.035 0.116 1.89 1.907 176
-0.025 0.117 1.904 1.922 175
-0.014 0.116 1.901 1.918 180
-0.003 0.117 1.904 1.922 178
0.007 0.116 1.898 1.916 171
0.017 0.117 1.905 1.923 178
0.028 0.117 1.906 1.924 177
0.039 0.116 1.897 1.915 177
0.05 0.117 1.904 1.923 176
0.061 0.118 1.922 1.941 175
0.072 0.118 1.92 1.939 177
0.084 0.119 1.938 1.958 178
0.095 0.118 1.929 1.949 178
0.106 0.119 1.941 1.962 178
0.117 0.119 1.938 1.96 178
0.129 0.119 1.947 1.969 178
0.139 0.119 1.941 1.963 177
0.151 0.12 1.952 1.976 177
0.162 0.119 1.942 1.966 185
0.172 0.119 1.93 1.956 199
0.183 0.119 1.927 1.954 207
0.196 0.12 1.944 1.972 211
0.206 0.119 1.935 1.963 212
0.218 0.12 1.945 1.975 209
0.228 0.119 1.933 1.964 207
0.24 0.12 1.941 1.974 212
0.252 0.12 1.948 1.982 209
0.262 0.12 1.937 1.973 191
0.275 0.12 1.947 1.984 164
0.288 0.121 1.959 1.998 149
0.297 0.12 1.944 1.984 142
0.309 0.121 1.949 1.992 139
0.32 0.12 1.942 1.986 136
0.331 0.12 1.941 1.987 133
0.342 0.121 1.942 1.989 131
0.359 0.122 1.968 2.018 126
0.368 0.122 1.955 2.007 125
0.383 0.123 1.973 2.028 123
0.396 0.123 1.978 2.035 125
0.406 0.123 1.968 2.027 121
0.419 0.123 1.976 2.038 121
0.433 0.124 1.986 2.05 123
0.446 0.124 1.987 2.055 121
0.458 0.125 1.988 2.058 119
0.467 0.124 1.975 2.047 119
0.482 0.125 1.987 2.063 116
0.495 0.125 1.99 2.069 114
0.507 0.125 1.988 2.07 113
0.52 0.125 1.991 2.075 110
0.533 0.126 1.996 2.084 108
0.547 0.126 2.001 2.092 110
0.563 0.127 2.011 2.106 108
0.571 0.126 1.995 2.093 111
0.592 0.129 2.026 2.129 105
0.605 0.129 2.025 2.131 107
0.615 0.128 2.016 2.126 106
0.628 0.129 2.016 2.129 102
0.64 0.129 2.012 2.13 107
0.654 0.129 2.016 2.137 104
0.67 0.13 2.025 2.151 99
0.684 0.13 2.028 2.158 99
0.696 0.13 2.022 2.156 101
0.713 0.131 2.034 2.173 101
0.731 0.132 2.045 2.189 100
0.749 0.133 2.058 2.208 95
0.768 0.134 2.072 2.227 97
0.782 0.135 2.072 2.233 92
0.792 0.134 2.06 2.224 95
0.807 0.135 2.064 2.234 93
0.822 0.135 2.065 2.24 90
0.837 0.135 2.066 2.247 92
0.858 0.137 2.083 2.271 89
0.872 0.137 2.082 2.275 90
0.88 0.136 2.065 2.262 89
0.901 0.138 2.081 2.286 89
0.919 0.138 2.087 2.298 87
0.938 0.139 2.095 2.313 86
0.959 0.14 2.109 2.335 84
0.986 0.142 2.134 2.369 82
0.996 0.142 2.121 2.361 79
1 0.141 2.096 2.34 82
1.02 0.142 2.105 2.357 76
1.05 0.144 2.134 2.397 76
1.06 0.143 2.122 2.39 79
1.082 0.145 2.133 2.409 77
1.095 0.145 2.126 2.409 73
1.104 0.144 2.112 2.401 73
1.132 0.146 2.134 2.433 72
1.145 0.146 2.125 2.431 75
1.176 0.148 2.151 2.469 75
1.17 0.145 2.109 2.43 73
1.216 0.15 2.162 2.498 69
-0.877 0.118 1.556 1.801 209
-0.869 0.118 1.565 1.806 210
-0.863 0.119 1.577 1.813 210
-0.835 0.116 1.548 1.775 215
-0.833 0.118 1.568 1.791 213
-0.824 0.118 1.575 1.793 210
-0.81 0.117 1.572 1.784 210
-0.795 0.117 1.567 1.773 211
-0.793 0.118 1.587 1.79 206
-0.784 0.118 1.592 1.791 207
-0.769 0.117 1.587 1.779 204
-0.767 0.118 1.607 1.797 203
-0.755 0.118 1.607 1.791 204
-0.742 0.117 1.604 1.783 204
-0.731 0.117 1.606 1.781 207
-0.726 0.118 1.623 1.795 202
-0.713 0.118 1.62 1.787 201
-0.7 0.117 1.616 1.778 197
-0.689 0.117 1.617 1.774 193
-0.675 0.116 1.612 1.764 195
-0.665 0.116 1.615 1.763 193
-0.664 0.118 1.64 1.785 197
-0.656 0.118 1.649 1.791 202
-0.642 0.117 1.643 1.78 200
-0.63 0.117 1.641 1.774 198
-0.626 0.118 1.662 1.792 196
-0.611 0.117 1.65 1.777 197
-0.603 0.118 1.66 1.783 196
-0.596 0.118 1.672 1.792 198
-0.585 0.118 1.671 1.787 199
-0.577 0.119 1.682 1.795 200
-0.562 0.118 1.669 1.778 202
-0.554 0.118 1.676 1.782 202
-0.547 0.119 1.691 1.795 202
-0.534 0.118 1.684 1.783 204
-0.526 0.118 1.691 1.788 203
-0.519 0.119 1.707 1.802 200
-0.508 0.119 1.706 1.797 200
-0.493 0.118 1.691 1.779 199
-0.485 0.118 1.703 1.788 196
-0.479 0.119 1.717 1.799 197
-0.468 0.119 1.718 1.797 196
-0.457 0.119 1.716 1.793 196
-0.445 0.118 1.711 1.785 197
-0.437 0.119 1.723 1.795 195
-0.428 0.119 1.731 1.8 193
-0.414 0.118 1.716 1.782 198
-0.411 0.12 1.746 1.811 201
-0.399 0.119 1.739 1.802 199
-0.388 0.119 1.741 1.802 205
-0.378 0.119 1.744 1.802 208
-0.37 0.12 1.756 1.812 202
-0.359 0.12 1.754 1.808 207
-0.351 0.12 1.765 1.817 207
-0.338 0.12 1.754 1.804 207
-0.328 0.119 1.753 1.801 208
-0.32 0.12 1.77 1.816 204
-0.311 0.121 1.777 1.821 195
-0.299 0.12 1.768 1.811 203
-0.289 0.12 1.772 1.813 200
-0.279 0.12 1.772 1.812 200
-0.27 0.121 1.786 1.824 201
-0.261 0.122 1.796 1.832 205
-0.252 0.122 1.801 1.837 214
-0.241 0.122 1.798 1.832 217
-0.231 0.122 1.807 1.839 214
-0.22 0.122 1.805 1.837 214
-0.211 0.123 1.818 1.848 212
-0.2 0.122 1.81 1.838 208
-0.189 0.122 1.806 1.834 207
-0.181 0.123 1.824 1.851 208
-0.17 0.123 1.821 1.847 204
-0.159 0.123 1.821 1.846 200
-0.151 0.124 1.846 1.871 194
-0.139 0.123 1.836 1.86 186
-0.128 0.123 1.829 1.851 188
-0.118 0.123 1.834 1.856 188
-0.109 0.124 1.847 1.869 183
-0.098 0.124 1.85 1.871 184
-0.087 0.124 1.846 1.866 185
-0.077 0.124 1.852 1.871 181
-0.066 0.123 1.839 1.858 182
-0.056 0.124 1.852 1.871 185
-0.046 0.125 1.869 1.888 182
-0.035 0.126 1.873 1.892 180
-0.025 0.126 1.877 1.895 177
-0.014 0.125 1.866 1.884 178
-0.003 0.126 1.881 1.899 181
0.006 0.126 1.878 1.897 178
0.017 0.126 1.879 1.897 181
0.028 0.127 1.894 1.913 181
0.039 0.127 1.896 1.915 181
0.049 0.126 1.884 1.903 178
0.061 0.127 1.898 1.917 179
0.071 0.127 1.894 1.914 179
0.083 0.128 1.911 1.931 177
0.094 0.128 1.91 1.931 177
0.105 0.128 1.909 1.931 177
0.116 0.129 1.919 1.941 177
0.126 0.128 1.902 1.925 176
0.138 0.129 1.926 1.949 175
0.149 0.129 1.924 1.948 178
0.16 0.129 1.916 1.941 182
0.173 0.13 1.94 1.966 196
0.182 0.129 1.923 1.95 204
0.195 0.131 1.94 1.968 204
0.204 0.129 1.917 1.946 206
0.216 0.13 1.926 1.957 209
0.227 0.13 1.924 1.956 206
0.239 0.13 1.935 1.968 205
0.248 0.129 1.916 1.95 200
0.261 0.13 1.927 1.964 190
0.273 0.131 1.935 1.973 168
0.283 0.13 1.924 1.963 158
0.296 0.131 1.939 1.98 153
0.307 0.131 1.932 1.975 145
0.317 0.131 1.926 1.971 140
0.331 0.132 1.944 1.99 141
0.341 0.131 1.931 1.979 135
0.353 0.131 1.934 1.985 135
0.366 0.132 1.946 1.998 127
0.379 0.133 1.948 2.003 128
0.386 0.132 1.929 1.986 131
0.402 0.133 1.949 2.009 124
0.419 0.135 1.974 2.036 124
0.43 0.135 1.972 2.037 124
0.44 0.134 1.962 2.03 125
0.453 0.135 1.965 2.035 127
0.467 0.135 1.974 2.047 125
0.48 0.136 1.979 2.055 121
0.489 0.135 1.965 2.044 122
0.501 0.135 1.967 2.048 118
0.514 0.136 1.969 2.054 120
0.526 0.136 1.968 2.055 115
0.545 0.138 1.99 2.082 112
0.555 0.137 1.982 2.077 113
0.569 0.138 1.989 2.087 114
0.576 0.137 1.968 2.069 115
0.601 0.14 2.012 2.118 111
0.611 0.139 2 2.11 110
0.627 0.14 2.011 2.125 108
0.638 0.14 2.005 2.123 106
0.649 0.14 1.999 2.12 104
0.667 0.141 2.016 2.142 103
0.68 0.141 2.013 2.143 103
0.693 0.142 2.014 2.149 101
0.717 0.144 2.043 2.184 100
0.721 0.142 2.016 2.16 98
0.741 0.144 2.033 2.183 97
0.756 0.145 2.038 2.193 99
0.77 0.145 2.038 2.197 99
0.787 0.146 2.046 2.211 96
0.8 0.146 2.043 2.213 97
0.815 0.146 2.047 2.222 96
0.828 0.146 2.043 2.223 96
0.843 0.147 2.045 2.231 90
0.86 0.148 2.053 2.244 93
0.88 0.149 2.066 2.264 92
0.896 0.149 2.066 2.271 92
0.893 0.147 2.026 2.233 91
0.922 0.15 2.059 2.275 90
0.936 0.15 2.056 2.278 88
0.96 0.152 2.077 2.307 87
0.969 0.151 2.063 2.298 88
0.984 0.151 2.061 2.303 84
1.021 0.155 2.107 2.36 83
1.033 0.155 2.098 2.357 79
1.05 0.155 2.101 2.368 76
1.081 0.158 2.13 2.407 78
1.087 0.157 2.109 2.391 76
1.097 0.156 2.097 2.385 78
1.111 0.156 2.092 2.388 74
1.128 0.157 2.093 2.396 75
1.146 0.158 2.096 2.408 74
1.164 0.158 2.098 2.418 76
1.195 0.161 2.123 2.455 71
-0.871 0.127 1.545 1.79 220
-0.861 0.127 1.549 1.788 217
-0.857 0.128 1.565 1.8 216
-0.842 0.127 1.561 1.79 215
-0.834 0.128 1.57 1.795 219
-0.825 0.128 1.575 1.795 216
-0.813 0.128 1.576 1.79 216
-0.803 0.128 1.582 1.79 213
-0.787 0.127 1.573 1.776 216
-0.777 0.127 1.577 1.774 211
-0.76 0.125 1.566 1.757 210
-0.753 0.126 1.578 1.765 208
-0.743 0.126 1.58 1.763 210
-0.745 0.128 1.61 1.791 208
-0.728 0.127 1.601 1.775 206
-0.713 0.126 1.593 1.762 209
-0.708 0.127 1.608 1.774 207
-0.695 0.126 1.605 1.766 203
-0.691 0.127 1.622 1.78 200
-0.674 0.126 1.607 1.76 197
-0.659 0.125 1.601 1.748 202
-0.655 0.126 1.616 1.761 203
-0.65 0.127 1.634 1.776 205
-0.639 0.127 1.633 1.771 210
-0.623 0.126 1.621 1.754 206
-0.613 0.126 1.624 1.753 203
-0.612 0.127 1.651 1.778 202
-0.6 0.127 1.651 1.774 203
-0.585 0.126 1.639 1.758 204
-0.578 0.127 1.652 1.767 203
-0.57 0.127 1.66 1.773 206
-0.561 0.127 1.664 1.773 205
-0.551 0.127 1.669 1.775 205
-0.539 0.127 1.664 1.767 207
-0.531 0.127 1.672 1.772 203
-0.521 0.127 1.676 1.773 205
-0.51 0.127 1.675 1.768 203
-0.501 0.127 1.68 1.771 203
-0.49 0.127 1.679 1.766 205
-0.478 0.126 1.676 1.76 201
-0.468 0.126 1.678 1.76 199
-0.465 0.128 1.704 1.784 198
-0.451 0.127 1.695 1.772 200
-0.437 0.126 1.68 1.754 198
-0.435 0.128 1.715 1.787 200
-0.423 0.128 1.707 1.777 196
-0.414 0.128 1.714 1.781 195
-0.404 0.128 1.718 1.783 201
-0.397 0.129 1.73 1.793 200
-0.386 0.129 1.728 1.788 202
-0.376 0.129 1.73 1.789 204
-0.366 0.129 1.737 1.793 204
-0.355 0.128 1.73 1.784 209
-0.347 0.129 1.742 1.794 208
-0.336 0.129 1.744 1.794 208
-0.328 0.13 1.755 1.803 211
-0.317 0.129 1.752 1.798 211
-0.308 0.13 1.76 1.805 211
-0.297 0.129 1.755 1.798 213
-0.287 0.13 1.76 1.801 209
-0.278 0.13 1.767 1.807 206
-0.268 0.13 1.772 1.811 211
-0.258 0.13 1.772 1.809 210
-0.249 0.131 1.785 1.821 213
-0.239 0.131 1.787 1.821 219
-0.228 0.131 1.784 1.817 212
-0.219 0.131 1.791 1.823 214
-0.21 0.132 1.805 1.836 210
-0.2 0.132 1.808 1.838 209
-0.189 0.132 1.805 1.833 211
-0.178 0.131 1.796 1.823 209
-0.168 0.132 1.805 1.832 208
-0.157 0.131 1.8 1.825 203
-0.148 0.132 1.805 1.83 200
-0.137 0.132 1.808 1.831 190
-0.127 0.132 1.812 1.836 189
-0.117 0.132 1.814 1.837 192
-0.107 0.133 1.821 1.843 186
-0.097 0.134 1.835 1.857 191
-0.086 0.133 1.824 1.845 185
-0.076 0.134 1.835 1.855 186
-0.065 0.133 1.819 1.839 186
-0.056 0.134 1.841 1.861 185
-0.045 0.134 1.839 1.859 185
-0.035 0.134 1.837 1.856 185
-0.024 0.134 1.841 1.86 181
-0.014 0.135 1.855 1.874 186
-0.003 0.134 1.844 1.863 182
0.006 0.135 1.858 1.877 182
0.017 0.135 1.848 1.867 182
0.028 0.137 1.88 1.9 181
0.039 0.137 1.881 1.901 181
0.049 0.136 1.869 1.888 181
0.06 0.136 1.875 1.895 181
0.071 0.137 1.888 1.909 180
0.082 0.138 1.895 1.915 179
0.092 0.137 1.877 1.898 179
0.104 0.138 1.893 1.915 180
0.114 0.137 1.885 1.907 178
0.126 0.138 1.898 1.921 178
0.137 0.139 1.911 1.935 173
0.149 0.14 1.913 1.938 181
0.158 0.138 1.896 1.922 185
0.17 0.139 1.909 1.935 195
0.181 0.139 1.906 1.934 195
0.193 0.14 1.919 1.948 200
0.202 0.139 1.898 1.928 201
0.216 0.141 1.924 1.956 198
0.228 0.141 1.934 1.966 202
0.237 0.14 1.916 1.95 198
0.248 0.14 1.911 1.946 194
0.26 0.141 1.918 1.955 186
0.27 0.14 1.914 1.952 168
0.285 0.142 1.94 1.98 162
0.292 0.14 1.912 1.953 156
0.304 0.141 1.913 1.956 151
0.317 0.142 1.923 1.968 148
0.328 0.142 1.925 1.972 145
0.337 0.141 1.908 1.957 142
0.347 0.141 1.905 1.955 142
0.362 0.142 1.921 1.975 136
0.374 0.142 1.922 1.978 134
0.386 0.143 1.927 1.984 136
0.401 0.144 1.945 2.005 134
0.412 0.144 1.941 2.004 131
0.426 0.145 1.951 2.016 129
0.438 0.145 1.953 2.021 128
0.447 0.144 1.937 2.007 126
0.456 0.144 1.927 2 126
0.472 0.145 1.946 2.022 127
0.487 0.146 1.956 2.035 124
0.504 0.148 1.976 2.059 126
0.515 0.148 1.972 2.058 121
0.527 0.148 1.972 2.061 119
0.54 0.148 1.972 2.064 118
0.553 0.149 1.975 2.071 119
0.562 0.148 1.962 2.06 117
0.572 0.147 1.954 2.055 117
0.591 0.149 1.975 2.081 116
0.6 0.149 1.966 2.075 113
0.619 0.15 1.984 2.098 110
0.634 0.151 1.991 2.109 110
0.647 0.152 1.993 2.115 108
0.658 0.151 1.985 2.111 109
0.672 0.152 1.989 2.119 105
0.691 0.153 2.005 2.14 109
0.709 0.155 2.02 2.161 108
0.709 0.152 1.983 2.126 104
0.727 0.153 1.995 2.143 101
0.742 0.154 2 2.153 100
0.76 0.155 2.011 2.17 100
0.778 0.156 2.023 2.187 101
0.798 0.158 2.038 2.208 97
0.812 0.158 2.038 2.213 96
0.826 0.158 2.038 2.218 98
0.835 0.158 2.025 2.21 96
0.853 0.159 2.035 2.226 97
0.869 0.16 2.038 2.235 95
0.879 0.159 2.027 2.229 92
0.906 0.162 2.056 2.266 91
0.92 0.162 2.054 2.27 91
0.934 0.162 2.051 2.273 86
0.956 0.164 2.068 2.298 94
0.965 0.163 2.053 2.288 91
0.994 0.166 2.081 2.326 91
1.008 0.166 2.078 2.329 87
1.02 0.166 2.071 2.328 79
1.035 0.166 2.07 2.333 82
1.055 0.167 2.078 2.349 81
1.069 0.167 2.074 2.353 77
1.08 0.167 2.064 2.349 79
1.098 0.168 2.067 2.36 80
1.129 0.171 2.094 2.399 78
1.141 0.17 2.086 2.397 73
1.168 0.172 2.103 2.425 80
1.19 0.174 2.113 2.444 74
-0.863 0.136 1.531 1.774 221
-0.857 0.137 1.541 1.78 226
-0.846 0.137 1.544 1.777 226
-0.837 0.137 1.551 1.779 225
-0.816 0.135 1.534 1.754 227
-0.811 0.136 1.549 1.766 220
-0.802 0.136 1.553 1.765 219
-0.785 0.135 1.545 1.75 221
-0.78 0.135 1.558 1.76 214
-0.766 0.135 1.554 1.749 213
-0.767 0.137 1.581 1.775 214
-0.75 0.135 1.569 1.757 216
-0.744 0.136 1.583 1.767 215
-0.726 0.135 1.569 1.746 211
-0.719 0.135 1.578 1.752 212
-0.713 0.136 1.592 1.762 216
-0.699 0.135 1.586 1.751 211
-0.685 0.134 1.58 1.74 206
-0.681 0.135 1.597 1.754 209
-0.666 0.134 1.587 1.739 206
-0.659 0.135 1.6 1.748 212
-0.65 0.135 1.603 1.748 211
-0.64 0.135 1.608 1.749 213
-0.633 0.136 1.619 1.756 213
-0.626 0.136 1.629 1.763 206
-0.609 0.135 1.614 1.743 206
-0.591 0.133 1.595 1.718 210
-0.588 0.134 1.617 1.739 209
-0.58 0.135 1.624 1.742 211
-0.577 0.136 1.646 1.762 210
-0.559 0.134 1.625 1.737 215
-0.552 0.135 1.636 1.745 210
-0.545 0.136 1.648 1.753 211
-0.535 0.136 1.65 1.752 212
-0.52 0.134 1.637 1.736 208
-0.515 0.136 1.656 1.752 211
-0.502 0.135 1.646 1.739 210
-0.494 0.135 1.655 1.746 206
-0.483 0.135 1.656 1.743 207
-0.476 0.136 1.667 1.752 207
-0.464 0.135 1.662 1.744 203
-0.449 0.134 1.646 1.725 201
-0.448 0.136 1.681 1.758 197
-0.44 0.137 1.691 1.766 198
-0.426 0.136 1.678 1.75 197
-0.419 0.136 1.689 1.759 196
-0.412 0.138 1.706 1.774 201
-0.397 0.136 1.686 1.751 202
-0.387 0.136 1.688 1.751 200
-0.383 0.138 1.714 1.775 203
-0.37 0.137 1.703 1.762 204
-0.361 0.137 1.712 1.768 205
-0.352 0.138 1.718 1.773 205
-0.345 0.138 1.731 1.784 202
-0.332 0.138 1.722 1.773 206
-0.323 0.138 1.725 1.774 206
-0.313 0.138 1.727 1.774 206
-0.306 0.139 1.749 1.795 207
-0.294 0.138 1.736 1.78 207
-0.287 0.139 1.755 1.797 207
-0.274 0.138 1.743 1.783 208
-0.265 0.139 1.748 1.787 208
-0.257 0.14 1.765 1.803 212
-0.245 0.139 1.749 1.786 213
-0.236 0.14 1.763 1.797 210
-0.228 0.141 1.778 1.812 212
-0.215 0.139 1.762 1.794 208
-0.207 0.141 1.78 1.811 207
-0.197 0.141 1.78 1.81 211
-0.188 0.142 1.795 1.824 211
-0.177 0.141 1.786 1.815 212
-0.168 0.142 1.8 1.828 213
-0.156 0.14 1.779 1.805 207
-0.147 0.142 1.799 1.825 199
-0.136 0.141 1.789 1.814 191
-0.127 0.142 1.803 1.827 191
-0.116 0.142 1.799 1.822 191
-0.106 0.141 1.797 1.819 193
-0.096 0.142 1.8 1.822 193
-0.086 0.142 1.81 1.831 192
-0.076 0.143 1.818 1.839 189
-0.065 0.143 1.817 1.838 189
-0.055 0.143 1.815 1.836 189
-0.045 0.144 1.838 1.858 190
-0.034 0.143 1.826 1.846 189
-0.024 0.143 1.822 1.842 185
-0.014 0.144 1.832 1.852 189
-0.003 0.144 1.833 1.853 185
0.006 0.145 1.844 1.864 186
0.017 0.145 1.84 1.86 187
0.027 0.145 1.847 1.867 185
0.038 0.145 1.848 1.868 184
0.049 0.146 1.858 1.879 182
0.059 0.146 1.861 1.881 180
0.07 0.147 1.872 1.893 184
0.081 0.147 1.871 1.892 180
0.092 0.147 1.873 1.895 179
0.102 0.147 1.868 1.891 179
0.113 0.147 1.868 1.892 179
0.125 0.148 1.883 1.907 178
0.134 0.147 1.865 1.889 176
0.147 0.149 1.898 1.923 182
0.157 0.149 1.887 1.913 186
0.169 0.149 1.895 1.923 196
0.18 0.149 1.895 1.924 197
0.191 0.149 1.895 1.924 193
0.202 0.149 1.894 1.924 195
0.211 0.149 1.882 1.913 196
0.223 0.149 1.891 1.924 199
0.235 0.15 1.897 1.931 195
0.247 0.15 1.902 1.938 187
0.257 0.15 1.901 1.938 179
0.268 0.15 1.898 1.936 167
0.282 0.152 1.914 1.955 165
0.29 0.15 1.893 1.935 162
0.303 0.151 1.906 1.95 157
0.31 0.149 1.881 1.927 152
0.323 0.15 1.892 1.939 150
0.335 0.151 1.897 1.946 145
0.35 0.153 1.918 1.97 145
0.362 0.153 1.918 1.972 142
0.371 0.152 1.909 1.965 142
0.382 0.152 1.906 1.964 141
0.396 0.153 1.916 1.977 140
0.406 0.153 1.912 1.974 138
0.422 0.155 1.931 1.997 137
0.431 0.154 1.921 1.989 134
0.44 0.153 1.91 1.98 134
0.457 0.155 1.932 2.005 131
0.473 0.157 1.946 2.023 130
0.482 0.156 1.936 2.016 130
0.494 0.156 1.938 2.02 129
0.506 0.156 1.937 2.022 127
0.52 0.157 1.942 2.03 125
0.533 0.158 1.945 2.037 125
0.546 0.158 1.948 2.043 122
0.559 0.158 1.951 2.049 120
0.574 0.16 1.962 2.065 123
0.585 0.159 1.954 2.06 119
0.602 0.161 1.972 2.082 116
0.608 0.159 1.948 2.06 117
0.627 0.161 1.97 2.088 117
0.644 0.163 1.982 2.104 116
0.647 0.16 1.952 2.076 113
0.668 0.163 1.976 2.106 107
0.689 0.165 2.001 2.137 111
0.699 0.164 1.991 2.131 107
0.709 0.164 1.982 2.125 107
0.727 0.165 1.994 2.143 107
0.734 0.164 1.978 2.13 100
0.757 0.167 2.002 2.16 102
0.774 0.168 2.011 2.175 102
0.788 0.168 2.011 2.18 101
0.802 0.169 2.013 2.187 101
0.816 0.169 2.011 2.19 102
0.819 0.167 1.986 2.168 103
0.841 0.169 2.005 2.195 100
0.86 0.17 2.015 2.211 100
0.865 0.169 1.994 2.193 99
0.89 0.171 2.019 2.227 97
0.913 0.173 2.037 2.252 92
0.926 0.173 2.033 2.254 88
0.934 0.173 2.018 2.244 94
0.956 0.174 2.033 2.267 93
0.983 0.177 2.058 2.301 91
0.994 0.176 2.048 2.296 92
1.019 0.179 2.068 2.326 92
1.033 0.179 2.064 2.329 88
1.046 0.179 2.06 2.331 82
1.067 0.18 2.068 2.347 81
1.087 0.181 2.077 2.365 81
1.102 0.182 2.074 2.369 83
1.118 0.182 2.073 2.376 79
1.127 0.182 2.059 2.368 76
1.146 0.182 2.064 2.381 80
1.163 0.183 2.064 2.389 81
-0.862 0.146 1.527 1.771 226
-0.85 0.146 1.529 1.767 231
-0.839 0.145 1.532 1.764 223
-0.827 0.145 1.53 1.757 230
-0.822 0.146 1.544 1.767 228
-0.802 0.144 1.529 1.744 230
-0.796 0.145 1.542 1.753 224
-0.788 0.145 1.55 1.756 227
-0.769 0.143 1.536 1.735 223
-0.759 0.143 1.54 1.735 221
-0.753 0.144 1.551 1.742 219
-0.744 0.144 1.557 1.744 221
-0.742 0.146 1.577 1.761 219
-0.728 0.145 1.573 1.751 220
-0.71 0.143 1.558 1.73 217
-0.706 0.144 1.574 1.743 217
-0.691 0.143 1.568 1.732 220
-0.687 0.144 1.583 1.744 219
-0.67 0.143 1.57 1.725 215
-0.663 0.143 1.579 1.731 213
-0.656 0.144 1.591 1.74 211
-0.647 0.144 1.595 1.74 213
-0.636 0.144 1.597 1.738 216
-0.63 0.145 1.608 1.746 220
-0.612 0.143 1.59 1.723 216
-0.603 0.143 1.597 1.726 218
-0.6 0.145 1.617 1.744 213
-0.587 0.144 1.611 1.734 216
-0.58 0.145 1.623 1.742 219
-0.569 0.144 1.621 1.737 216
-0.553 0.143 1.607 1.718 220
-0.549 0.144 1.628 1.738 220
-0.535 0.143 1.618 1.723 213
-0.534 0.145 1.646 1.749 214
-0.52 0.144 1.638 1.738 216
-0.514 0.145 1.652 1.749 214
-0.504 0.145 1.655 1.75 215
-0.491 0.144 1.645 1.736 216
-0.48 0.144 1.643 1.73 214
-0.469 0.144 1.643 1.728 208
-0.461 0.144 1.649 1.732 205
-0.454 0.145 1.664 1.744 204
-0.445 0.145 1.668 1.746 204
-0.432 0.144 1.66 1.734 205
-0.425 0.145 1.672 1.744 201
-0.415 0.145 1.674 1.744 203
-0.405 0.145 1.676 1.743 204
-0.396 0.145 1.682 1.748 202
-0.387 0.146 1.687 1.751 205
-0.377 0.145 1.687 1.749 202
-0.369 0.146 1.7 1.759 201
-0.359 0.146 1.699 1.756 205
-0.347 0.145 1.689 1.744 210
-0.336 0.145 1.687 1.74 208
-0.328 0.145 1.696 1.747 206
-0.318 0.146 1.699 1.748 207
-0.31 0.147 1.712 1.76 206
-0.3 0.146 1.711 1.757 209
-0.291 0.147 1.72 1.764 209
-0.281 0.147 1.717 1.76 204
-0.274 0.148 1.737 1.779 205
-0.262 0.147 1.725 1.765 207
-0.252 0.147 1.731 1.769 209
-0.242 0.147 1.731 1.767 207
-0.233 0.148 1.741 1.776 209
-0.224 0.149 1.749 1.783 212
-0.215 0.149 1.76 1.793 212
-0.205 0.149 1.759 1.791 206
-0.195 0.149 1.763 1.794 211
-0.186 0.15 1.773 1.802 213
-0.175 0.15 1.768 1.797 212
-0.165 0.15 1.772 1.8 213
-0.155 0.15 1.775 1.802 210
-0.145 0.15 1.771 1.797 204
-0.136 0.151 1.783 1.809 199
-0.125 0.151 1.783 1.807 191
-0.116 0.151 1.79 1.814 197
-0.105 0.151 1.786 1.809 195
-0.096 0.152 1.798 1.821 196
-0.085 0.151 1.79 1.812 199
-0.075 0.151 1.793 1.815 195
-0.065 0.152 1.797 1.818 193
-0.055 0.153 1.813 1.834 195
-0.044 0.151 1.795 1.816 192
-0.034 0.152 1.797 1.818 193
-0.024 0.153 1.814 1.835 190
-0.014 0.154 1.826 1.846 189
-0.003 0.153 1.817 1.837 190
0.006 0.153 1.821 1.841 189
0.017 0.154 1.824 1.844 189
0.027 0.153 1.819 1.84 186
0.038 0.154 1.831 1.852 185
0.048 0.155 1.836 1.857 184
0.059 0.155 1.84 1.862 183
0.07 0.156 1.851 1.873 187
0.08 0.155 1.836 1.858 186
0.091 0.157 1.859 1.882 181
0.102 0.157 1.86 1.884 180
0.112 0.156 1.85 1.874 178
0.123 0.157 1.86 1.885 179
0.134 0.157 1.861 1.886 178
0.145 0.157 1.861 1.887 179
0.157 0.159 1.878 1.906 187
0.167 0.159 1.875 1.903 191
0.178 0.159 1.874 1.903 195
0.19 0.159 1.884 1.914 194
0.202 0.16 1.893 1.924 192
0.211 0.159 1.882 1.914 196
0.223 0.16 1.89 1.924 195
0.235 0.161 1.896 1.931 191
0.245 0.16 1.887 1.923 186
0.257 0.161 1.895 1.934 181
0.267 0.16 1.886 1.926 169
0.277 0.16 1.884 1.926 167
0.29 0.161 1.894 1.937 164
0.298 0.16 1.876 1.92 160
0.31 0.16 1.881 1.927 158
0.324 0.162 1.899 1.948 152
0.334 0.161 1.889 1.939 151
0.345 0.161 1.887 1.939 149
0.362 0.164 1.92 1.975 147
0.37 0.163 1.9 1.957 143
0.382 0.163 1.907 1.966 144
0.39 0.162 1.889 1.95 143
0.403 0.163 1.898 1.961 140
0.416 0.164 1.904 1.97 141
0.429 0.164 1.909 1.978 137
0.437 0.163 1.896 1.967 138
0.456 0.166 1.926 2.001 138
0.468 0.166 1.925 2.002 136
0.474 0.165 1.904 1.983 136
0.492 0.167 1.925 2.008 132
0.497 0.165 1.901 1.985 131
0.513 0.166 1.915 2.003 131
0.528 0.168 1.929 2.021 130
0.541 0.168 1.931 2.026 127
0.553 0.168 1.929 2.028 125
0.566 0.169 1.932 2.034 127
0.578 0.169 1.933 2.039 126
0.597 0.171 1.953 2.063 123
0.61 0.172 1.956 2.07 124
0.624 0.172 1.958 2.076 123
0.621 0.168 1.909 2.028 116
0.647 0.172 1.95 2.076 115
0.665 0.174 1.968 2.098 113
0.669 0.172 1.941 2.074 116
0.689 0.174 1.961 2.1 115
0.703 0.174 1.963 2.107 112
0.72 0.176 1.974 2.122 106
0.733 0.176 1.975 2.128 107
0.752 0.178 1.99 2.148 107
0.771 0.179 2.002 2.166 108
0.775 0.177 1.977 2.144 104
0.791 0.178 1.983 2.156 103
0.804 0.179 1.982 2.16 106
0.819 0.179 1.985 2.168 103
0.842 0.182 2.006 2.197 103
0.859 0.183 2.013 2.21 101
0.865 0.181 1.992 2.193 98
0.885 0.183 2.005 2.213 98
0.907 0.185 2.023 2.239 93
0.92 0.185 2.019 2.24 96
0.931 0.184 2.009 2.236 98
0.955 0.187 2.029 2.264 97
0.968 0.187 2.026 2.266 95
0.985 0.188 2.029 2.277 95
1.001 0.188 2.03 2.284 92
1.021 0.19 2.039 2.301 90
1.022 0.188 2.01 2.276 87
1.051 0.19 2.036 2.313 81
1.064 0.19 2.03 2.313 87
1.083 0.192 2.037 2.328 85
1.108 0.194 2.053 2.354 87
1.118 0.193 2.042 2.35 85
1.145 0.196 2.061 2.379 83
1.155 0.195 2.048 2.372 81
-0.851 0.154 1.507 1.749 238
-0.836 0.153 1.503 1.738 236
-0.825 0.153 1.504 1.734 232
-0.815 0.153 1.508 1.733 232
-0.81 0.153 1.522 1.743 234
-0.805 0.154 1.534 1.751 228
-0.795 0.154 1.539 1.751 229
-0.783 0.154 1.538 1.745 229
-0.769 0.153 1.534 1.734 230
-0.76 0.153 1.541 1.737 228
-0.747 0.152 1.537 1.727 232
-0.742 0.153 1.552 1.739 231
-0.732 0.153 1.554 1.737 230
-0.715 0.152 1.544 1.72 228
-0.712 0.153 1.561 1.734 226
-0.699 0.152 1.558 1.726 228
-0.687 0.152 1.556 1.72 228
-0.68 0.153 1.567 1.727 225
-0.672 0.153 1.573 1.73 225
-0.658 0.152 1.567 1.719 217
-0.655 0.154 1.588 1.738 219
-0.635 0.151 1.566 1.709 217
-0.63 0.152 1.579 1.719 221
-0.621 0.152 1.586 1.723 221
-0.612 0.153 1.591 1.724 219
-0.599 0.152 1.584 1.713 225
-0.593 0.153 1.597 1.723 223
-0.581 0.152 1.594 1.716 223
-0.576 0.153 1.611 1.73 217
-0.564 0.153 1.608 1.723 215
-0.553 0.152 1.608 1.72 220
-0.547 0.153 1.621 1.731 220
-0.53 0.151 1.603 1.708 215
-0.525 0.153 1.618 1.721 219
-0.514 0.152 1.618 1.717 220
-0.507 0.153 1.627 1.724 219
-0.492 0.151 1.614 1.708 216
-0.486 0.153 1.628 1.719 220
-0.471 0.151 1.611 1.698 216
-0.465 0.152 1.628 1.713 217
-0.457 0.152 1.634 1.717 215
-0.451 0.154 1.652 1.732 215
-0.44 0.153 1.65 1.727 214
-0.431 0.154 1.656 1.731 214
-0.421 0.154 1.657 1.73 209
-0.412 0.154 1.661 1.732 206
-0.401 0.153 1.659 1.727 206
-0.392 0.154 1.663 1.729 209
-0.381 0.153 1.66 1.724 209
-0.375 0.154 1.676 1.738 207
-0.364 0.154 1.673 1.733 208
-0.355 0.154 1.678 1.736 206
-0.35 0.156 1.704 1.76 206
-0.337 0.155 1.691 1.744 210
-0.325 0.154 1.683 1.735 208
-0.313 0.153 1.673 1.722 213
-0.306 0.154 1.686 1.734 211
-0.298 0.155 1.7 1.746 209
-0.287 0.154 1.691 1.736 211
-0.28 0.156 1.711 1.754 210
-0.268 0.155 1.703 1.745 208
-0.258 0.155 1.702 1.742 208
-0.251 0.156 1.718 1.757 206
-0.241 0.157 1.724 1.761 206
-0.23 0.156 1.714 1.75 208
-0.221 0.156 1.72 1.755 208
-0.213 0.158 1.739 1.773 205
-0.202 0.157 1.735 1.767 208
-0.192 0.157 1.731 1.763 209
-0.182 0.157 1.736 1.766 210
-0.172 0.157 1.739 1.768 211
-0.164 0.159 1.759 1.788 212
-0.154 0.159 1.762 1.789 214
-0.144 0.159 1.761 1.788 213
-0.134 0.159 1.765 1.791 209
-0.124 0.159 1.765 1.79 196
-0.114 0.159 1.762 1.787 205
-0.105 0.161 1.785 1.809 205
-0.094 0.16 1.77 1.794 205
-0.084 0.16 1.78 1.803 205
-0.075 0.161 1.788 1.811 199
-0.064 0.159 1.767 1.789 197
-0.054 0.161 1.785 1.807 200
-0.044 0.16 1.778 1.8 197
-0.034 0.161 1.789 1.81 198
-0.024 0.161 1.792 1.813 195
-0.013 0.162 1.8 1.821 190
-0.003 0.161 1.791 1.812 192
0.006 0.163 1.81 1.831 194
0.016 0.162 1.802 1.823 194
0.027 0.162 1.799 1.82 192
0.037 0.164 1.82 1.842 188
0.048 0.164 1.823 1.845 187
0.058 0.163 1.81 1.832 188
0.069 0.165 1.829 1.852 185
0.079 0.165 1.833 1.856 186
0.09 0.166 1.836 1.86 186
0.101 0.166 1.845 1.87 181
0.111 0.165 1.835 1.86 182
0.123 0.167 1.851 1.877 181
0.132 0.166 1.836 1.863 187
0.144 0.168 1.856 1.883 186
0.154 0.167 1.845 1.873 193
0.166 0.168 1.855 1.884 198
0.177 0.169 1.865 1.895 194
0.188 0.168 1.863 1.894 196
0.199 0.169 1.866 1.898 196
0.208 0.168 1.855 1.888 193
0.222 0.17 1.883 1.917 190
0.23 0.168 1.859 1.895 186
0.243 0.17 1.873 1.91 185
0.252 0.169 1.86 1.899 175
0.266 0.17 1.878 1.918 169
0.274 0.169 1.86 1.902 172
0.284 0.169 1.856 1.899 165
0.296 0.169 1.859 1.904 164
0.307 0.17 1.862 1.908 159
0.32 0.171 1.873 1.921 158
0.331 0.171 1.876 1.926 155
0.345 0.172 1.886 1.939 154
0.354 0.172 1.877 1.931 149
0.366 0.172 1.883 1.94 148
0.373 0.17 1.86 1.919 149
0.387 0.172 1.873 1.935 148
0.399 0.172 1.876 1.94 145
0.415 0.174 1.896 1.963 145
0.424 0.173 1.885 1.954 145
0.439 0.175 1.9 1.972 144
0.444 0.173 1.876 1.949 143
0.462 0.175 1.899 1.976 140
0.476 0.176 1.908 1.988 140
0.485 0.176 1.9 1.983 138
0.499 0.177 1.908 1.994 138
0.516 0.179 1.927 2.017 134
0.52 0.176 1.897 1.989 135
0.536 0.178 1.911 2.007 132
0.55 0.179 1.917 2.016 130
0.561 0.179 1.915 2.018 133
0.578 0.18 1.93 2.036 131
0.59 0.181 1.929 2.039 126
0.607 0.182 1.943 2.057 124
0.612 0.18 1.919 2.036 125
0.623 0.18 1.917 2.037 124
0.641 0.182 1.932 2.058 124
0.655 0.183 1.936 2.066 121
0.677 0.186 1.963 2.099 121
0.687 0.185 1.954 2.093 118
0.687 0.182 1.918 2.059 111
0.718 0.187 1.967 2.116 109
0.73 0.187 1.963 2.117 112
0.75 0.189 1.982 2.142 112
0.753 0.187 1.954 2.116 112
0.765 0.187 1.95 2.117 109
0.781 0.188 1.958 2.13 109
0.794 0.188 1.956 2.133 112
0.822 0.192 1.99 2.175 110
0.826 0.19 1.966 2.154 108
0.841 0.191 1.969 2.163 105
0.863 0.193 1.987 2.188 101
0.869 0.192 1.969 2.174 98
0.881 0.192 1.964 2.175 101
0.905 0.194 1.985 2.204 97
0.927 0.196 2 2.226 97
0.947 0.198 2.011 2.245 100
0.956 0.197 1.998 2.237 98
0.975 0.198 2.007 2.253 96
0.988 0.199 2.003 2.256 93
1.003 0.199 2.003 2.263 98
1.027 0.201 2.019 2.287 89
1.037 0.201 2.008 2.282 89
1.051 0.201 2.005 2.286 92
1.073 0.203 2.016 2.306 87
1.097 0.205 2.032 2.332 91
1.115 0.206 2.034 2.342 88
1.14 0.208 2.049 2.367 87
1.149 0.207 2.036 2.36 86
-0.839 0.161 1.483 1.723 237
-0.829 0.161 1.488 1.723 238
-0.818 0.161 1.491 1.72 243
-0.808 0.161 1.494 1.717 239
-0.804 0.162 1.51 1.73 237
-0.79 0.161 1.505 1.719 236
-0.786 0.162 1.52 1.73 238
-0.767 0.16 1.506 1.71 239
-0.763 0.161 1.522 1.722 240
-0.753 0.161 1.526 1.721 233
-0.735 0.16 1.512 1.701 235
-0.729 0.16 1.524 1.709 237
-0.726 0.162 1.542 1.725 237
-0.711 0.161 1.534 1.71 233
-0.7 0.16 1.535 1.707 235
-0.695 0.161 1.548 1.716 235
-0.683 0.161 1.546 1.709 238
-0.671 0.16 1.544 1.703 238
-0.668 0.162 1.563 1.72 233
-0.656 0.161 1.563 1.715 234
-0.649 0.162 1.572 1.721 227
-0.635 0.161 1.564 1.708 228
-0.625 0.161 1.567 1.707 224
-0.613 0.16 1.565 1.701 220
-0.609 0.161 1.582 1.715 222
-0.594 0.16 1.571 1.7 226
-0.586 0.161 1.579 1.704 226
-0.578 0.161 1.585 1.707 227
-0.566 0.16 1.582 1.7 227
-0.561 0.162 1.599 1.715 220
-0.549 0.161 1.594 1.706 223
-0.538 0.161 1.594 1.703 225
-0.531 0.161 1.605 1.711 219
-0.52 0.161 1.602 1.705 220
-0.513 0.162 1.613 1.713 222
-0.496 0.159 1.591 1.687 224
-0.491 0.161 1.608 1.702 221
-0.481 0.161 1.611 1.702 219
-0.47 0.16 1.609 1.697 225
-0.464 0.161 1.621 1.707 222
-0.456 0.162 1.631 1.714 218
-0.45 0.163 1.646 1.727 215
-0.434 0.161 1.627 1.704 217
-0.425 0.161 1.63 1.706 214
-0.418 0.162 1.641 1.714 209
-0.407 0.161 1.638 1.708 211
-0.398 0.162 1.645 1.713 212
-0.39 0.162 1.652 1.718 213
-0.377 0.161 1.642 1.706 209
-0.37 0.162 1.654 1.716 210
-0.36 0.162 1.654 1.714 215
-0.352 0.163 1.664 1.722 212
-0.342 0.162 1.663 1.719 210
-0.332 0.162 1.665 1.719 212
-0.324 0.163 1.675 1.727 209
-0.316 0.164 1.686 1.736 214
-0.307 0.164 1.69 1.739 210
-0.295 0.164 1.683 1.73 210
-0.284 0.163 1.676 1.721 207
-0.275 0.163 1.68 1.724 206
-0.265 0.163 1.683 1.726 208
-0.256 0.164 1.69 1.731 207
-0.25 0.166 1.711 1.751 208
-0.239 0.165 1.708 1.746 209
-0.228 0.164 1.699 1.736 206
-0.219 0.165 1.706 1.742 205
-0.208 0.164 1.701 1.736 203
-0.2 0.165 1.713 1.746 210
-0.191 0.166 1.726 1.758 204
-0.181 0.166 1.725 1.756 204
-0.171 0.166 1.72 1.75 206
-0.161 0.166 1.727 1.757 206
-0.153 0.168 1.744 1.772 206
-0.142 0.167 1.734 1.761 213
-0.133 0.168 1.749 1.776 211
-0.122 0.167 1.736 1.762 201
-0.113 0.168 1.749 1.775 210
-0.103 0.168 1.751 1.776 215
-0.093 0.168 1.75 1.774 212
-0.083 0.168 1.752 1.776 210
-0.074 0.169 1.766 1.789 209
-0.064 0.17 1.773 1.796 208
-0.054 0.17 1.776 1.799 206
-0.044 0.171 1.78 1.802 202
-0.033 0.17 1.773 1.796 203
-0.023 0.17 1.771 1.793 198
-0.013 0.169 1.76 1.782 195
-0.003 0.172 1.797 1.819 198
0.006 0.171 1.781 1.804 194
0.016 0.171 1.786 1.809 194
0.026 0.171 1.783 1.806 198
0.037 0.172 1.798 1.821 195
0.047 0.173 1.81 1.833 192
0.058 0.173 1.805 1.828 187
0.068 0.173 1.809 1.832 188
0.078 0.173 1.801 1.825 186
0.089 0.174 1.809 1.834 184
0.099 0.174 1.813 1.838 185
0.11 0.175 1.823 1.848 185
0.121 0.175 1.826 1.853 185
0.131 0.175 1.819 1.847 185
0.143 0.177 1.84 1.868 189
0.153 0.176 1.83 1.859 193
0.164 0.177 1.838 1.868 202
0.173 0.175 1.818 1.849 192
0.187 0.178 1.851 1.883 192
0.197 0.178 1.846 1.879 195
0.208 0.178 1.848 1.882 194
0.217 0.177 1.839 1.874 192
0.23 0.179 1.857 1.894 193
0.238 0.177 1.837 1.875 187
0.25 0.178 1.846 1.886 177
0.261 0.179 1.848 1.889 173
0.272 0.178 1.846 1.888 172
0.283 0.179 1.85 1.895 168
0.297 0.181 1.865 1.911 166
0.306 0.18 1.856 1.903 161
0.315 0.179 1.844 1.893 159
0.327 0.179 1.848 1.899 158
0.339 0.18 1.853 1.906 159
0.349 0.18 1.851 1.906 151
0.361 0.181 1.856 1.913 152
0.373 0.181 1.861 1.921 153
0.385 0.182 1.861 1.923 150
0.392 0.18 1.843 1.907 150
0.411 0.183 1.877 1.944 150
0.424 0.185 1.888 1.958 151
0.429 0.182 1.858 1.93 149
0.443 0.183 1.869 1.943 146
0.457 0.185 1.879 1.957 144
0.465 0.183 1.865 1.945 138
0.486 0.187 1.901 1.985 141
0.492 0.185 1.881 1.967 140
0.502 0.185 1.875 1.964 135
0.517 0.186 1.886 1.978 140
0.533 0.188 1.9 1.997 138
0.54 0.187 1.883 1.982 136
0.553 0.187 1.885 1.987 135
0.571 0.19 1.905 2.012 137
0.582 0.189 1.901 2.011 136
0.598 0.191 1.915 2.029 130
0.61 0.191 1.913 2.03 128
0.623 0.192 1.915 2.037 127
0.628 0.19 1.892 2.016 125
0.645 0.192 1.906 2.036 122
0.654 0.191 1.895 2.027 122
0.673 0.193 1.913 2.051 118
0.688 0.194 1.919 2.062 116
0.706 0.196 1.933 2.081 117
0.724 0.197 1.948 2.101 115
0.734 0.197 1.939 2.096 119
0.751 0.198 1.949 2.112 116
0.768 0.2 1.957 2.126 113
0.77 0.197 1.928 2.099 113
0.791 0.199 1.946 2.124 117
0.81 0.201 1.961 2.145 112
0.82 0.201 1.952 2.14 111
0.839 0.203 1.964 2.159 109
0.854 0.203 1.966 2.167 108
0.869 0.204 1.967 2.174 109
0.877 0.203 1.952 2.163 103
0.89 0.203 1.951 2.167 103
0.921 0.207 1.986 2.213 99
0.927 0.206 1.968 2.198 99
0.945 0.207 1.974 2.212 101
0.965 0.209 1.986 2.231 102
0.976 0.209 1.977 2.228 100
0.982 0.207 1.959 2.215 99
1.006 0.21 1.977 2.241 97
1.02 0.21 1.975 2.246 94
1.053 0.214 2.009 2.291 90
1.068 0.215 2.005 2.295 93
1.08 0.214 1.999 2.295 94
1.1 0.216 2.006 2.311 95
1.105 0.214 1.986 2.296 91
1.132 0.217 2.005 2.326 87
-0.831 0.169 1.469 1.708 245
-0.824 0.17 1.478 1.712 246
-0.814 0.17 1.483 1.712 247
-0.804 0.17 1.485 1.709 241
-0.792 0.169 1.485 1.703 245
-0.786 0.17 1.497 1.712 243
-0.781 0.171 1.509 1.72 245
-0.762 0.169 1.495 1.698 241
-0.755 0.169 1.504 1.703 242
-0.742 0.169 1.502 1.695 241
-0.732 0.169 1.506 1.695 240
-0.727 0.17 1.519 1.705 240
-0.717 0.169 1.522 1.703 239
-0.715 0.171 1.541 1.719 240
-0.695 0.169 1.521 1.693 239
-0.683 0.168 1.521 1.688 240
-0.679 0.169 1.536 1.7 241
-0.667 0.169 1.534 1.694 240
-0.66 0.169 1.545 1.701 238
-0.646 0.168 1.536 1.688 233
-0.644 0.17 1.559 1.708 231
-0.621 0.167 1.53 1.672 236
-0.616 0.168 1.543 1.682 230
-0.608 0.168 1.549 1.685 223
-0.602 0.169 1.562 1.695 221
-0.589 0.168 1.556 1.685 222
-0.583 0.169 1.569 1.694 229
-0.572 0.169 1.567 1.69 236
-0.561 0.168 1.566 1.685 233
-0.558 0.17 1.59 1.706 229
-0.547 0.17 1.588 1.701 229
-0.533 0.169 1.578 1.687 232
-0.521 0.167 1.571 1.676 228
-0.516 0.169 1.588 1.691 230
-0.509 0.17 1.598 1.699 231
-0.499 0.17 1.6 1.697 222
-0.488 0.169 1.598 1.693 225
-0.479 0.169 1.603 1.695 224
-0.471 0.17 1.611 1.701 229
-0.459 0.169 1.605 1.691 228
-0.454 0.171 1.623 1.707 225
-0.439 0.169 1.607 1.688 224
-0.431 0.169 1.612 1.69 224
-0.424 0.17 1.625 1.702 224
-0.416 0.171 1.633 1.707 223
-0.403 0.17 1.622 1.693 213
-0.396 0.171 1.634 1.703 223
-0.389 0.172 1.647 1.714 219
-0.378 0.171 1.646 1.711 217
-0.37 0.172 1.655 1.718 217
-0.357 0.17 1.642 1.702 216
-0.349 0.171 1.651 1.71 215
-0.339 0.171 1.647 1.704 216
-0.332 0.172 1.663 1.718 216
-0.319 0.171 1.651 1.704 212
-0.312 0.172 1.666 1.718 214
-0.301 0.171 1.657 1.707 209
-0.293 0.172 1.671 1.719 210
-0.28 0.17 1.651 1.697 208
-0.274 0.172 1.676 1.721 210
-0.265 0.173 1.679 1.723 210
-0.254 0.172 1.67 1.711 208
-0.247 0.173 1.689 1.73 212
-0.236 0.173 1.684 1.723 209
-0.228 0.174 1.696 1.734 213
-0.218 0.174 1.696 1.732 207
-0.207 0.173 1.693 1.728 205
-0.198 0.173 1.695 1.73 207
-0.189 0.174 1.702 1.735 205
-0.18 0.175 1.715 1.747 205
-0.17 0.175 1.712 1.743 205
-0.161 0.176 1.722 1.752 208
-0.15 0.174 1.708 1.738 202
-0.141 0.176 1.722 1.751 204
-0.131 0.175 1.714 1.742 205
-0.121 0.175 1.719 1.746 203
-0.112 0.176 1.731 1.757 205
-0.102 0.177 1.734 1.76 210
-0.093 0.177 1.741 1.766 209
-0.083 0.178 1.749 1.774 214
-0.073 0.177 1.745 1.769 210
-0.063 0.178 1.755 1.779 214
-0.053 0.178 1.746 1.769 209
-0.043 0.179 1.76 1.784 206
-0.033 0.179 1.758 1.781 208
-0.023 0.18 1.769 1.792 207
-0.013 0.18 1.774 1.797 207
-0.003 0.18 1.77 1.793 206
0.006 0.181 1.777 1.8 200
0.016 0.18 1.774 1.797 198
0.026 0.18 1.771 1.794 201
0.037 0.183 1.798 1.822 199
0.047 0.181 1.778 1.801 191
0.057 0.182 1.788 1.813 190
0.067 0.18 1.773 1.797 194
0.078 0.182 1.792 1.817 191
0.088 0.182 1.786 1.811 189
0.1 0.185 1.817 1.843 185
0.11 0.185 1.818 1.845 186
0.12 0.184 1.806 1.833 184
0.13 0.184 1.81 1.838 190
0.141 0.185 1.818 1.847 191
0.152 0.185 1.82 1.85 196
0.162 0.185 1.816 1.846 202
0.173 0.186 1.819 1.851 194
0.184 0.186 1.823 1.855 189
0.194 0.186 1.823 1.857 193
0.205 0.186 1.825 1.86 192
0.217 0.187 1.832 1.868 193
0.227 0.187 1.83 1.867 189
0.237 0.187 1.823 1.862 187
0.248 0.187 1.824 1.864 179
0.258 0.187 1.825 1.866 174
0.271 0.188 1.836 1.88 175
0.281 0.188 1.831 1.876 171
0.292 0.189 1.838 1.884 170
0.297 0.185 1.802 1.85 167
0.313 0.188 1.828 1.878 166
0.326 0.19 1.843 1.895 163
0.337 0.19 1.842 1.896 159
0.346 0.189 1.832 1.888 155
0.357 0.189 1.831 1.889 156
0.368 0.19 1.834 1.894 153
0.384 0.192 1.857 1.92 152
0.391 0.19 1.838 1.902 153
0.403 0.191 1.841 1.908 155
0.422 0.195 1.877 1.948 153
0.429 0.193 1.856 1.928 151
0.44 0.193 1.853 1.929 148
0.452 0.194 1.859 1.937 146
0.462 0.193 1.851 1.931 142
0.475 0.194 1.859 1.942 143
0.485 0.194 1.852 1.939 142
0.497 0.194 1.854 1.943 142
0.513 0.196 1.871 1.964 139
0.523 0.196 1.863 1.959 141
0.54 0.198 1.883 1.983 138
0.552 0.198 1.883 1.986 140
0.563 0.198 1.879 1.985 139
0.583 0.201 1.906 2.017 135
0.589 0.2 1.886 2 137
0.599 0.199 1.876 1.993 134
0.619 0.202 1.901 2.023 134
0.63 0.202 1.896 2.022 130
0.65 0.205 1.92 2.051 125
0.657 0.203 1.903 2.037 125
0.673 0.204 1.912 2.051 123
0.685 0.205 1.909 2.052 124
0.699 0.205 1.914 2.062 123
0.708 0.205 1.903 2.055 122
0.724 0.206 1.911 2.068 123
0.73 0.204 1.892 2.052 123
0.751 0.207 1.912 2.078 119
0.773 0.21 1.935 2.108 118
0.774 0.207 1.903 2.078 116
0.794 0.209 1.921 2.103 118
0.812 0.211 1.931 2.119 114
0.828 0.212 1.937 2.131 117
0.84 0.212 1.931 2.13 109
0.862 0.214 1.951 2.158 109
0.877 0.215 1.952 2.164 108
0.893 0.216 1.957 2.176 104
0.897 0.214 1.933 2.155 103
0.913 0.215 1.936 2.165 106
0.925 0.215 1.932 2.166 105
0.953 0.219 1.959 2.202 107
0.962 0.218 1.947 2.196 102
0.981 0.219 1.956 2.213 105
0.997 0.22 1.957 2.221 101
1.018 0.222 1.968 2.24 96
1.033 0.223 1.969 2.248 100
1.05 0.224 1.972 2.258 101
1.064 0.224 1.967 2.261 95
1.088 0.226 1.982 2.286 94
1.098 0.226 1.973 2.282 97
1.129 0.229 1.998 2.32 91
-0.837 0.18 1.478 1.719 245
-0.815 0.177 1.461 1.694 243
-0.806 0.178 1.467 1.695 249
-0.801 0.178 1.479 1.703 253
-0.793 0.179 1.486 1.706 245
-0.778 0.178 1.48 1.693 246
-0.768 0.178 1.484 1.692 247
-0.752 0.176 1.475 1.677 251
-0.745 0.177 1.484 1.682 249
-0.742 0.178 1.5 1.695 249
-0.732 0.178 1.503 1.693 248
-0.72 0.177 1.502 1.687 242
-0.71 0.177 1.505 1.685 247
-0.707 0.179 1.522 1.7 244
-0.693 0.178 1.516 1.688 247
-0.679 0.177 1.511 1.678 245
-0.673 0.177 1.522 1.686 234
-0.663 0.177 1.524 1.684 241
-0.653 0.177 1.527 1.683 242
-0.641 0.176 1.524 1.675 230
-0.633 0.177 1.531 1.679 228
-0.631 0.179 1.552 1.697 236
-0.615 0.177 1.54 1.68 241
-0.612 0.179 1.561 1.699 239
-0.603 0.179 1.565 1.699 225
-0.582 0.176 1.538 1.666 231
-0.577 0.177 1.551 1.677 237
-0.569 0.177 1.559 1.681 232
-0.564 0.179 1.573 1.694 237
-0.551 0.178 1.568 1.684 238
-0.538 0.177 1.561 1.673 237
-0.529 0.176 1.563 1.672 237
-0.524 0.178 1.58 1.687 233
-0.514 0.178 1.58 1.684 233
-0.501 0.177 1.574 1.674 233
-0.493 0.177 1.581 1.679 233
-0.482 0.176 1.576 1.671 234
-0.477 0.178 1.596 1.688 230
-0.467 0.178 1.595 1.685 232
-0.454 0.177 1.586 1.672 228
-0.447 0.177 1.595 1.679 227
-0.437 0.177 1.596 1.677 231
-0.427 0.177 1.597 1.675 230
-0.418 0.177 1.602 1.678 228
-0.413 0.179 1.621 1.695 225
-0.399 0.177 1.605 1.677 228
-0.391 0.178 1.611 1.681 227
-0.383 0.179 1.621 1.689 222
-0.371 0.177 1.611 1.676 223
-0.365 0.179 1.631 1.695 221
-0.351 0.177 1.613 1.673 227
-0.344 0.178 1.625 1.684 223
-0.337 0.179 1.636 1.694 224
-0.328 0.18 1.645 1.7 217
-0.318 0.18 1.644 1.698 221
-0.309 0.18 1.644 1.696 221
-0.299 0.18 1.648 1.698 215
-0.292 0.181 1.66 1.709 212
-0.283 0.181 1.665 1.712 213
-0.273 0.181 1.665 1.71 211
-0.261 0.18 1.653 1.697 215
-0.254 0.182 1.673 1.715 213
-0.242 0.18 1.658 1.699 212
-0.233 0.18 1.66 1.699 210
-0.224 0.181 1.668 1.707 207
-0.215 0.182 1.677 1.714 209
-0.205 0.181 1.669 1.704 210
-0.197 0.182 1.683 1.718 206
-0.187 0.182 1.683 1.716 206
-0.178 0.182 1.689 1.722 206
-0.169 0.184 1.701 1.733 204
-0.157 0.181 1.681 1.712 207
-0.15 0.185 1.711 1.742 207
-0.139 0.183 1.696 1.725 206
-0.13 0.184 1.705 1.734 206
-0.12 0.184 1.706 1.733 203
-0.11 0.184 1.704 1.732 203
-0.102 0.186 1.726 1.753 208
-0.091 0.184 1.709 1.735 205
-0.081 0.184 1.709 1.735 206
-0.072 0.185 1.723 1.748 202
-0.062 0.186 1.73 1.755 203
-0.053 0.187 1.744 1.769 204
-0.043 0.186 1.732 1.757 201
-0.033 0.187 1.745 1.769 205
-0.023 0.186 1.734 1.758 204
-0.013 0.189 1.757 1.781 208
-0.003 0.188 1.751 1.775 209
0.006 0.188 1.748 1.772 207
0.016 0.19 1.765 1.789 208
0.026 0.189 1.759 1.783 209
0.036 0.189 1.76 1.785 205
0.046 0.19 1.769 1.794 207
0.057 0.191 1.778 1.804 200
0.067 0.191 1.779 1.804 197
0.076 0.189 1.758 1.784 199
0.088 0.193 1.792 1.818 195
0.097 0.19 1.762 1.789 196
0.108 0.191 1.778 1.805 193
0.118 0.191 1.777 1.805 194
0.129 0.192 1.788 1.817 199
0.141 0.195 1.809 1.839 198
0.152 0.196 1.816 1.847 203
0.161 0.194 1.804 1.836 202
0.171 0.194 1.801 1.833 196
0.183 0.195 1.811 1.845 191
0.192 0.195 1.804 1.838 188
0.204 0.196 1.814 1.85 193
0.214 0.195 1.807 1.844 194
0.226 0.197 1.821 1.86 191
0.234 0.195 1.802 1.841 187
0.245 0.196 1.808 1.849 180
0.256 0.196 1.805 1.848 179
0.266 0.196 1.807 1.851 178
0.278 0.197 1.813 1.859 178
0.287 0.196 1.803 1.85 172
0.299 0.197 1.812 1.862 169
0.311 0.198 1.819 1.871 168
0.324 0.199 1.829 1.882 165
0.333 0.198 1.822 1.877 164
0.346 0.199 1.829 1.886 159
0.353 0.197 1.809 1.868 159
0.367 0.2 1.826 1.887 157
0.382 0.202 1.846 1.91 156
0.387 0.199 1.816 1.882 159
0.401 0.2 1.829 1.897 161
0.418 0.204 1.856 1.927 156
0.424 0.201 1.832 1.905 154
0.436 0.202 1.837 1.913 150
0.45 0.204 1.848 1.927 150
0.46 0.203 1.841 1.922 149
0.469 0.202 1.832 1.916 148
0.483 0.204 1.843 1.93 145
0.501 0.207 1.866 1.957 147
0.505 0.204 1.84 1.933 147
0.521 0.206 1.855 1.952 143
0.529 0.205 1.842 1.941 140
0.547 0.208 1.865 1.968 139
0.562 0.209 1.873 1.981 140
0.569 0.208 1.858 1.968 138
0.587 0.21 1.878 1.993 139
0.596 0.209 1.866 1.984 139
0.609 0.21 1.869 1.991 137
0.626 0.212 1.885 2.011 134
0.64 0.213 1.889 2.02 129
0.656 0.214 1.899 2.035 129
0.666 0.214 1.891 2.03 131
0.675 0.213 1.882 2.024 128
0.688 0.214 1.883 2.029 125
0.703 0.215 1.889 2.04 124
0.721 0.217 1.903 2.06 127
0.734 0.217 1.902 2.064 123
0.746 0.217 1.899 2.065 121
0.759 0.218 1.899 2.071 120
0.768 0.217 1.887 2.063 123
0.793 0.221 1.917 2.1 119
0.805 0.221 1.912 2.1 121
0.819 0.221 1.913 2.106 119
0.835 0.222 1.919 2.118 119
0.849 0.223 1.921 2.125 113
0.858 0.222 1.908 2.117 115
0.875 0.224 1.914 2.13 113
0.898 0.227 1.935 2.159 106
0.912 0.227 1.935 2.165 107
0.938 0.23 1.958 2.196 106
0.948 0.23 1.948 2.191 108
0.968 0.232 1.958 2.21 111
0.975 0.23 1.942 2.199 108
1.003 0.234 1.969 2.236 108
1.005 0.232 1.942 2.212 104
1.023 0.233 1.947 2.225 100
1.041 0.234 1.953 2.239 102
1.057 0.235 1.953 2.246 104
1.077 0.237 1.96 2.262 96
1.089 0.236 1.954 2.262 100
1.112 0.239 1.966 2.285 100
-0.826 0.187 1.458 1.698 251
-0.813 0.186 1.456 1.689 250
-0.807 0.187 1.467 1.697 249
-0.79 0.185 1.457 1.679 248
-0.784 0.186 1.468 1.687 254
-0.782 0.188 1.486 1.702 250
-0.762 0.185 1.47 1.678 248
-0.751 0.185 1.471 1.674 253
-0.74 0.185 1.473 1.671 249
-0.736 0.186 1.486 1.681 253
-0.723 0.185 1.484 1.673 248
-0.718 0.186 1.498 1.684 245
-0.704 0.185 1.492 1.672 247
-0.699 0.186 1.504 1.681 251
-0.688 0.186 1.504 1.677 244
-0.682 0.187 1.515 1.684 242
-0.671 0.186 1.516 1.68 232
-0.663 0.187 1.523 1.684 241
-0.653 0.186 1.525 1.682 239
-0.64 0.185 1.52 1.672 231
-0.63 0.185 1.523 1.671 238
-0.62 0.185 1.524 1.668 244
-0.607 0.184 1.518 1.657 243
-0.6 0.185 1.527 1.663 245
-0.591 0.185 1.533 1.666 242
-0.581 0.185 1.534 1.664 242
-0.571 0.185 1.536 1.662 241
-0.562 0.184 1.538 1.66 241
-0.553 0.185 1.544 1.663 244
-0.544 0.185 1.547 1.663 242
-0.538 0.186 1.558 1.671 240
-0.52 0.183 1.535 1.644 241
-0.517 0.185 1.559 1.666 240
-0.508 0.185 1.561 1.665 238
-0.498 0.185 1.563 1.664 238
-0.491 0.186 1.571 1.67 237
-0.481 0.185 1.572 1.667 241
-0.469 0.185 1.566 1.658 234
-0.467 0.187 1.594 1.684 229
-0.451 0.185 1.576 1.663 232
-0.443 0.185 1.581 1.665 234
-0.434 0.186 1.586 1.668 232
-0.422 0.185 1.578 1.657 232
-0.414 0.185 1.585 1.661 231
-0.407 0.186 1.597 1.672 230
-0.399 0.187 1.605 1.677 230
-0.386 0.185 1.591 1.661 228
-0.379 0.186 1.605 1.673 229
-0.371 0.187 1.613 1.679 227
-0.359 0.186 1.603 1.666 230
-0.351 0.186 1.611 1.673 231
-0.34 0.185 1.603 1.662 229
-0.334 0.188 1.625 1.683 227
-0.325 0.187 1.624 1.68 228
-0.315 0.187 1.624 1.678 221
-0.304 0.186 1.618 1.67 222
-0.297 0.188 1.634 1.685 218
-0.285 0.186 1.618 1.667 218
-0.278 0.188 1.638 1.686 218
-0.27 0.189 1.645 1.691 217
-0.261 0.19 1.654 1.699 216
-0.25 0.188 1.643 1.686 217
-0.24 0.188 1.64 1.682 214
-0.23 0.187 1.639 1.68 213
-0.223 0.19 1.661 1.7 207
-0.213 0.189 1.659 1.697 208
-0.205 0.19 1.667 1.703 213
-0.196 0.191 1.673 1.709 213
-0.184 0.188 1.654 1.689 208
-0.176 0.19 1.672 1.706 209
-0.166 0.19 1.673 1.706 208
-0.156 0.19 1.667 1.699 210
-0.147 0.19 1.669 1.699 206
-0.138 0.191 1.685 1.715 208
-0.128 0.19 1.677 1.706 207
-0.119 0.191 1.684 1.712 209
-0.109 0.191 1.683 1.711 206
-0.1 0.191 1.688 1.715 208
-0.09 0.192 1.691 1.718 209
-0.08 0.19 1.68 1.706 209
-0.071 0.193 1.698 1.725 207
-0.062 0.194 1.714 1.74 206
-0.052 0.194 1.711 1.737 205
-0.042 0.194 1.712 1.737 203
-0.033 0.195 1.724 1.749 202
-0.023 0.194 1.713 1.738 200
-0.013 0.195 1.724 1.749 204
-0.003 0.195 1.721 1.746 203
0.006 0.196 1.727 1.752 200
0.016 0.196 1.734 1.759 204
0.026 0.196 1.732 1.758 205
0.036 0.199 1.754 1.78 204
0.046 0.199 1.76 1.786 208
0.056 0.197 1.74 1.766 209
0.066 0.198 1.748 1.774 206
0.077 0.201 1.77 1.797 206
0.087 0.201 1.774 1.802 202
0.097 0.201 1.769 1.797 204
0.107 0.201 1.771 1.8 203
0.118 0.201 1.773 1.802 200
0.128 0.201 1.773 1.803 197
0.138 0.202 1.779 1.81 201
0.149 0.202 1.782 1.814 204
0.16 0.203 1.786 1.818 203
0.171 0.204 1.799 1.833 203
0.181 0.204 1.79 1.825 198
0.193 0.206 1.807 1.843 186
0.201 0.203 1.782 1.819 194
0.213 0.205 1.799 1.837 193
0.223 0.204 1.792 1.832 190
0.233 0.204 1.793 1.834 182
0.243 0.204 1.791 1.833 180
0.255 0.205 1.8 1.843 181
0.264 0.204 1.788 1.833 181
0.274 0.204 1.788 1.834 177
0.288 0.207 1.808 1.856 177
0.298 0.206 1.802 1.852 173
0.308 0.207 1.802 1.854 171
0.319 0.206 1.799 1.853 169
0.332 0.208 1.815 1.871 163
0.341 0.207 1.803 1.86 165
0.353 0.208 1.812 1.872 164
0.361 0.207 1.796 1.858 163
0.373 0.208 1.802 1.866 161
0.387 0.209 1.815 1.882 161
0.397 0.209 1.811 1.88 162
0.411 0.211 1.824 1.895 158
0.423 0.211 1.826 1.901 161
0.431 0.21 1.814 1.89 155
0.443 0.211 1.82 1.899 153
0.454 0.211 1.817 1.899 151
0.466 0.212 1.819 1.903 145
0.481 0.214 1.833 1.921 145
0.493 0.214 1.836 1.927 147
0.506 0.215 1.843 1.937 147
0.518 0.216 1.844 1.941 148
0.522 0.213 1.816 1.915 143
0.541 0.216 1.841 1.945 142
0.549 0.215 1.829 1.936 142
0.563 0.216 1.838 1.948 141
0.576 0.217 1.839 1.953 143
0.588 0.217 1.839 1.957 143
0.601 0.218 1.843 1.965 140
0.618 0.22 1.86 1.986 137
0.629 0.22 1.855 1.985 134
0.645 0.222 1.867 2.002 134
0.662 0.224 1.878 2.018 135
0.673 0.224 1.873 2.017 132
0.689 0.225 1.885 2.033 129
0.699 0.225 1.877 2.029 128
0.716 0.227 1.887 2.044 128
0.721 0.225 1.868 2.029 130
