# .PCD v0.7 - Point Cloud Data file format
VERSION 0.7
FIELDS x y z d a
SIZE 4 4 4 4 4
TYPE F F F F F
COUNT 1 1 1 1 1
WIDTH 1703
HEIGHT 1
VIEWPOINT 0 0 0 1 0 0 0
POINTS 1703
DATA ascii
0.968 -0.032 2.355 2.56 60
0.98 -0.032 2.345 2.555 59
0.987 -0.031 2.322 2.538 58
1.025 -0.032 2.373 2.599 58
1.016 -0.031 2.311 2.539 58
1.059 -0.032 2.372 2.611 57
1.052 -0.032 2.317 2.559 57
1.09 -0.032 2.364 2.617 53
1.102 -0.032 2.352 2.611 54
1.134 -0.033 2.384 2.654 54
1.157 -0.033 2.393 2.672 52
1.169 -0.033 2.381 2.666 56
1.191 -0.033 2.389 2.683 53
1.206 -0.033 2.384 2.685 55
1.229 -0.033 2.391 2.702 50
1.243 -0.033 2.383 2.701 53
1.269 -0.034 2.396 2.725 51
1.316 -0.035 2.449 2.794 51
1.306 -0.034 2.395 2.741 50
1.328 -0.034 2.401 2.757 47
1.354 -0.034 2.412 2.779 51
-1.035 -0.014 1.844 2.127 113
-1.018 -0.014 1.841 2.115 110
-1.016 -0.014 1.865 2.136 110
-0.987 -0.014 1.838 2.098 110
-0.993 -0.014 1.876 2.135 109
-0.965 -0.014 1.851 2.1 112
-0.957 -0.014 1.864 2.107 114
-0.935 -0.014 1.849 2.085 120
-0.926 -0.014 1.859 2.088 118
-0.921 -0.014 1.878 2.104 116
-0.916 -0.014 1.897 2.119 117
-0.888 -0.014 1.868 2.081 117
-0.886 -0.014 1.894 2.104 116
-0.869 -0.014 1.886 2.089 116
-0.856 -0.014 1.89 2.087 114
-0.839 -0.014 1.881 2.072 117
-0.832 -0.014 1.898 2.085 115
-0.821 -0.014 1.903 2.085 119
-0.811 -0.014 1.911 2.089 116
-0.799 -0.014 1.915 2.088 118
-0.784 -0.014 1.912 2.079 116
-0.771 -0.014 1.913 2.075 114
-0.758 -0.014 1.913 2.071 118
-0.744 -0.014 1.912 2.064 122
-0.733 -0.014 1.916 2.064 118
-0.724 -0.014 1.926 2.071 118
-0.705 -0.014 1.912 2.051 116
-0.705 -0.014 1.946 2.083 118
-0.687 -0.014 1.934 2.065 120
-0.671 -0.014 1.923 2.05 123
-0.662 -0.014 1.935 2.058 122
-0.648 -0.014 1.931 2.05 124
-0.643 -0.014 1.953 2.07 124
-0.628 -0.014 1.947 2.059 127
-0.616 -0.014 1.95 2.058 124
-0.602 -0.014 1.946 2.05 126
-0.594 -0.014 1.96 2.062 127
-0.584 -0.014 1.967 2.065 134
-0.569 -0.014 1.958 2.052 154
-0.559 -0.014 1.968 2.059 207
-0.547 -0.014 1.97 2.058 226
-0.535 -0.014 1.971 2.056 229
-0.523 -0.014 1.973 2.055 222
-0.511 -0.014 1.972 2.051 245
-0.497 -0.014 1.967 2.042 255
-0.488 -0.014 1.978 2.05 253
-0.477 -0.014 1.983 2.053 220
-0.477 -0.014 2.036 2.104 167
-0.466 -0.014 2.043 2.109 180
-0.455 -0.014 2.047 2.111 174
-0.445 -0.014 2.057 2.118 172
-0.432 -0.014 2.058 2.117 165
-0.423 -0.014 2.07 2.127 161
-0.412 -0.014 2.081 2.135 161
-0.396 -0.014 2.063 2.115 159
-0.388 -0.014 2.082 2.131 161
-0.373 -0.014 2.07 2.117 155
-0.363 -0.014 2.082 2.127 156
-0.352 -0.014 2.09 2.134 154
-0.342 -0.015 2.102 2.143 151
-0.327 -0.014 2.087 2.127 151
-0.316 -0.014 2.095 2.132 155
-0.303 -0.014 2.092 2.128 155
-0.292 -0.014 2.096 2.13 153
-0.28 -0.014 2.103 2.136 152
-0.27 -0.015 2.116 2.147 153
-0.258 -0.015 2.117 2.147 152
-0.246 -0.015 2.121 2.149 152
-0.234 -0.015 2.125 2.152 151
-0.222 -0.015 2.124 2.15 154
-0.209 -0.015 2.116 2.14 154
-0.197 -0.015 2.119 2.142 156
-0.185 -0.015 2.122 2.144 150
-0.172 -0.015 2.12 2.141 147
-0.154 -0.014 2.037 2.057 172
-0.137 -0.013 1.959 1.978 243
-0.126 -0.013 1.955 1.973 272
-0.114 -0.013 1.953 1.97 275
-0.103 -0.013 1.95 1.967 273
-0.092 -0.013 1.954 1.971 269
-0.081 -0.013 1.954 1.969 270
-0.07 -0.013 1.956 1.972 269
-0.059 -0.013 1.955 1.97 273
-0.048 -0.013 1.95 1.965 272
-0.037 -0.013 1.954 1.968 272
-0.025 -0.013 1.933 1.948 277
-0.014 -0.013 1.95 1.964 253
-0.003 -0.014 2.002 2.016 187
0.008 -0.015 2.153 2.168 148
0.02 -0.015 2.173 2.188 142
0.033 -0.015 2.181 2.195 134
0.045 -0.015 2.183 2.197 136
0.058 -0.015 2.19 2.205 136
0.07 -0.015 2.196 2.212 136
0.083 -0.015 2.191 2.207 139
0.096 -0.015 2.207 2.224 138
0.108 -0.015 2.206 2.223 133
0.121 -0.015 2.212 2.23 134
0.133 -0.015 2.207 2.225 134
0.146 -0.015 2.21 2.229 133
0.158 -0.015 2.207 2.227 132
0.17 -0.015 2.19 2.211 127
0.181 -0.015 2.173 2.195 131
0.191 -0.015 2.149 2.171 134
0.201 -0.014 2.119 2.143 143
0.207 -0.014 2.062 2.087 151
0.215 -0.014 2.024 2.05 171
0.224 -0.014 1.997 2.023 183
0.23 -0.013 1.952 1.98 199
0.239 -0.013 1.932 1.961 223
0.247 -0.013 1.913 1.943 238
0.257 -0.013 1.904 1.936 250
0.267 -0.013 1.895 1.928 255
0.278 -0.013 1.894 1.929 267
0.289 -0.013 1.895 1.931 268
0.298 -0.013 1.878 1.916 265
0.309 -0.013 1.883 1.922 258
0.321 -0.013 1.888 1.929 247
0.331 -0.013 1.878 1.922 232
0.342 -0.013 1.879 1.924 220
0.353 -0.013 1.878 1.926 200
0.364 -0.013 1.879 1.929 185
0.379 -0.013 1.897 1.949 169
0.39 -0.013 1.893 1.947 151
0.405 -0.013 1.91 1.966 143
0.412 -0.013 1.89 1.949 131
0.422 -0.013 1.883 1.943 124
0.47 -0.014 2.042 2.11 92
0.521 -0.015 2.209 2.284 84
0.534 -0.015 2.207 2.285 82
0.551 -0.016 2.221 2.302 81
0.567 -0.016 2.229 2.314 78
0.579 -0.016 2.224 2.313 76
0.597 -0.016 2.24 2.332 76
0.61 -0.016 2.236 2.332 79
0.625 -0.016 2.238 2.338 77
0.635 -0.016 2.224 2.327 76
0.652 -0.016 2.235 2.342 77
0.673 -0.016 2.257 2.369 77
0.681 -0.016 2.238 2.354 75
0.694 -0.016 2.234 2.353 75
0.715 -0.016 2.254 2.379 70
0.727 -0.016 2.246 2.375 73
0.75 -0.016 2.27 2.405 69
0.757 -0.016 2.248 2.387 71
0.781 -0.016 2.274 2.418 68
0.796 -0.016 2.274 2.423 66
0.808 -0.016 2.267 2.421 67
0.818 -0.016 2.252 2.41 67
0.842 -0.017 2.277 2.442 67
0.87 -0.017 2.309 2.481 67
0.881 -0.017 2.297 2.474 67
0.904 -0.017 2.316 2.5 63
0.908 -0.017 2.286 2.473 65
0.927 -0.017 2.294 2.488 63
0.959 -0.017 2.334 2.537 63
0.97 -0.017 2.321 2.53 61
0.983 -0.017 2.313 2.527 59
1.017 -0.018 2.353 2.577 63
1.016 -0.017 2.312 2.539 58
1.033 -0.017 2.314 2.548 61
1.06 -0.017 2.335 2.578 61
1.067 -0.017 2.314 2.562 57
1.101 -0.018 2.351 2.61 62
1.115 -0.018 2.342 2.608 56
1.136 -0.018 2.351 2.625 57
1.174 -0.018 2.391 2.677 57
1.177 -0.018 2.362 2.653 56
1.193 -0.018 2.357 2.655 54
1.178 -0.018 2.293 2.592 52
1.241 -0.018 2.379 2.696 54
1.291 -0.019 2.438 2.772 54
1.272 -0.018 2.368 2.702 51
1.321 -0.019 2.422 2.772 50
1.321 -0.019 2.388 2.743 52
1.373 -0.019 2.445 2.817 53
-1.004 -0.002 1.788 2.062 116
-1.004 -0.002 1.816 2.087 118
-0.98 -0.002 1.798 2.06 117
-0.973 -0.002 1.811 2.068 121
-0.981 -0.002 1.853 2.109 120
-0.965 -0.002 1.851 2.1 120
-0.951 -0.002 1.853 2.095 120
-0.94 -0.002 1.859 2.096 127
-0.917 -0.002 1.841 2.069 120
-0.907 -0.002 1.85 2.073 123
-0.898 -0.002 1.861 2.078 126
-0.884 -0.002 1.86 2.071 118
-0.868 -0.002 1.855 2.061 123
-0.858 -0.002 1.862 2.062 115
-0.854 -0.002 1.884 2.081 119
-0.836 -0.002 1.874 2.064 120
-0.817 -0.002 1.861 2.045 120
-0.819 -0.002 1.898 2.08 121
-0.799 -0.002 1.883 2.058 117
-0.782 -0.002 1.875 2.044 122
-0.784 -0.002 1.91 2.077 119
-0.761 -0.002 1.887 2.047 125
-0.741 -0.002 1.869 2.023 124
-0.745 -0.002 1.914 2.067 128
-0.73 -0.002 1.909 2.057 123
-0.721 -0.002 1.919 2.062 126
-0.705 -0.002 1.91 2.049 126
-0.696 -0.002 1.922 2.057 128
-0.681 -0.002 1.915 2.045 129
-0.67 -0.002 1.921 2.047 124
-0.651 -0.002 1.903 2.024 126
-0.637 -0.002 1.898 2.015 129
-0.629 -0.002 1.911 2.025 134
-0.622 -0.002 1.929 2.04 134
-0.606 -0.002 1.916 2.022 135
-0.605 -0.002 1.953 2.057 134
-0.583 -0.002 1.922 2.022 136
-0.571 -0.002 1.923 2.019 142
-0.563 -0.002 1.94 2.033 163
-0.555 -0.002 1.954 2.045 183
-0.543 -0.002 1.953 2.04 196
-0.526 -0.002 1.937 2.021 195
-0.52 -0.002 1.961 2.043 199
-0.511 -0.002 1.971 2.05 221
-0.498 -0.002 1.969 2.045 236
-0.487 -0.002 1.973 2.045 237
-0.479 -0.002 1.992 2.062 205
-0.471 -0.002 2.01 2.078 177
-0.46 -0.002 2.015 2.081 172
-0.45 -0.002 2.025 2.088 168
-0.438 -0.002 2.024 2.085 167
-0.429 -0.002 2.042 2.1 164
-0.416 -0.002 2.035 2.091 159
-0.405 -0.002 2.044 2.097 160
-0.395 -0.002 2.056 2.107 160
-0.385 -0.002 2.069 2.118 158
-0.371 -0.002 2.06 2.106 158
-0.36 -0.002 2.062 2.107 158
-0.348 -0.002 2.063 2.106 157
-0.335 -0.002 2.063 2.104 153
-0.323 -0.002 2.063 2.102 155
-0.314 -0.002 2.082 2.119 151
-0.3 -0.002 2.071 2.106 154
-0.289 -0.002 2.078 2.112 156
-0.276 -0.002 2.07 2.102 154
-0.268 -0.002 2.101 2.132 155
-0.254 -0.002 2.09 2.12 155
-0.244 -0.002 2.107 2.135 154
-0.23 -0.002 2.085 2.111 156
-0.218 -0.002 2.087 2.112 154
-0.207 -0.002 2.097 2.122 154
-0.195 -0.002 2.102 2.125 153
-0.183 -0.002 2.1 2.122 155
-0.171 -0.002 2.107 2.127 147
-0.153 -0.002 2.026 2.046 177
-0.138 -0.002 1.976 1.995 244
-0.126 -0.002 1.962 1.98 273
-0.115 -0.002 1.956 1.973 272
-0.104 -0.002 1.967 1.983 276
-0.093 -0.002 1.971 1.987 271
-0.081 -0.002 1.962 1.978 269
-0.07 -0.002 1.949 1.964 272
-0.059 -0.002 1.952 1.967 274
-0.048 -0.002 1.96 1.975 269
-0.037 -0.002 1.952 1.966 275
-0.025 -0.002 1.951 1.965 275
-0.014 -0.002 1.956 1.97 241
-0.003 -0.002 2.033 2.047 182
0.008 -0.002 2.148 2.162 158
0.02 -0.002 2.168 2.182 152
0.032 -0.002 2.17 2.184 149
0.045 -0.002 2.169 2.183 149
0.057 -0.002 2.163 2.178 148
0.07 -0.002 2.178 2.193 144
0.082 -0.002 2.176 2.192 144
0.094 -0.002 2.174 2.19 146
0.107 -0.002 2.178 2.194 143
0.12 -0.003 2.195 2.213 143
0.132 -0.002 2.181 2.2 142
0.145 -0.002 2.189 2.208 140
0.158 -0.003 2.198 2.218 137
0.169 -0.002 2.186 2.206 137
0.183 -0.003 2.197 2.219 136
0.195 -0.002 2.19 2.213 136
0.207 -0.002 2.185 2.209 134
0.221 -0.003 2.205 2.23 134
0.234 -0.003 2.205 2.232 130
0.244 -0.002 2.177 2.205 132
0.254 -0.002 2.154 2.183 131
0.265 -0.002 2.142 2.173 133
0.273 -0.002 2.111 2.143 137
0.28 -0.002 2.074 2.107 154
0.287 -0.002 2.039 2.074 174
0.288 -0.002 1.965 2 197
0.297 -0.002 1.947 1.984 211
0.303 -0.002 1.915 1.953 232
0.312 -0.002 1.902 1.941 250
0.322 -0.002 1.892 1.934 268
0.334 -0.002 1.899 1.942 286
0.346 -0.002 1.899 1.945 282
0.354 -0.002 1.883 1.93 275
0.367 -0.002 1.894 1.943 272
0.373 -0.002 1.868 1.919 272
0.39 -0.002 1.894 1.948 259
0.399 -0.002 1.885 1.941 237
0.41 -0.002 1.881 1.94 209
0.423 -0.002 1.889 1.95 179
0.476 -0.002 2.07 2.138 103
0.517 -0.003 2.19 2.264 88
0.532 -0.003 2.197 2.275 87
0.543 -0.003 2.186 2.266 88
0.56 -0.003 2.2 2.284 84
0.576 -0.003 2.211 2.299 83
0.591 -0.003 2.214 2.306 80
0.603 -0.003 2.21 2.305 78
0.611 -0.003 2.188 2.286 82
0.627 -0.003 2.196 2.298 80
0.647 -0.003 2.218 2.324 80
0.662 -0.003 2.222 2.332 79
0.683 -0.003 2.244 2.36 79
0.684 -0.003 2.2 2.318 75
0.704 -0.003 2.217 2.34 74
0.727 -0.003 2.244 2.373 74
0.741 -0.003 2.242 2.376 77
0.754 -0.003 2.238 2.376 72
0.768 -0.003 2.236 2.378 73
0.788 -0.003 2.251 2.399 67
0.795 -0.003 2.231 2.382 68
0.822 -0.003 2.263 2.422 70
0.835 -0.003 2.257 2.42 71
0.846 -0.003 2.247 2.415 66
0.873 -0.003 2.276 2.451 65
0.889 -0.003 2.278 2.459 67
0.91 -0.003 2.292 2.48 63
0.91 -0.003 2.253 2.444 65
0.93 -0.003 2.262 2.46 64
0.961 -0.003 2.3 2.506 63
0.988 -0.003 2.324 2.539 65
0.988 -0.003 2.285 2.503 61
1.014 -0.003 2.308 2.535 64
1.03 -0.003 2.306 2.539 60
1.04 -0.003 2.293 2.531 63
1.051 -0.003 2.28 2.524 63
1.102 -0.003 2.352 2.611 61
1.075 -0.003 2.259 2.515 60
1.116 -0.003 2.308 2.577 58
1.142 -0.003 2.327 2.606 60
1.166 -0.003 2.339 2.627 59
1.172 -0.003 2.315 2.608 57
1.199 -0.003 2.334 2.638 53
1.228 -0.003 2.354 2.669 54
1.225 -0.003 2.314 2.632 58
1.278 -0.003 2.379 2.714 55
1.26 -0.003 2.312 2.646 54
1.289 -0.003 2.329 2.675 48
1.355 -0.003 2.414 2.782 53
-1.019 0.008 1.815 2.093 122
-1.009 0.008 1.823 2.095 121
-0.979 0.008 1.796 2.058 127
-0.963 0.008 1.792 2.047 130
-0.957 0.008 1.809 2.058 129
-0.947 0.008 1.817 2.061 127
-0.939 0.008 1.828 2.067 125
-0.918 0.008 1.814 2.045 130
-0.913 0.008 1.832 2.059 126
-0.899 0.008 1.833 2.054 129
-0.889 0.008 1.842 2.057 126
-0.882 0.008 1.855 2.066 128
-0.86 0.008 1.838 2.042 126
-0.846 0.008 1.838 2.036 125
-0.832 0.008 1.836 2.028 124
-0.827 0.008 1.854 2.042 126
-0.81 0.008 1.845 2.028 127
-0.803 0.008 1.861 2.039 126
-0.791 0.008 1.863 2.036 125
-0.781 0.008 1.873 2.042 123
-0.766 0.008 1.866 2.03 126
-0.756 0.008 1.876 2.035 127
-0.74 0.008 1.868 2.022 127
-0.734 0.008 1.885 2.036 128
-0.715 0.008 1.868 2.013 130
-0.707 0.008 1.882 2.024 130
-0.696 0.008 1.887 2.024 133
-0.689 0.008 1.903 2.037 129
-0.672 0.008 1.889 2.018 137
-0.66 0.008 1.891 2.016 132
-0.65 0.008 1.898 2.019 135
-0.643 0.008 1.915 2.033 134
-0.63 0.008 1.913 2.027 142
-0.614 0.008 1.902 2.012 142
-0.602 0.008 1.904 2.01 145
-0.592 0.008 1.911 2.014 144
-0.584 0.008 1.926 2.026 149
-0.571 0.008 1.923 2.02 153
-0.559 0.008 1.924 2.016 168
-0.548 0.008 1.928 2.018 182
-0.537 0.008 1.932 2.019 191
-0.526 0.008 1.939 2.022 195
-0.518 0.008 1.954 2.035 194
-0.51 0.008 1.968 2.047 200
-0.494 0.008 1.953 2.028 200
-0.487 0.008 1.974 2.046 201
-0.473 0.008 1.967 2.036 186
-0.464 0.008 1.978 2.045 176
-0.456 0.008 1.996 2.061 170
-0.445 0.008 2.001 2.064 165
-0.432 0.008 1.997 2.056 163
-0.423 0.008 2.015 2.073 161
-0.409 0.008 2.003 2.058 160
-0.398 0.008 2.008 2.06 159
-0.387 0.008 2.014 2.064 159
-0.38 0.008 2.041 2.09 160
-0.367 0.008 2.035 2.081 155
-0.354 0.008 2.032 2.077 155
-0.344 0.008 2.043 2.085 157
-0.332 0.008 2.042 2.083 155
-0.322 0.008 2.054 2.092 155
-0.31 0.009 2.055 2.092 155
-0.299 0.009 2.066 2.101 156
-0.289 0.009 2.078 2.112 153
-0.274 0.008 2.055 2.087 152
-0.262 0.008 2.057 2.088 155
-0.251 0.008 2.059 2.088 154
-0.241 0.009 2.076 2.104 155
-0.229 0.009 2.076 2.102 157
-0.218 0.009 2.085 2.111 156
-0.205 0.009 2.084 2.108 154
-0.194 0.009 2.087 2.11 157
-0.182 0.009 2.091 2.113 154
-0.169 0.009 2.079 2.1 157
-0.153 0.008 2.019 2.038 185
-0.138 0.008 1.966 1.985 246
-0.126 0.008 1.96 1.978 274
-0.115 0.008 1.966 1.983 276
-0.104 0.008 1.963 1.98 282
-0.093 0.008 1.967 1.983 270
-0.082 0.008 1.974 1.99 268
-0.07 0.008 1.964 1.979 269
-0.059 0.008 1.962 1.977 278
-0.048 0.008 1.962 1.976 269
-0.037 0.008 1.958 1.973 274
-0.025 0.008 1.949 1.963 270
-0.014 0.008 1.971 1.985 234
-0.003 0.008 2.055 2.069 175
0.008 0.009 2.131 2.146 161
0.02 0.009 2.126 2.14 159
0.032 0.009 2.129 2.143 158
0.044 0.009 2.137 2.152 157
0.057 0.009 2.151 2.166 155
0.069 0.009 2.149 2.164 154
0.081 0.009 2.153 2.169 154
0.094 0.009 2.162 2.179 151
0.105 0.009 2.139 2.156 154
0.118 0.009 2.162 2.179 150
0.131 0.009 2.167 2.185 147
0.143 0.009 2.161 2.18 146
0.156 0.009 2.173 2.193 145
0.169 0.009 2.18 2.201 144
0.181 0.009 2.17 2.192 145
0.194 0.009 2.179 2.202 144
0.207 0.009 2.191 2.215 137
0.219 0.009 2.183 2.209 139
0.23 0.009 2.169 2.196 141
0.246 0.009 2.194 2.222 135
0.258 0.009 2.189 2.218 139
0.271 0.009 2.191 2.222 136
0.283 0.009 2.188 2.22 136
0.295 0.009 2.185 2.22 143
0.305 0.009 2.167 2.203 151
0.318 0.009 2.169 2.207 145
0.328 0.009 2.153 2.192 119
0.331 0.009 2.092 2.132 132
0.327 0.008 1.988 2.029 176
0.328 0.008 1.925 1.967 229
0.337 0.008 1.916 1.959 269
0.346 0.008 1.903 1.948 281
0.359 0.008 1.913 1.961 273
0.369 0.008 1.904 1.954 268
0.379 0.008 1.896 1.948 275
0.389 0.008 1.892 1.946 283
0.404 0.008 1.906 1.963 281
0.413 0.008 1.893 1.952 265
0.432 0.008 1.927 1.989 190
0.489 0.009 2.127 2.196 99
0.511 0.009 2.167 2.241 91
0.525 0.009 2.169 2.246 92
0.541 0.009 2.18 2.26 89
0.55 0.009 2.163 2.246 87
0.57 0.009 2.186 2.273 88
0.582 0.009 2.181 2.271 85
0.592 0.009 2.17 2.264 84
0.616 0.009 2.205 2.303 82
0.628 0.009 2.199 2.301 81
0.635 0.009 2.175 2.28 82
0.652 0.009 2.187 2.296 83
0.674 0.009 2.215 2.33 82
0.69 0.01 2.218 2.337 77
0.701 0.009 2.208 2.331 80
0.71 0.009 2.193 2.319 78
0.726 0.009 2.198 2.329 75
0.744 0.01 2.209 2.345 73
0.749 0.009 2.182 2.322 75
0.778 0.01 2.223 2.369 70
0.791 0.01 2.218 2.369 74
0.814 0.01 2.242 2.4 71
0.832 0.01 2.249 2.412 70
0.836 0.01 2.22 2.386 70
0.851 0.01 2.219 2.391 68
0.874 0.01 2.24 2.418 66
0.893 0.01 2.249 2.434 66
0.912 0.01 2.256 2.447 68
0.931 0.01 2.265 2.462 68
0.947 0.01 2.266 2.469 69
0.961 0.01 2.26 2.47 66
0.978 0.01 2.262 2.478 68
0.996 0.01 2.266 2.489 66
1.015 0.01 2.274 2.504 64
1.04 0.01 2.291 2.529 64
1.048 0.01 2.273 2.517 64
1.063 0.01 2.27 2.52 64
1.088 0.01 2.287 2.547 63
1.099 0.01 2.274 2.539 56
1.124 0.01 2.289 2.563 62
1.168 0.011 2.342 2.631 60
1.17 0.011 2.311 2.604 61
1.181 0.01 2.298 2.597 58
1.213 0.011 2.326 2.637 59
1.228 0.011 2.319 2.637 58
1.248 0.011 2.322 2.649 57
1.258 0.011 2.306 2.64 55
1.278 0.011 2.309 2.653 57
1.305 0.011 2.324 2.678 52
-0.992 0.02 1.768 2.039 128
-0.997 0.02 1.802 2.071 132
-0.981 0.02 1.799 2.061 127
-0.973 0.02 1.811 2.068 131
-0.954 0.02 1.802 2.051 135
-0.937 0.02 1.797 2.039 131
-0.93 0.02 1.812 2.049 133
-0.918 0.02 1.815 2.047 131
-0.91 0.02 1.826 2.052 130
-0.892 0.02 1.819 2.039 136
-0.878 0.02 1.818 2.031 135
-0.868 0.02 1.825 2.033 134
-0.857 0.02 1.832 2.035 132
-0.842 0.02 1.828 2.025 133
-0.831 0.02 1.834 2.026 134
-0.812 0.019 1.821 2.007 133
-0.807 0.019 1.839 2.021 131
-0.795 0.019 1.842 2.019 132
-0.776 0.019 1.829 2 133
-0.775 0.02 1.856 2.024 131
-0.753 0.019 1.835 1.996 134
-0.75 0.019 1.86 2.018 135
-0.731 0.019 1.845 1.997 134
-0.717 0.019 1.84 1.987 134
-0.712 0.019 1.86 2.004 132
-0.701 0.019 1.865 2.005 137
-0.696 0.02 1.886 2.023 135
-0.678 0.019 1.871 2.003 138
-0.67 0.019 1.884 2.013 143
-0.66 0.02 1.891 2.016 142
-0.646 0.019 1.887 2.008 142
-0.632 0.019 1.883 1.999 142
-0.619 0.019 1.881 1.993 143
-0.614 0.02 1.904 2.014 143
-0.596 0.019 1.887 1.992 143
-0.587 0.019 1.897 1.999 147
-0.576 0.019 1.9 1.999 150
-0.568 0.019 1.912 2.008 159
-0.562 0.02 1.936 2.029 169
-0.545 0.019 1.918 2.007 181
-0.533 0.019 1.918 2.005 189
-0.528 0.02 1.944 2.028 194
-0.514 0.02 1.938 2.019 191
-0.504 0.02 1.947 2.024 192
-0.491 0.02 1.942 2.017 193
-0.482 0.02 1.953 2.025 192
-0.47 0.02 1.952 2.022 185
-0.464 0.02 1.977 2.045 171
-0.448 0.02 1.963 2.027 170
-0.441 0.02 1.983 2.045 163
-0.428 0.02 1.977 2.036 162
-0.418 0.02 1.99 2.047 158
-0.405 0.02 1.984 2.039 158
-0.395 0.02 1.994 2.046 156
-0.385 0.02 2.003 2.053 159
-0.373 0.02 2.002 2.05 156
-0.362 0.02 2.009 2.055 157
-0.35 0.02 2.007 2.052 157
-0.34 0.02 2.021 2.063 155
-0.33 0.02 2.028 2.068 159
-0.316 0.02 2.015 2.053 156
-0.307 0.02 2.033 2.07 153
-0.294 0.02 2.026 2.061 154
-0.283 0.02 2.034 2.068 156
-0.273 0.02 2.048 2.08 155
-0.258 0.02 2.025 2.056 152
-0.248 0.02 2.037 2.066 157
-0.238 0.02 2.053 2.081 156
-0.226 0.02 2.05 2.077 156
-0.215 0.02 2.056 2.081 158
-0.202 0.02 2.045 2.069 158
-0.192 0.02 2.071 2.094 157
-0.181 0.02 2.073 2.095 159
-0.167 0.02 2.048 2.069 158
-0.152 0.02 2.008 2.027 191
-0.137 0.019 1.962 1.981 251
-0.126 0.019 1.959 1.977 278
-0.116 0.019 1.976 1.993 273
-0.104 0.019 1.965 1.982 273
-0.093 0.019 1.965 1.981 271
-0.082 0.019 1.967 1.983 269
-0.07 0.019 1.965 1.98 269
-0.059 0.019 1.963 1.978 278
-0.048 0.019 1.967 1.982 271
-0.037 0.019 1.96 1.974 275
-0.025 0.019 1.949 1.963 268
-0.015 0.019 1.98 1.994 225
-0.003 0.02 2.048 2.063 172
0.007 0.021 2.103 2.117 164
0.019 0.021 2.105 2.119 159
0.032 0.021 2.117 2.132 157
0.044 0.021 2.128 2.142 157
0.056 0.021 2.119 2.134 158
0.068 0.021 2.129 2.144 160
0.081 0.021 2.144 2.16 159
0.093 0.021 2.148 2.164 158
0.104 0.021 2.126 2.143 157
0.117 0.021 2.147 2.165 159
0.13 0.021 2.145 2.163 157
0.142 0.021 2.148 2.168 153
0.154 0.021 2.149 2.169 151
0.166 0.021 2.145 2.165 149
0.179 0.021 2.15 2.172 150
0.191 0.021 2.148 2.171 150
0.205 0.021 2.164 2.189 148
0.216 0.021 2.152 2.177 149
0.231 0.021 2.173 2.2 148
0.242 0.021 2.161 2.189 145
0.257 0.022 2.184 2.214 143
0.268 0.021 2.166 2.197 143
0.282 0.022 2.182 2.214 144
0.293 0.021 2.171 2.205 151
0.305 0.021 2.162 2.198 161
0.318 0.021 2.164 2.202 160
0.331 0.022 2.172 2.212 119
0.338 0.021 2.132 2.173 123
0.334 0.02 2.035 2.077 170
0.331 0.019 1.945 1.987 239
0.336 0.019 1.91 1.954 275
0.349 0.019 1.916 1.962 281
0.36 0.019 1.916 1.963 274
0.372 0.019 1.918 1.968 275
0.383 0.019 1.917 1.97 272
0.391 0.019 1.901 1.955 269
0.405 0.019 1.914 1.971 278
0.413 0.019 1.895 1.953 268
0.439 0.02 1.962 2.025 157
0.492 0.022 2.141 2.211 98
0.507 0.022 2.147 2.22 91
0.523 0.022 2.161 2.238 92
0.535 0.022 2.155 2.235 91
0.548 0.022 2.155 2.238 90
0.565 0.022 2.169 2.256 90
0.574 0.022 2.151 2.24 87
0.586 0.022 2.148 2.241 88
0.607 0.022 2.175 2.273 89
0.616 0.022 2.157 2.257 85
0.633 0.022 2.168 2.273 87
0.651 0.022 2.183 2.292 86
0.662 0.022 2.176 2.288 85
0.677 0.022 2.179 2.296 81
0.694 0.022 2.187 2.308 79
0.712 0.023 2.198 2.324 80
0.721 0.022 2.183 2.313 80
0.734 0.022 2.179 2.313 81
0.748 0.022 2.179 2.318 76
0.767 0.023 2.191 2.336 76
0.794 0.023 2.227 2.378 73
0.805 0.023 2.216 2.372 72
0.816 0.023 2.206 2.366 74
0.83 0.023 2.203 2.368 73
0.853 0.023 2.225 2.397 71
0.855 0.023 2.19 2.365 71
0.877 0.023 2.209 2.391 73
0.892 0.023 2.207 2.394 70
0.92 0.024 2.238 2.434 71
0.925 0.023 2.213 2.412 69
0.948 0.024 2.229 2.436 69
0.979 0.024 2.264 2.48 69
0.984 0.024 2.239 2.46 66
1.012 0.024 2.266 2.496 65
1.024 0.024 2.257 2.492 67
1.044 0.024 2.264 2.507 67
1.046 0.024 2.233 2.48 66
1.076 0.024 2.26 2.517 65
1.097 0.024 2.269 2.534 64
1.123 0.025 2.287 2.562 66
1.134 0.025 2.274 2.554 66
1.168 0.025 2.308 2.6 63
1.175 0.025 2.286 2.584 59
1.193 0.025 2.287 2.593 60
1.215 0.025 2.295 2.61 61
1.222 0.025 2.274 2.595 61
1.269 0.026 2.326 2.663 59
1.287 0.026 2.327 2.672 59
1.292 0.025 2.302 2.653 57
-0.985 0.031 1.754 2.023 135
-0.975 0.031 1.761 2.025 138
-0.964 0.031 1.769 2.026 139
-0.95 0.031 1.768 2.019 141
-0.95 0.031 1.794 2.042 136
-0.933 0.031 1.788 2.029 140
-0.912 0.031 1.775 2.007 138
-0.906 0.031 1.791 2.019 141
-0.899 0.031 1.804 2.028 138
-0.884 0.031 1.803 2.02 142
-0.859 0.03 1.779 1.988 142
-0.86 0.031 1.809 2.015 143
-0.845 0.031 1.805 2.006 142
-0.837 0.031 1.817 2.013 141
-0.815 0.03 1.797 1.986 142
-0.806 0.03 1.807 1.991 139
-0.796 0.03 1.814 1.993 135
-0.796 0.031 1.845 2.022 138
-0.779 0.031 1.836 2.007 139
-0.769 0.031 1.843 2.01 137
-0.752 0.03 1.833 1.994 138
-0.743 0.031 1.842 1.999 139
-0.722 0.03 1.82 1.971 136
-0.707 0.03 1.814 1.96 140
-0.703 0.03 1.838 1.981 142
-0.695 0.03 1.85 1.989 141
-0.679 0.03 1.838 1.973 142
-0.671 0.03 1.852 1.983 142
-0.657 0.03 1.846 1.973 144
-0.644 0.03 1.846 1.969 144
-0.636 0.03 1.858 1.977 142
-0.628 0.03 1.87 1.986 145
-0.617 0.03 1.875 1.988 146
-0.612 0.031 1.895 2.005 146
-0.594 0.03 1.879 1.984 147
-0.586 0.031 1.892 1.994 151
-0.572 0.03 1.885 1.984 155
-0.562 0.03 1.892 1.987 158
-0.553 0.031 1.904 1.996 170
-0.544 0.031 1.913 2.002 180
-0.531 0.031 1.911 1.997 181
-0.522 0.031 1.923 2.006 191
-0.516 0.031 1.944 2.024 191
-0.499 0.031 1.927 2.005 191
-0.489 0.031 1.933 2.008 189
-0.479 0.031 1.94 2.012 188
-0.465 0.031 1.93 1.999 182
-0.455 0.031 1.94 2.006 172
-0.448 0.031 1.959 2.024 171
-0.433 0.031 1.947 2.009 168
-0.42 0.031 1.943 2.002 161
-0.412 0.031 1.961 2.017 162
-0.403 0.031 1.975 2.03 158
-0.393 0.031 1.982 2.034 159
-0.379 0.031 1.969 2.019 158
-0.369 0.031 1.98 2.028 156
-0.361 0.031 2 2.046 156
-0.345 0.031 1.977 2.021 158
-0.335 0.031 1.985 2.027 161
-0.326 0.031 2.005 2.045 159
-0.313 0.031 1.996 2.035 156
-0.302 0.031 2.001 2.037 156
-0.292 0.031 2.011 2.046 152
-0.282 0.032 2.025 2.059 153
-0.268 0.031 2.01 2.041 155
-0.259 0.032 2.027 2.058 155
-0.247 0.032 2.027 2.056 157
-0.236 0.032 2.033 2.06 154
-0.223 0.032 2.026 2.053 160
-0.212 0.032 2.034 2.059 157
-0.201 0.032 2.036 2.06 161
-0.188 0.031 2.02 2.042 162
-0.177 0.032 2.036 2.058 162
-0.166 0.032 2.034 2.055 166
-0.151 0.031 1.996 2.016 195
-0.138 0.031 1.972 1.991 251
-0.127 0.031 1.968 1.987 280
-0.115 0.031 1.966 1.983 279
-0.103 0.03 1.954 1.971 272
-0.092 0.03 1.958 1.974 268
-0.081 0.031 1.964 1.979 276
-0.07 0.031 1.966 1.982 276
-0.059 0.03 1.958 1.974 276
-0.048 0.03 1.95 1.965 266
-0.037 0.03 1.955 1.97 272
-0.026 0.031 1.963 1.977 263
-0.015 0.031 1.982 1.997 219
-0.003 0.032 2.054 2.069 168
0.007 0.032 2.091 2.105 165
0.019 0.033 2.104 2.118 162
0.031 0.033 2.096 2.111 162
0.043 0.032 2.094 2.109 162
0.055 0.033 2.111 2.126 159
0.067 0.033 2.102 2.118 162
0.079 0.033 2.108 2.124 162
0.092 0.033 2.119 2.136 162
0.104 0.033 2.116 2.133 159
0.116 0.033 2.113 2.131 160
0.128 0.033 2.123 2.141 159
0.141 0.033 2.13 2.149 158
0.153 0.033 2.132 2.152 154
0.165 0.033 2.132 2.153 156
0.177 0.033 2.129 2.15 158
0.19 0.033 2.134 2.157 156
0.203 0.033 2.139 2.163 155
0.215 0.033 2.142 2.167 157
0.227 0.033 2.139 2.165 155
0.238 0.033 2.13 2.158 153
0.251 0.033 2.132 2.162 152
0.266 0.034 2.153 2.184 151
0.278 0.034 2.153 2.185 155
0.292 0.034 2.158 2.192 158
0.301 0.033 2.138 2.174 170
0.315 0.034 2.145 2.183 166
0.329 0.034 2.156 2.195 128
0.336 0.033 2.121 2.162 128
0.33 0.032 2.009 2.05 186
0.33 0.031 1.939 1.982 255
0.339 0.03 1.923 1.967 285
0.347 0.03 1.908 1.954 281
0.361 0.03 1.922 1.97 277
0.372 0.03 1.916 1.967 278
0.384 0.03 1.922 1.975 278
0.395 0.03 1.917 1.972 280
0.406 0.03 1.918 1.975 275
0.415 0.03 1.907 1.966 248
0.451 0.032 2.016 2.081 128
0.488 0.034 2.124 2.194 99
0.501 0.034 2.123 2.196 100
0.515 0.034 2.126 2.202 99
0.53 0.034 2.136 2.216 94
0.538 0.034 2.115 2.197 92
0.559 0.034 2.145 2.231 92
0.574 0.034 2.152 2.241 91
0.584 0.034 2.139 2.231 94
0.599 0.034 2.146 2.243 91
0.61 0.034 2.135 2.235 94
0.625 0.034 2.141 2.245 88
0.641 0.035 2.149 2.257 91
0.657 0.035 2.158 2.271 89
0.668 0.035 2.147 2.263 87
0.686 0.035 2.162 2.282 84
0.707 0.035 2.182 2.308 85
0.72 0.035 2.178 2.308 85
0.728 0.035 2.162 2.295 82
0.746 0.035 2.174 2.313 78
0.764 0.036 2.184 2.328 81
0.765 0.035 2.146 2.293 80
0.802 0.036 2.208 2.363 78
0.811 0.036 2.19 2.35 72
0.824 0.036 2.187 2.352 77
0.841 0.036 2.194 2.364 75
0.858 0.036 2.197 2.373 75
0.861 0.036 2.167 2.345 73
0.882 0.036 2.182 2.368 73
0.901 0.036 2.19 2.382 69
0.923 0.037 2.207 2.406 68
0.945 0.037 2.224 2.43 70
0.961 0.037 2.223 2.436 72
0.973 0.037 2.213 2.432 70
0.991 0.037 2.218 2.443 68
0.999 0.037 2.201 2.431 69
1.017 0.037 2.204 2.441 68
1.045 0.038 2.23 2.477 69
1.059 0.038 2.224 2.477 66
1.085 0.038 2.243 2.506 67
1.103 0.038 2.247 2.517 68
1.12 0.038 2.247 2.524 67
1.136 0.039 2.244 2.529 66
1.159 0.039 2.255 2.549 65
1.179 0.039 2.259 2.562 66
1.212 0.04 2.289 2.603 67
1.223 0.039 2.275 2.596 60
1.241 0.04 2.276 2.606 60
1.255 0.04 2.268 2.606 61
1.247 0.039 2.221 2.561 62
-0.998 0.043 1.777 2.051 141
-0.971 0.042 1.754 2.017 140
-0.958 0.042 1.756 2.013 140
-0.945 0.042 1.759 2.009 144
-0.935 0.042 1.766 2.011 144
-0.931 0.042 1.784 2.025 140
-0.905 0.041 1.761 1.992 141
-0.906 0.042 1.79 2.019 144
-0.881 0.041 1.768 1.988 142
-0.871 0.041 1.776 1.991 143
-0.86 0.041 1.78 1.99 145
-0.851 0.042 1.79 1.995 148
-0.838 0.042 1.79 1.99 145
-0.831 0.042 1.804 1.999 146
-0.815 0.041 1.797 1.986 146
-0.798 0.041 1.788 1.971 148
-0.786 0.041 1.791 1.969 144
-0.78 0.041 1.806 1.98 147
-0.777 0.042 1.829 2.001 148
-0.758 0.041 1.815 1.98 144
-0.744 0.041 1.813 1.973 145
-0.733 0.041 1.818 1.973 146
-0.731 0.042 1.843 1.996 145
-0.713 0.041 1.829 1.976 152
-0.695 0.041 1.815 1.957 150
-0.69 0.041 1.835 1.974 149
-0.682 0.042 1.848 1.983 149
-0.661 0.041 1.823 1.953 149
-0.656 0.041 1.843 1.97 149
-0.643 0.041 1.842 1.964 148
-0.634 0.041 1.851 1.97 149
-0.627 0.042 1.866 1.982 154
-0.605 0.041 1.836 1.946 151
-0.601 0.041 1.862 1.97 154
-0.59 0.041 1.865 1.969 156
-0.578 0.041 1.867 1.968 158
-0.567 0.041 1.868 1.965 157
-0.559 0.042 1.884 1.979 162
-0.55 0.042 1.894 1.986 170
-0.539 0.042 1.896 1.985 179
-0.526 0.042 1.893 1.978 180
-0.517 0.042 1.905 1.988 183
-0.506 0.042 1.907 1.987 185
-0.495 0.042 1.911 1.988 186
-0.485 0.042 1.918 1.993 189
-0.475 0.042 1.925 1.997 188
-0.462 0.042 1.92 1.989 181
-0.451 0.042 1.924 1.99 178
-0.441 0.042 1.932 1.995 169
-0.426 0.042 1.914 1.975 165
-0.422 0.042 1.953 2.012 165
-0.411 0.042 1.953 2.009 164
-0.397 0.042 1.943 1.997 163
-0.389 0.042 1.962 2.015 161
-0.375 0.042 1.952 2.002 161
-0.363 0.042 1.947 1.995 160
-0.351 0.042 1.948 1.993 162
-0.343 0.042 1.965 2.009 161
-0.335 0.043 1.988 2.03 161
-0.32 0.042 1.966 2.006 160
-0.309 0.042 1.973 2.011 160
-0.298 0.042 1.977 2.014 157
-0.288 0.043 1.986 2.021 154
-0.275 0.042 1.973 2.006 157
-0.264 0.042 1.978 2.01 156
-0.257 0.043 2.011 2.042 156
-0.244 0.043 2.003 2.033 156
-0.232 0.043 1.996 2.024 156
-0.221 0.043 2.008 2.035 158
-0.21 0.043 2.013 2.038 161
-0.198 0.043 2.01 2.034 160
-0.187 0.043 2.01 2.033 164
-0.175 0.043 2.003 2.025 168
-0.163 0.043 2.006 2.027 170
-0.151 0.042 1.992 2.012 204
-0.138 0.042 1.966 1.985 251
-0.126 0.042 1.968 1.986 274
-0.115 0.042 1.963 1.981 282
-0.103 0.042 1.954 1.971 275
-0.092 0.042 1.959 1.975 249
-0.081 0.042 1.96 1.976 276
-0.07 0.042 1.964 1.98 281
-0.059 0.042 1.959 1.974 279
-0.048 0.042 1.961 1.976 277
-0.037 0.042 1.955 1.97 276
-0.026 0.042 1.962 1.976 259
-0.015 0.043 2.008 2.023 210
-0.003 0.043 2.042 2.057 169
0.007 0.044 2.065 2.08 168
0.019 0.044 2.062 2.076 163
0.031 0.044 2.077 2.092 164
0.043 0.044 2.074 2.089 164
0.055 0.044 2.076 2.092 165
0.066 0.044 2.08 2.096 167
0.079 0.044 2.095 2.111 164
0.091 0.045 2.103 2.12 165
0.103 0.045 2.108 2.125 164
0.115 0.045 2.11 2.127 161
0.127 0.045 2.104 2.123 164
0.139 0.045 2.107 2.126 159
0.152 0.045 2.119 2.14 159
0.162 0.044 2.09 2.111 158
0.176 0.045 2.114 2.136 156
0.188 0.045 2.111 2.134 158
0.201 0.045 2.118 2.142 158
0.213 0.045 2.119 2.144 162
0.227 0.046 2.137 2.164 161
0.237 0.045 2.114 2.142 159
0.252 0.046 2.138 2.168 159
0.262 0.045 2.124 2.155 160
0.275 0.045 2.125 2.158 158
0.288 0.046 2.131 2.165 161
0.3 0.046 2.131 2.167 172
0.313 0.046 2.134 2.171 177
0.327 0.046 2.143 2.183 134
0.331 0.045 2.091 2.132 139
0.327 0.043 1.989 2.031 206
0.33 0.042 1.937 1.98 265
0.34 0.042 1.931 1.976 290
0.351 0.042 1.926 1.972 284
0.362 0.042 1.925 1.973 274
0.373 0.042 1.925 1.975 282
0.386 0.042 1.931 1.984 287
0.396 0.042 1.925 1.98 282
0.406 0.042 1.915 1.972 270
0.42 0.042 1.929 1.989 209
0.46 0.045 2.053 2.119 115
0.488 0.046 2.121 2.191 104
0.499 0.046 2.113 2.185 101
0.515 0.046 2.125 2.202 102
0.527 0.046 2.121 2.2 101
0.537 0.046 2.111 2.193 100
0.557 0.047 2.137 2.223 94
0.565 0.046 2.119 2.208 94
0.574 0.046 2.102 2.194 98
0.601 0.047 2.152 2.249 99
0.615 0.047 2.155 2.256 92
0.616 0.046 2.111 2.214 94
0.639 0.047 2.144 2.252 90
0.653 0.047 2.144 2.256 92
0.666 0.047 2.141 2.257 91
0.68 0.047 2.142 2.262 88
0.689 0.047 2.127 2.25 87
0.708 0.048 2.144 2.273 88
0.731 0.048 2.169 2.303 87
0.734 0.048 2.138 2.275 81
0.766 0.049 2.188 2.333 81
0.766 0.048 2.148 2.295 79
0.786 0.049 2.163 2.316 81
0.797 0.048 2.154 2.312 79
0.816 0.049 2.165 2.328 79
0.832 0.049 2.17 2.339 78
0.855 0.049 2.189 2.364 74
0.862 0.049 2.171 2.35 79
0.883 0.05 2.184 2.37 76
0.887 0.049 2.157 2.347 75
0.92 0.05 2.2 2.399 76
0.937 0.05 2.204 2.409 71
0.956 0.051 2.211 2.423 68
0.959 0.05 2.181 2.396 70
0.974 0.05 2.181 2.403 71
1 0.051 2.202 2.433 72
1.012 0.051 2.193 2.429 71
1.045 0.052 2.23 2.477 74
1.057 0.052 2.221 2.474 68
1.061 0.051 2.194 2.451 71
1.096 0.052 2.232 2.501 68
1.111 0.052 2.228 2.504 65
1.128 0.052 2.227 2.51 66
1.167 0.053 2.27 2.567 68
1.167 0.053 2.236 2.536 66
1.182 0.053 2.231 2.539 68
1.203 0.053 2.238 2.555 66
1.227 0.054 2.249 2.576 61
1.228 0.053 2.219 2.55 64
1.28 0.055 2.28 2.629 63
-0.959 0.052 1.707 1.97 149
-0.972 0.053 1.755 2.019 147
-0.958 0.053 1.755 2.012 144
-0.937 0.053 1.744 1.993 147
-0.926 0.053 1.748 1.991 144
-0.906 0.052 1.736 1.971 141
-0.901 0.052 1.753 1.983 143
-0.88 0.052 1.738 1.96 145
-0.882 0.053 1.769 1.989 142
-0.866 0.052 1.764 1.978 148
-0.85 0.052 1.76 1.967 147
-0.842 0.052 1.769 1.972 148
-0.832 0.052 1.776 1.974 146
-0.82 0.052 1.78 1.973 150
-0.813 0.052 1.792 1.981 149
-0.784 0.051 1.756 1.936 148
-0.785 0.052 1.788 1.966 148
-0.778 0.052 1.801 1.975 149
-0.759 0.052 1.788 1.955 148
-0.749 0.052 1.794 1.957 149
-0.73 0.051 1.778 1.935 149
-0.722 0.052 1.79 1.943 150
-0.72 0.052 1.816 1.967 152
-0.703 0.052 1.804 1.949 155
-0.702 0.052 1.833 1.976 152
-0.685 0.052 1.822 1.96 155
-0.673 0.052 1.822 1.955 153
-0.658 0.052 1.815 1.944 153
-0.648 0.052 1.822 1.948 157
-0.639 0.052 1.83 1.952 154
-0.627 0.052 1.831 1.949 152
-0.613 0.052 1.825 1.939 156
-0.595 0.051 1.806 1.915 158
-0.591 0.052 1.831 1.938 160
-0.587 0.052 1.855 1.959 156
-0.573 0.052 1.85 1.951 157
-0.562 0.052 1.851 1.949 160
-0.557 0.052 1.877 1.971 164
-0.542 0.052 1.864 1.955 173
-0.533 0.052 1.874 1.962 182
-0.525 0.053 1.888 1.973 181
-0.514 0.053 1.893 1.976 185
-0.499 0.052 1.88 1.959 187
-0.494 0.053 1.905 1.983 188
-0.479 0.052 1.891 1.965 190
-0.471 0.053 1.91 1.981 188
-0.456 0.052 1.894 1.963 182
-0.448 0.053 1.908 1.974 175
-0.435 0.052 1.904 1.967 172
-0.424 0.052 1.907 1.968 167
-0.415 0.053 1.917 1.976 166
-0.404 0.053 1.923 1.979 167
-0.393 0.053 1.922 1.976 163
-0.382 0.053 1.928 1.979 165
-0.371 0.053 1.928 1.978 164
-0.36 0.053 1.934 1.981 163
-0.349 0.053 1.932 1.978 161
-0.339 0.053 1.943 1.987 163
-0.327 0.053 1.941 1.982 164
-0.315 0.053 1.937 1.977 166
-0.306 0.053 1.95 1.988 163
-0.292 0.053 1.934 1.97 162
-0.285 0.053 1.964 1.999 161
-0.272 0.053 1.955 1.988 160
-0.262 0.053 1.963 1.995 158
-0.249 0.053 1.954 1.984 160
-0.239 0.053 1.963 1.992 160
-0.229 0.053 1.973 2.001 157
-0.216 0.053 1.96 1.986 161
-0.207 0.054 1.98 2.005 161
-0.195 0.053 1.973 1.997 164
-0.183 0.053 1.97 1.994 168
-0.172 0.053 1.974 1.996 170
-0.161 0.053 1.972 1.994 178
-0.149 0.053 1.968 1.989 203
-0.137 0.053 1.96 1.979 235
-0.125 0.053 1.949 1.968 242
-0.115 0.053 1.965 1.984 256
-0.104 0.053 1.969 1.986 257
-0.092 0.053 1.951 1.968 244
-0.081 0.053 1.955 1.971 271
-0.07 0.053 1.961 1.977 282
-0.059 0.053 1.961 1.977 281
-0.048 0.053 1.968 1.983 284
-0.037 0.053 1.96 1.976 278
-0.026 0.053 1.961 1.976 252
-0.015 0.054 1.996 2.011 201
-0.003 0.055 2.032 2.047 171
0.007 0.055 2.052 2.067 173
0.019 0.055 2.028 2.043 172
0.031 0.055 2.055 2.07 170
0.042 0.055 2.045 2.061 166
0.054 0.055 2.058 2.073 170
0.066 0.056 2.064 2.08 170
0.078 0.056 2.073 2.089 168
0.09 0.056 2.066 2.083 168
0.102 0.056 2.075 2.093 167
0.113 0.056 2.068 2.086 164
0.125 0.056 2.076 2.094 165
0.138 0.056 2.09 2.11 166
0.15 0.056 2.09 2.11 168
0.162 0.057 2.094 2.115 165
0.173 0.056 2.078 2.1 163
0.187 0.057 2.105 2.128 163
0.199 0.057 2.104 2.128 160
0.211 0.057 2.104 2.129 160
0.224 0.057 2.105 2.132 160
0.237 0.057 2.114 2.142 161
0.25 0.057 2.12 2.15 158
0.261 0.057 2.11 2.141 160
0.275 0.058 2.123 2.156 161
0.284 0.057 2.104 2.138 168
0.297 0.057 2.108 2.144 172
0.309 0.057 2.107 2.144 179
0.322 0.057 2.111 2.15 142
0.329 0.056 2.075 2.116 154
0.323 0.054 1.964 2.006 221
0.33 0.053 1.939 1.982 274
0.34 0.053 1.93 1.975 288
0.352 0.053 1.931 1.978 283
0.362 0.053 1.924 1.973 279
0.375 0.053 1.933 1.984 284
0.386 0.053 1.928 1.982 284
0.398 0.053 1.932 1.987 280
0.409 0.053 1.93 1.988 258
0.424 0.054 1.947 2.007 176
0.464 0.057 2.074 2.14 110
0.476 0.057 2.068 2.137 108
0.497 0.058 2.104 2.177 103
0.505 0.058 2.087 2.162 106
0.511 0.057 2.056 2.133 104
0.536 0.058 2.106 2.188 98
0.548 0.058 2.102 2.187 101
0.558 0.058 2.091 2.179 99
0.573 0.058 2.097 2.189 99
0.587 0.058 2.1 2.196 101
0.599 0.058 2.097 2.196 97
0.613 0.059 2.099 2.201 99
0.628 0.059 2.105 2.212 96
0.647 0.059 2.124 2.236 94
0.661 0.06 2.126 2.241 94
0.667 0.059 2.101 2.219 93
0.684 0.059 2.11 2.233 93
0.701 0.06 2.121 2.249 89
0.715 0.06 2.123 2.255 86
0.727 0.06 2.116 2.252 86
0.746 0.06 2.13 2.271 84
0.764 0.061 2.143 2.29 82
0.775 0.061 2.134 2.285 83
0.792 0.061 2.14 2.296 85
0.807 0.061 2.142 2.303 83
0.825 0.062 2.151 2.319 84
0.831 0.061 2.128 2.3 80
0.848 0.061 2.135 2.312 81
0.878 0.063 2.172 2.358 79
0.884 0.062 2.149 2.339 80
0.904 0.062 2.16 2.356 79
0.922 0.063 2.168 2.371 80
0.932 0.063 2.156 2.364 73
0.956 0.063 2.175 2.39 74
0.967 0.063 2.163 2.384 70
0.992 0.064 2.184 2.413 74
0.999 0.064 2.165 2.399 73
1.026 0.064 2.188 2.431 71
1.033 0.064 2.17 2.418 70
1.052 0.064 2.175 2.431 70
1.073 0.065 2.184 2.447 72
1.1 0.066 2.206 2.48 72
1.115 0.066 2.203 2.483 72
1.14 0.066 2.217 2.507 64
1.153 0.066 2.209 2.506 67
1.17 0.066 2.208 2.513 66
1.186 0.066 2.205 2.518 67
1.21 0.067 2.218 2.541 69
1.236 0.068 2.232 2.566 67
1.236 0.067 2.201 2.539 65
-0.966 0.063 1.719 1.985 146
-0.956 0.064 1.727 1.987 148
-0.948 0.064 1.737 1.991 146
-0.934 0.064 1.738 1.986 144
-0.92 0.063 1.738 1.979 148
-0.898 0.063 1.72 1.953 147
-0.892 0.063 1.734 1.963 147
-0.873 0.062 1.724 1.946 147
-0.868 0.063 1.742 1.959 150
-0.855 0.063 1.742 1.954 149
-0.852 0.063 1.763 1.971 152
-0.834 0.063 1.753 1.955 153
-0.827 0.063 1.766 1.963 153
-0.813 0.063 1.763 1.954 152
-0.798 0.062 1.76 1.946 158
-0.792 0.063 1.775 1.957 152
-0.78 0.063 1.777 1.954 158
-0.758 0.062 1.756 1.926 152
-0.747 0.062 1.757 1.923 149
-0.732 0.062 1.753 1.913 155
-0.724 0.062 1.764 1.92 152
-0.72 0.062 1.784 1.937 155
-0.71 0.062 1.789 1.938 155
-0.696 0.062 1.785 1.93 161
-0.685 0.062 1.789 1.93 155
-0.675 0.062 1.795 1.932 157
-0.662 0.062 1.793 1.926 157
-0.655 0.062 1.807 1.936 158
-0.641 0.062 1.801 1.926 156
-0.631 0.062 1.807 1.928 158
-0.621 0.062 1.811 1.929 157
-0.61 0.062 1.816 1.93 162
-0.592 0.062 1.798 1.907 162
-0.587 0.062 1.817 1.923 163
-0.579 0.062 1.829 1.932 166
-0.568 0.062 1.832 1.932 166
-0.557 0.062 1.836 1.933 164
-0.544 0.062 1.832 1.926 169
-0.538 0.063 1.85 1.941 175
-0.527 0.063 1.855 1.942 186
-0.519 0.063 1.866 1.951 183
-0.506 0.063 1.86 1.942 188
-0.497 0.063 1.872 1.951 189
-0.488 0.063 1.883 1.96 189
-0.473 0.063 1.869 1.942 189
-0.462 0.063 1.871 1.941 185
-0.457 0.064 1.899 1.968 180
-0.445 0.063 1.894 1.96 176
-0.434 0.063 1.901 1.964 170
-0.421 0.063 1.893 1.954 172
-0.411 0.063 1.9 1.958 170
-0.401 0.063 1.904 1.96 167
-0.386 0.063 1.887 1.94 168
-0.378 0.063 1.906 1.958 168
-0.368 0.063 1.913 1.963 164
-0.355 0.063 1.906 1.953 166
-0.347 0.064 1.923 1.969 167
-0.336 0.064 1.926 1.969 167
-0.323 0.063 1.916 1.957 168
-0.315 0.064 1.936 1.976 169
-0.302 0.064 1.927 1.965 167
-0.291 0.064 1.929 1.966 164
-0.279 0.063 1.92 1.955 164
-0.268 0.063 1.922 1.955 164
-0.259 0.064 1.941 1.973 164
-0.25 0.065 1.963 1.993 165
-0.237 0.064 1.941 1.971 166
-0.226 0.064 1.945 1.973 163
-0.216 0.064 1.958 1.985 165
-0.205 0.064 1.962 1.988 167
-0.193 0.064 1.959 1.983 170
-0.182 0.064 1.958 1.982 175
-0.171 0.064 1.959 1.981 173
-0.159 0.064 1.957 1.978 183
-0.147 0.064 1.944 1.964 195
-0.136 0.064 1.944 1.964 208
-0.126 0.064 1.954 1.973 209
-0.115 0.064 1.955 1.974 215
-0.103 0.063 1.939 1.957 220
-0.092 0.063 1.942 1.959 224
-0.081 0.064 1.943 1.96 232
-0.07 0.064 1.956 1.972 244
-0.059 0.064 1.969 1.985 248
-0.048 0.064 1.962 1.977 257
-0.037 0.064 1.953 1.968 261
-0.026 0.064 1.969 1.984 244
-0.015 0.065 1.992 2.007 199
-0.003 0.066 2.018 2.033 178
0.007 0.065 2.005 2.02 174
0.019 0.066 2.013 2.028 172
0.03 0.066 2.035 2.051 172
0.042 0.067 2.039 2.054 173
0.054 0.067 2.043 2.059 173
0.065 0.067 2.044 2.06 174
0.077 0.067 2.043 2.06 170
0.089 0.067 2.05 2.067 172
0.1 0.066 2.035 2.052 167
0.112 0.067 2.054 2.072 167
0.124 0.067 2.06 2.079 168
0.136 0.067 2.056 2.076 164
0.148 0.068 2.067 2.087 169
0.16 0.068 2.067 2.088 167
0.172 0.068 2.069 2.092 168
0.185 0.068 2.073 2.097 169
0.198 0.068 2.088 2.112 163
0.209 0.068 2.076 2.102 165
0.221 0.068 2.084 2.111 163
0.235 0.069 2.095 2.123 160
0.246 0.068 2.086 2.116 166
0.259 0.069 2.093 2.124 163
0.271 0.069 2.094 2.126 164
0.283 0.069 2.094 2.129 167
0.293 0.069 2.082 2.118 173
0.308 0.069 2.096 2.134 186
0.319 0.069 2.09 2.13 151
0.326 0.068 2.055 2.096 166
0.325 0.065 1.978 2.02 239
0.33 0.064 1.939 1.982 274
0.341 0.064 1.936 1.981 287
0.35 0.064 1.923 1.97 284
0.366 0.065 1.945 1.994 282
0.375 0.064 1.935 1.986 286
0.388 0.065 1.941 1.995 284
0.397 0.064 1.927 1.983 273
0.41 0.064 1.932 1.991 243
0.431 0.066 1.977 2.039 147
0.463 0.069 2.065 2.132 112
0.477 0.069 2.073 2.142 109
0.485 0.069 2.053 2.125 108
0.504 0.07 2.079 2.155 105
0.514 0.069 2.071 2.149 106
0.531 0.07 2.086 2.167 105
0.539 0.069 2.067 2.152 103
0.551 0.07 2.066 2.153 102
0.568 0.07 2.079 2.17 103
0.577 0.07 2.064 2.158 105
0.593 0.07 2.076 2.174 100
0.61 0.071 2.091 2.193 101
0.619 0.07 2.076 2.181 102
0.641 0.071 2.103 2.213 99
0.654 0.071 2.101 2.216 96
0.66 0.071 2.08 2.197 98
0.681 0.072 2.103 2.225 96
0.691 0.071 2.091 2.218 95
0.706 0.072 2.094 2.225 89
0.72 0.072 2.095 2.23 92
0.731 0.072 2.086 2.226 91
0.755 0.073 2.115 2.261 87
0.771 0.073 2.12 2.271 88
0.788 0.074 2.129 2.286 86
0.794 0.073 2.105 2.265 86
0.815 0.074 2.124 2.29 86
0.826 0.074 2.115 2.285 82
0.85 0.074 2.139 2.316 83
0.861 0.074 2.128 2.311 84
0.878 0.075 2.134 2.323 79
0.894 0.075 2.137 2.332 82
0.908 0.075 2.134 2.334 79
0.926 0.075 2.14 2.347 80
0.944 0.076 2.146 2.359 78
0.961 0.076 2.151 2.371 76
0.981 0.077 2.161 2.388 79
0.997 0.077 2.161 2.394 78
1.008 0.077 2.15 2.39 76
1.027 0.077 2.155 2.402 75
1.034 0.077 2.138 2.39 76
1.061 0.078 2.159 2.42 73
1.082 0.078 2.169 2.438 70
1.108 0.079 2.186 2.466 71
1.117 0.079 2.171 2.456 70
1.147 0.08 2.196 2.492 71
1.157 0.08 2.184 2.486 72
1.178 0.08 2.191 2.503 71
1.198 0.08 2.196 2.516 69
1.199 0.08 2.165 2.49 68
1.234 0.081 2.196 2.533 70
-0.956 0.074 1.7 1.964 152
-0.94 0.073 1.697 1.953 151
-0.938 0.074 1.718 1.971 150
-0.92 0.074 1.71 1.955 152
-0.91 0.074 1.718 1.957 151
-0.915 0.075 1.753 1.991 150
-0.882 0.073 1.715 1.942 154
-0.872 0.073 1.721 1.943 154
-0.86 0.073 1.724 1.94 152
-0.849 0.073 1.73 1.94 156
-0.833 0.073 1.724 1.928 156
-0.831 0.073 1.745 1.947 158
-0.81 0.073 1.729 1.923 156
-0.803 0.073 1.741 1.931 157
-0.794 0.073 1.75 1.935 158
-0.776 0.072 1.737 1.916 159
-0.765 0.072 1.74 1.915 157
-0.761 0.073 1.761 1.932 158
-0.752 0.073 1.77 1.937 157
-0.74 0.073 1.772 1.935 156
-0.732 0.073 1.782 1.94 156
-0.715 0.073 1.77 1.923 159
-0.7 0.072 1.764 1.912 157
-0.694 0.073 1.779 1.924 158
-0.68 0.072 1.776 1.916 159
-0.669 0.072 1.777 1.913 161
-0.653 0.072 1.766 1.897 160
-0.649 0.073 1.789 1.918 162
-0.64 0.073 1.797 1.921 163
-0.63 0.073 1.803 1.925 164
-0.612 0.072 1.786 1.902 164
-0.609 0.073 1.811 1.925 164
-0.593 0.072 1.799 1.908 166
-0.592 0.074 1.833 1.941 169
-0.572 0.072 1.808 1.911 168
-0.562 0.073 1.813 1.913 165
-0.554 0.073 1.824 1.92 170
-0.54 0.072 1.818 1.911 173
-0.534 0.073 1.835 1.926 178
-0.519 0.072 1.823 1.91 184
-0.51 0.073 1.833 1.918 187
-0.498 0.073 1.83 1.911 189
-0.495 0.074 1.865 1.945 193
-0.484 0.074 1.867 1.944 192
-0.472 0.074 1.865 1.938 192
-0.459 0.073 1.859 1.93 192
-0.45 0.074 1.868 1.937 186
-0.436 0.073 1.857 1.922 180
-0.427 0.073 1.866 1.929 172
-0.417 0.073 1.871 1.932 171
-0.404 0.073 1.866 1.924 172
-0.395 0.073 1.877 1.933 165
-0.388 0.074 1.896 1.95 170
-0.374 0.074 1.884 1.936 166
-0.366 0.074 1.9 1.95 170
-0.353 0.074 1.892 1.94 170
-0.343 0.074 1.903 1.948 168
-0.334 0.074 1.911 1.955 169
-0.323 0.074 1.914 1.956 171
-0.311 0.074 1.912 1.953 171
-0.301 0.074 1.921 1.959 174
-0.292 0.075 1.933 1.97 167
-0.276 0.074 1.903 1.939 171
-0.267 0.074 1.916 1.95 170
-0.256 0.074 1.92 1.953 170
-0.248 0.075 1.941 1.972 169
-0.235 0.075 1.931 1.96 168
-0.224 0.074 1.926 1.955 169
-0.212 0.074 1.923 1.95 171
-0.203 0.075 1.94 1.966 175
-0.191 0.075 1.937 1.962 175
-0.181 0.075 1.946 1.97 177
-0.169 0.074 1.931 1.954 181
-0.158 0.075 1.943 1.965 184
-0.147 0.074 1.936 1.957 195
-0.135 0.074 1.929 1.949 208
-0.124 0.074 1.928 1.948 215
-0.113 0.074 1.924 1.943 219
-0.103 0.074 1.938 1.956 216
-0.091 0.074 1.937 1.955 219
-0.08 0.074 1.939 1.956 226
-0.069 0.074 1.936 1.953 227
-0.058 0.074 1.938 1.955 218
-0.048 0.075 1.949 1.965 222
-0.037 0.075 1.949 1.965 216
-0.026 0.075 1.958 1.974 212
-0.014 0.075 1.964 1.98 195
-0.003 0.076 1.98 1.995 179
0.007 0.077 2.002 2.017 173
0.018 0.076 1.99 2.005 174
0.03 0.077 2 2.016 173
0.041 0.077 2.011 2.027 173
0.053 0.077 2.012 2.028 171
0.065 0.078 2.025 2.041 172
0.076 0.078 2.029 2.046 169
0.088 0.078 2.023 2.04 172
0.1 0.078 2.042 2.06 170
0.111 0.078 2.025 2.043 172
0.122 0.078 2.019 2.038 170
0.136 0.079 2.05 2.07 170
0.148 0.079 2.06 2.081 170
0.159 0.079 2.056 2.078 168
0.17 0.079 2.044 2.067 171
0.182 0.079 2.049 2.073 171
0.194 0.079 2.046 2.071 168
0.207 0.079 2.06 2.086 166
0.22 0.08 2.07 2.098 162
0.232 0.08 2.069 2.098 163
0.242 0.079 2.057 2.087 164
0.256 0.08 2.071 2.102 164
0.268 0.08 2.072 2.105 168
0.281 0.08 2.077 2.111 171
0.293 0.08 2.081 2.117 173
0.305 0.08 2.078 2.116 182
0.317 0.08 2.077 2.117 159
0.32 0.078 2.021 2.062 184
0.322 0.076 1.96 2.002 249
0.331 0.076 1.945 1.989 279
0.34 0.075 1.93 1.976 285
0.356 0.076 1.955 2.003 282
0.363 0.075 1.931 1.98 284
0.376 0.076 1.939 1.991 285
0.388 0.076 1.939 1.993 283
0.398 0.075 1.93 1.987 269
0.412 0.076 1.943 2.001 220
0.434 0.078 1.992 2.055 133
0.459 0.08 2.048 2.114 117
0.47 0.08 2.042 2.111 118
0.484 0.081 2.05 2.123 113
0.496 0.081 2.048 2.123 111
0.509 0.081 2.05 2.128 110
0.523 0.081 2.053 2.134 106
0.531 0.08 2.036 2.119 107
0.546 0.081 2.046 2.134 104
0.56 0.081 2.051 2.141 107
0.579 0.082 2.071 2.166 109
0.59 0.082 2.065 2.164 105
0.599 0.082 2.051 2.152 106
0.618 0.083 2.073 2.179 103
0.631 0.083 2.071 2.181 104
0.642 0.082 2.063 2.176 99
0.655 0.083 2.063 2.181 98
0.675 0.084 2.084 2.207 101
0.689 0.084 2.084 2.211 100
0.698 0.083 2.071 2.201 97
0.71 0.083 2.066 2.2 94
0.736 0.085 2.102 2.243 96
0.74 0.084 2.073 2.217 94
0.752 0.084 2.068 2.216 98
0.781 0.086 2.11 2.265 94
0.797 0.086 2.113 2.274 88
0.801 0.085 2.086 2.249 91
0.822 0.086 2.105 2.275 88
0.837 0.086 2.104 2.28 85
0.85 0.086 2.102 2.283 86
0.862 0.086 2.094 2.28 84
0.88 0.087 2.102 2.294 86
0.895 0.087 2.104 2.302 79
0.91 0.087 2.104 2.308 81
0.938 0.089 2.134 2.346 81
0.944 0.088 2.112 2.329 80
0.968 0.089 2.13 2.355 78
0.974 0.088 2.109 2.338 77
0.989 0.088 2.109 2.345 81
1.007 0.089 2.114 2.357 75
1.032 0.09 2.133 2.384 78
1.056 0.091 2.148 2.409 79
1.068 0.091 2.141 2.408 73
1.092 0.092 2.156 2.432 72
1.095 0.091 2.129 2.41 71
1.127 0.092 2.158 2.449 71
1.139 0.092 2.149 2.448 73
1.158 0.092 2.152 2.459 73
1.193 0.094 2.186 2.505 70
1.217 0.095 2.197 2.527 69
1.214 0.094 2.161 2.494 69
-0.955 0.085 1.698 1.961 156
-0.925 0.083 1.669 1.922 157
-0.928 0.084 1.7 1.95 154
-0.915 0.084 1.701 1.946 158
-0.905 0.084 1.707 1.946 155
-0.892 0.084 1.709 1.941 158
-0.876 0.083 1.702 1.928 159
-0.867 0.084 1.712 1.933 154
-0.86 0.084 1.724 1.94 155
-0.842 0.083 1.714 1.924 156
-0.835 0.084 1.726 1.932 163
-0.814 0.083 1.71 1.908 159
-0.811 0.083 1.729 1.924 162
-0.799 0.083 1.733 1.922 163
-0.79 0.083 1.74 1.925 166
-0.774 0.083 1.734 1.913 164
-0.77 0.084 1.753 1.929 160
-0.755 0.083 1.748 1.918 163
-0.737 0.082 1.733 1.897 159
-0.724 0.082 1.733 1.892 164
-0.716 0.082 1.741 1.897 165
-0.708 0.083 1.752 1.904 162
-0.697 0.083 1.755 1.903 162
-0.687 0.083 1.762 1.906 164
-0.675 0.083 1.761 1.9 162
-0.663 0.082 1.762 1.897 163
-0.655 0.083 1.772 1.903 164
-0.645 0.083 1.778 1.906 164
-0.632 0.083 1.775 1.899 168
-0.626 0.083 1.791 1.911 167
-0.612 0.083 1.785 1.902 166
-0.601 0.083 1.787 1.9 165
-0.589 0.083 1.787 1.896 170
-0.574 0.082 1.776 1.881 172
-0.571 0.083 1.802 1.905 167
-0.554 0.082 1.786 1.884 171
-0.547 0.083 1.802 1.899 172
-0.541 0.083 1.819 1.912 177
-0.527 0.083 1.811 1.901 177
-0.517 0.083 1.817 1.904 187
-0.507 0.083 1.823 1.907 187
-0.498 0.083 1.831 1.913 189
-0.487 0.083 1.833 1.912 190
-0.475 0.083 1.83 1.906 189
-0.464 0.083 1.831 1.904 190
-0.458 0.084 1.855 1.926 193
-0.448 0.084 1.857 1.926 188
-0.433 0.083 1.844 1.909 185
-0.422 0.083 1.846 1.909 177
-0.413 0.084 1.853 1.914 177
-0.403 0.084 1.859 1.917 173
-0.392 0.084 1.861 1.917 173
-0.38 0.084 1.859 1.913 171
-0.372 0.084 1.875 1.927 171
-0.36 0.084 1.867 1.917 171
-0.348 0.083 1.864 1.912 171
-0.337 0.084 1.868 1.914 169
-0.327 0.084 1.869 1.913 172
-0.317 0.084 1.881 1.923 173
-0.309 0.085 1.901 1.941 171
-0.297 0.084 1.895 1.934 175
-0.284 0.084 1.878 1.915 175
-0.272 0.083 1.873 1.909 172
-0.263 0.084 1.89 1.924 175
-0.255 0.085 1.907 1.939 172
-0.242 0.084 1.896 1.927 175
-0.233 0.085 1.909 1.939 174
-0.224 0.085 1.928 1.956 171
-0.21 0.084 1.904 1.931 174
-0.2 0.085 1.908 1.934 177
-0.189 0.085 1.916 1.941 176
-0.179 0.085 1.925 1.949 176
-0.168 0.085 1.924 1.947 177
-0.157 0.085 1.931 1.953 185
-0.147 0.086 1.938 1.96 191
-0.135 0.085 1.931 1.951 205
-0.123 0.085 1.919 1.939 211
-0.113 0.085 1.92 1.94 213
-0.102 0.085 1.926 1.945 210
-0.091 0.085 1.918 1.936 213
-0.08 0.085 1.93 1.948 219
-0.07 0.086 1.942 1.959 221
-0.058 0.085 1.935 1.952 220
-0.047 0.085 1.935 1.951 220
-0.036 0.085 1.935 1.951 208
-0.025 0.085 1.935 1.951 195
-0.014 0.086 1.949 1.965 186
-0.003 0.086 1.961 1.977 180
0.007 0.087 1.97 1.986 173
0.018 0.087 1.969 1.985 176
0.029 0.087 1.975 1.992 176
0.041 0.087 1.979 1.995 175
0.053 0.088 2.003 2.019 174
0.064 0.088 1.998 2.015 174
0.075 0.088 2 2.017 176
0.086 0.088 1.993 2.011 172
0.098 0.088 2.001 2.02 170
0.109 0.088 1.997 2.017 171
