# .PCD v0.7 - Point Cloud Data file format
VERSION 0.7
FIELDS x y z d a
SIZE 4 4 4 4 4
TYPE F F F F F
COUNT 1 1 1 1 1
WIDTH 1707
HEIGHT 1
VIEWPOINT 0 0 0 1 0 0 0
POINTS 1707
DATA ascii
-0.195 0.115 1.452 1.483 445
-0.183 0.113 1.424 1.454 444
-0.174 0.113 1.42 1.448 441
-0.167 0.113 1.43 1.458 439
-0.16 0.114 1.438 1.465 433
-0.151 0.114 1.439 1.465 439
-0.143 0.114 1.438 1.463 442
-0.135 0.114 1.444 1.469 451
-0.128 0.115 1.456 1.48 463
-0.12 0.115 1.46 1.483 477
-0.111 0.115 1.46 1.482 455
-0.104 0.116 1.474 1.496 408
-0.097 0.118 1.497 1.519 342
-0.095 0.127 1.618 1.639 238
-0.091 0.135 1.715 1.737 195
-0.083 0.137 1.74 1.762 194
-0.073 0.138 1.756 1.777 189
-0.062 0.136 1.734 1.755 243
-0.052 0.136 1.733 1.753 259
-0.042 0.136 1.728 1.748 238
-0.033 0.136 1.735 1.755 231
-0.023 0.136 1.727 1.747 226
-0.013 0.136 1.732 1.751 228
-0.003 0.137 1.745 1.764 231
0.006 0.136 1.737 1.756 230
0.016 0.136 1.729 1.749 234
0.025 0.135 1.72 1.739 239
0.035 0.136 1.728 1.748 239
0.045 0.136 1.726 1.746 239
0.054 0.134 1.704 1.724 240
0.064 0.134 1.706 1.726 242
0.074 0.134 1.701 1.722 244
0.083 0.133 1.689 1.71 250
0.093 0.134 1.704 1.726 248
0.103 0.134 1.698 1.72 248
0.111 0.133 1.686 1.709 248
0.121 0.132 1.681 1.704 253
0.13 0.133 1.681 1.705 249
0.139 0.132 1.67 1.695 257
0.149 0.132 1.672 1.698 256
0.159 0.132 1.677 1.704 258
0.167 0.131 1.661 1.689 261
0.178 0.132 1.671 1.7 263
0.187 0.132 1.666 1.696 263
0.194 0.13 1.646 1.676 271
0.203 0.13 1.644 1.675 273
0.214 0.131 1.648 1.681 274
0.223 0.131 1.65 1.684 276
0.232 0.13 1.642 1.677 286
0.24 0.129 1.629 1.665 314
0.248 0.129 1.619 1.657 284
0.244 0.122 1.536 1.574 299
0.241 0.117 1.465 1.503 409
0.246 0.115 1.444 1.483 477
0.253 0.115 1.434 1.475 524
0.263 0.115 1.441 1.483 529
0.271 0.115 1.44 1.484 525
0.279 0.115 1.437 1.482 526
0.288 0.115 1.434 1.482 530
0.297 0.116 1.438 1.487 532
0.305 0.115 1.433 1.484 534
0.313 0.115 1.431 1.483 525
0.322 0.115 1.431 1.485 502
0.333 0.116 1.442 1.498 439
0.349 0.119 1.472 1.531 275
0.368 0.122 1.513 1.576 219
0.378 0.123 1.516 1.581 218
0.387 0.123 1.517 1.585 217
0.393 0.122 1.502 1.571 219
0.402 0.122 1.5 1.572 220
0.412 0.122 1.504 1.579 221
0.419 0.122 1.495 1.571 223
0.426 0.121 1.486 1.565 220
0.434 0.121 1.481 1.562 217
0.444 0.121 1.484 1.568 216
0.452 0.121 1.477 1.563 215
0.461 0.121 1.475 1.565 214
0.469 0.121 1.47 1.562 212
0.477 0.121 1.467 1.561 220
0.483 0.12 1.455 1.552 219
0.492 0.12 1.454 1.554 218
0.507 0.122 1.469 1.573 216
0.513 0.121 1.458 1.564 218
0.517 0.12 1.442 1.551 216
0.529 0.121 1.45 1.562 220
0.538 0.121 1.448 1.563 221
0.544 0.12 1.436 1.554 222
0.551 0.12 1.429 1.55 222
0.563 0.121 1.436 1.561 220
0.57 0.12 1.428 1.556 221
0.585 0.121 1.439 1.572 223
0.592 0.121 1.433 1.569 219
0.602 0.121 1.433 1.573 214
0.603 0.12 1.411 1.553 220
0.612 0.12 1.408 1.554 221
0.611 0.118 1.383 1.531 225
0.631 0.12 1.406 1.559 229
0.639 0.12 1.399 1.557 229
0.647 0.12 1.396 1.557 228
0.659 0.121 1.398 1.563 227
0.664 0.12 1.386 1.555 226
0.681 0.121 1.4 1.575 229
0.679 0.12 1.375 1.552 235
0.691 0.12 1.378 1.559 233
0.699 0.12 1.372 1.557 231
0.704 0.119 1.361 1.551 234
0.713 0.12 1.359 1.553 237
0.722 0.12 1.354 1.553 232
0.739 0.121 1.367 1.572 229
0.744 0.12 1.355 1.564 225
0.753 0.12 1.353 1.566 231
0.755 0.119 1.336 1.552 240
-1.11 0.188 1.971 2.282 65
-1.089 0.186 1.963 2.264 65
-1.067 0.184 1.951 2.243 66
-1.077 0.189 2 2.291 69
-1.042 0.184 1.963 2.241 65
-1 0.179 1.912 2.177 66
-0.998 0.181 1.936 2.197 65
-0.999 0.184 1.97 2.228 67
-0.961 0.179 1.923 2.169 69
-0.938 0.177 1.906 2.144 70
-0.922 0.176 1.903 2.134 71
-0.922 0.178 1.934 2.162 74
-0.905 0.177 1.928 2.149 74
-0.892 0.177 1.93 2.146 76
-0.857 0.173 1.884 2.09 74
-0.79 0.161 1.765 1.953 74
-0.668 0.139 1.515 1.674 104
-0.655 0.138 1.508 1.662 121
-0.647 0.138 1.517 1.667 122
-0.637 0.138 1.517 1.664 122
-0.624 0.137 1.512 1.653 122
-0.605 0.135 1.491 1.628 122
-0.584 0.132 1.465 1.596 125
-0.572 0.132 1.459 1.586 125
-0.566 0.132 1.471 1.595 127
-0.555 0.132 1.468 1.587 133
-0.548 0.132 1.476 1.592 137
-0.527 0.129 1.446 1.558 140
-0.523 0.131 1.463 1.572 149
-0.512 0.13 1.458 1.564 156
-0.5 0.129 1.452 1.554 167
-0.486 0.128 1.439 1.537 179
-0.482 0.129 1.455 1.551 195
-0.469 0.128 1.444 1.537 215
-0.462 0.128 1.453 1.543 239
-0.453 0.128 1.453 1.54 269
-0.44 0.127 1.443 1.527 287
-0.429 0.126 1.436 1.518 311
-0.421 0.126 1.441 1.519 339
-0.415 0.127 1.45 1.526 361
-0.402 0.126 1.439 1.513 379
-0.396 0.126 1.447 1.518 400
-0.384 0.125 1.438 1.507 412
-0.377 0.126 1.447 1.514 421
-0.367 0.125 1.44 1.505 427
-0.358 0.125 1.441 1.504 419
-0.35 0.125 1.446 1.506 424
-0.342 0.126 1.448 1.507 446
-0.334 0.126 1.454 1.511 447
-0.324 0.125 1.449 1.503 444
-0.317 0.126 1.457 1.51 444
-0.312 0.127 1.474 1.526 435
-0.311 0.13 1.514 1.565 424
-0.304 0.131 1.524 1.573 415
-0.301 0.133 1.554 1.602 387
-0.29 0.133 1.546 1.592 367
-0.282 0.133 1.556 1.601 341
-0.276 0.135 1.571 1.614 331
-0.259 0.131 1.526 1.567 333
-0.242 0.127 1.48 1.519 382
-0.225 0.122 1.424 1.461 433
-0.218 0.123 1.435 1.47 456
-0.214 0.125 1.463 1.497 459
-0.205 0.125 1.464 1.497 447
-0.197 0.125 1.464 1.496 443
-0.186 0.124 1.45 1.481 446
-0.178 0.124 1.454 1.484 439
-0.169 0.123 1.45 1.479 442
-0.162 0.124 1.46 1.488 447
-0.153 0.124 1.454 1.481 448
-0.144 0.123 1.451 1.478 457
-0.137 0.124 1.458 1.484 453
-0.127 0.123 1.448 1.472 464
-0.12 0.124 1.457 1.481 481
-0.111 0.124 1.458 1.481 473
-0.103 0.124 1.466 1.489 435
-0.098 0.128 1.507 1.53 362
-0.095 0.137 1.616 1.638 242
-0.09 0.143 1.694 1.716 205
-0.082 0.146 1.726 1.748 201
-0.072 0.146 1.727 1.748 205
-0.062 0.144 1.708 1.729 261
-0.052 0.145 1.72 1.74 263
-0.042 0.144 1.711 1.731 249
-0.033 0.145 1.722 1.742 240
-0.023 0.144 1.711 1.731 237
-0.013 0.145 1.714 1.734 236
-0.003 0.144 1.711 1.731 240
0.006 0.144 1.71 1.73 240
0.015 0.144 1.71 1.73 245
0.025 0.143 1.699 1.72 247
0.035 0.143 1.691 1.712 249
0.044 0.143 1.697 1.717 251
0.054 0.142 1.687 1.708 253
0.063 0.142 1.684 1.705 256
0.073 0.143 1.688 1.71 258
0.083 0.143 1.692 1.714 257
0.091 0.141 1.67 1.693 260
0.101 0.141 1.668 1.691 260
0.111 0.142 1.68 1.704 259
0.12 0.142 1.675 1.699 263
0.129 0.14 1.659 1.684 265
0.137 0.14 1.648 1.674 269
0.148 0.141 1.661 1.688 272
0.157 0.14 1.65 1.677 272
0.164 0.138 1.632 1.66 277
0.176 0.141 1.656 1.686 278
0.183 0.138 1.63 1.66 282
0.193 0.139 1.636 1.667 280
0.203 0.139 1.64 1.672 278
0.212 0.139 1.632 1.666 283
0.222 0.139 1.635 1.67 288
0.231 0.139 1.631 1.668 291
0.236 0.137 1.606 1.643 311
0.246 0.137 1.606 1.645 302
0.246 0.132 1.546 1.585 294
0.242 0.126 1.468 1.507 400
0.246 0.124 1.442 1.483 475
0.255 0.124 1.441 1.482 520
0.263 0.124 1.442 1.485 531
0.272 0.124 1.443 1.488 520
0.281 0.124 1.442 1.488 525
0.288 0.124 1.435 1.483 533
0.297 0.124 1.435 1.485 538
0.305 0.124 1.433 1.484 533
0.314 0.124 1.435 1.488 525
0.323 0.124 1.437 1.492 506
0.332 0.125 1.438 1.496 444
0.346 0.126 1.459 1.519 284
0.363 0.129 1.492 1.555 227
0.372 0.13 1.494 1.559 228
0.38 0.129 1.489 1.556 226
0.391 0.13 1.494 1.564 228
0.399 0.13 1.488 1.561 225
0.406 0.129 1.481 1.555 226
0.416 0.13 1.481 1.558 225
0.422 0.129 1.47 1.549 223
0.435 0.13 1.482 1.564 222
0.441 0.129 1.471 1.555 218
0.446 0.128 1.457 1.543 221
0.454 0.128 1.452 1.541 222
0.463 0.128 1.453 1.544 223
0.474 0.129 1.456 1.551 226
0.48 0.128 1.445 1.542 226
0.491 0.129 1.45 1.55 226
0.495 0.128 1.435 1.537 227
0.504 0.128 1.432 1.537 224
0.512 0.128 1.428 1.536 222
0.524 0.128 1.436 1.548 225
0.532 0.128 1.43 1.545 227
0.537 0.127 1.418 1.535 229
0.549 0.128 1.423 1.544 232
0.556 0.128 1.417 1.542 227
0.562 0.127 1.408 1.535 230
0.574 0.128 1.411 1.543 232
0.575 0.126 1.391 1.524 228
0.589 0.127 1.4 1.538 227
0.604 0.129 1.412 1.554 224
0.602 0.127 1.383 1.527 230
0.615 0.127 1.39 1.539 230
0.62 0.127 1.38 1.532 235
0.63 0.127 1.38 1.536 237
0.639 0.127 1.376 1.536 237
0.654 0.128 1.388 1.553 234
0.655 0.127 1.368 1.536 230
0.666 0.127 1.368 1.541 229
0.685 0.129 1.387 1.566 238
0.684 0.128 1.363 1.544 241
0.691 0.127 1.355 1.54 237
0.698 0.127 1.349 1.537 239
0.71 0.128 1.353 1.546 234
0.717 0.127 1.345 1.542 235
0.729 0.128 1.347 1.55 232
0.733 0.127 1.335 1.541 239
0.737 0.126 1.322 1.531 243
0.751 0.127 1.327 1.543 244
-1.098 0.198 1.949 2.258 67
-1.086 0.198 1.955 2.257 68
-1.049 0.194 1.918 2.206 67
-1.02 0.191 1.891 2.169 70
-1.022 0.193 1.924 2.199 71
-0.999 0.191 1.91 2.176 72
-0.974 0.189 1.889 2.145 70
-0.976 0.192 1.923 2.177 71
-0.978 0.194 1.956 2.208 73
-0.924 0.186 1.876 2.112 76
-0.925 0.189 1.908 2.14 77
-0.909 0.188 1.905 2.131 73
-0.876 0.183 1.865 2.08 79
-0.861 0.183 1.863 2.072 75
-0.792 0.17 1.74 1.931 76
-0.701 0.153 1.563 1.732 108
-0.654 0.145 1.482 1.638 136
-0.651 0.146 1.499 1.653 140
-0.633 0.144 1.482 1.631 143
-0.619 0.143 1.474 1.618 145
-0.596 0.14 1.443 1.58 147
-0.598 0.142 1.474 1.61 155
-0.582 0.141 1.458 1.588 160
-0.573 0.141 1.463 1.59 174
-0.56 0.14 1.455 1.578 191
-0.552 0.14 1.46 1.58 199
-0.54 0.139 1.453 1.569 221
-0.531 0.139 1.456 1.569 246
-0.516 0.137 1.442 1.551 265
-0.51 0.138 1.451 1.557 289
-0.5 0.138 1.451 1.554 317
-0.486 0.136 1.438 1.537 345
-0.482 0.138 1.456 1.553 368
-0.472 0.137 1.454 1.547 398
-0.461 0.136 1.447 1.537 416
-0.454 0.137 1.456 1.544 430
-0.446 0.137 1.46 1.545 430
-0.433 0.136 1.449 1.532 431
-0.426 0.136 1.456 1.536 437
-0.418 0.137 1.46 1.538 440
-0.407 0.136 1.454 1.529 440
-0.399 0.136 1.457 1.53 446
-0.39 0.136 1.461 1.531 444
-0.381 0.136 1.46 1.528 440
-0.371 0.135 1.457 1.522 429
-0.363 0.136 1.461 1.525 402
-0.357 0.136 1.472 1.534 383
-0.351 0.137 1.485 1.545 373
-0.341 0.137 1.482 1.54 342
-0.337 0.139 1.507 1.564 324
-0.331 0.14 1.522 1.577 295
-0.328 0.143 1.552 1.607 266
-0.334 0.149 1.625 1.679 240
-0.327 0.151 1.642 1.695 215
-0.319 0.151 1.651 1.701 197
-0.317 0.155 1.691 1.74 186
-0.307 0.155 1.694 1.742 179
-0.302 0.157 1.724 1.771 175
-0.288 0.155 1.701 1.746 182
-0.252 0.141 1.538 1.579 266
-0.231 0.134 1.464 1.502 386
-0.22 0.132 1.449 1.485 444
-0.212 0.132 1.452 1.487 467
-0.205 0.133 1.463 1.497 466
-0.197 0.133 1.463 1.496 461
-0.188 0.133 1.463 1.495 453
-0.179 0.132 1.456 1.487 452
-0.171 0.133 1.463 1.493 453
-0.163 0.133 1.464 1.493 454
-0.154 0.133 1.461 1.489 456
-0.146 0.133 1.463 1.49 464
-0.137 0.133 1.465 1.492 456
-0.129 0.133 1.462 1.487 461
-0.12 0.133 1.463 1.488 484
-0.111 0.132 1.454 1.479 483
-0.104 0.133 1.47 1.493 448
-0.097 0.136 1.498 1.521 379
-0.094 0.144 1.593 1.616 261
-0.089 0.151 1.673 1.696 214
-0.081 0.154 1.705 1.727 208
-0.072 0.155 1.717 1.739 222
-0.061 0.153 1.691 1.713 279
-0.051 0.153 1.694 1.716 275
-0.042 0.153 1.701 1.722 259
-0.032 0.153 1.698 1.719 253
-0.022 0.153 1.697 1.718 249
-0.013 0.153 1.695 1.716 252
-0.003 0.153 1.698 1.719 251
0.006 0.151 1.68 1.7 251
0.015 0.153 1.694 1.715 255
0.025 0.153 1.698 1.719 256
0.034 0.151 1.676 1.697 258
0.044 0.151 1.673 1.695 260
0.053 0.151 1.67 1.692 262
0.063 0.151 1.671 1.693 263
0.072 0.15 1.664 1.687 267
0.081 0.15 1.66 1.683 267
0.091 0.15 1.663 1.686 270
0.1 0.15 1.662 1.686 274
0.109 0.149 1.649 1.673 272
0.119 0.15 1.661 1.686 274
0.128 0.149 1.645 1.671 277
0.137 0.149 1.644 1.67 278
0.146 0.148 1.636 1.664 282
0.155 0.148 1.638 1.666 284
0.164 0.148 1.629 1.658 284
0.174 0.148 1.63 1.66 281
0.183 0.148 1.63 1.661 282
0.191 0.147 1.621 1.653 284
0.2 0.147 1.617 1.65 285
0.208 0.146 1.607 1.641 291
0.218 0.146 1.606 1.641 291
0.225 0.145 1.592 1.629 298
0.235 0.146 1.599 1.637 308
0.242 0.144 1.577 1.616 322
0.246 0.141 1.55 1.59 291
0.243 0.135 1.474 1.514 391
0.248 0.133 1.449 1.49 470
0.257 0.133 1.451 1.494 516
0.264 0.133 1.447 1.491 527
0.272 0.132 1.439 1.484 524
0.281 0.133 1.445 1.492 531
0.289 0.132 1.44 1.489 532
0.298 0.133 1.442 1.492 538
0.305 0.132 1.435 1.487 535
0.315 0.133 1.438 1.492 521
0.324 0.133 1.439 1.495 499
0.331 0.132 1.432 1.49 448
0.345 0.135 1.456 1.516 292
0.357 0.136 1.468 1.531 228
0.373 0.139 1.495 1.561 236
0.378 0.137 1.479 1.547 236
0.388 0.138 1.481 1.551 235
0.395 0.137 1.472 1.544 231
0.402 0.137 1.463 1.537 231
0.409 0.136 1.456 1.532 232
0.421 0.137 1.468 1.547 228
0.431 0.138 1.468 1.55 229
0.436 0.136 1.453 1.537 223
0.446 0.137 1.457 1.543 228
0.451 0.136 1.443 1.532 225
0.456 0.135 1.428 1.519 230
0.466 0.135 1.431 1.525 230
0.477 0.136 1.435 1.532 226
0.482 0.135 1.423 1.523 225
0.491 0.135 1.422 1.524 227
0.501 0.136 1.423 1.529 227
0.511 0.136 1.424 1.533 229
0.515 0.135 1.408 1.519 228
0.524 0.135 1.408 1.522 235
0.533 0.135 1.407 1.525 234
0.542 0.135 1.405 1.526 235
0.55 0.135 1.401 1.525 234
0.56 0.135 1.401 1.529 234
0.564 0.134 1.385 1.515 238
0.581 0.136 1.403 1.539 233
0.582 0.134 1.383 1.52 238
0.586 0.133 1.369 1.509 233
0.602 0.135 1.384 1.529 239
0.614 0.136 1.387 1.536 236
0.616 0.134 1.369 1.521 240
0.63 0.136 1.379 1.536 248
0.632 0.134 1.361 1.52 245
0.637 0.134 1.35 1.512 249
0.651 0.135 1.357 1.524 248
0.66 0.135 1.356 1.528 248
0.668 0.135 1.351 1.527 255
0.673 0.134 1.34 1.519 249
0.686 0.135 1.345 1.53 246
0.695 0.135 1.343 1.531 246
0.699 0.134 1.331 1.523 247
0.716 0.136 1.343 1.541 241
0.723 0.136 1.336 1.539 241
0.726 0.135 1.322 1.528 251
0.734 0.134 1.317 1.527 246
0.745 0.135 1.317 1.533 251
-1.061 0.204 1.882 2.182 68
-1.041 0.202 1.872 2.163 73
-1.043 0.205 1.904 2.192 68
-1.003 0.199 1.859 2.134 71
-1.003 0.202 1.887 2.159 72
-0.973 0.198 1.859 2.119 77
-0.956 0.197 1.854 2.107 74
-0.936 0.195 1.841 2.086 77
-0.927 0.196 1.852 2.092 76
-0.925 0.198 1.878 2.115 80
-0.898 0.195 1.851 2.079 79
-0.888 0.195 1.86 2.082 78
-0.86 0.191 1.828 2.042 80
-0.842 0.19 1.819 2.026 85
-0.725 0.166 1.591 1.768 119
-0.66 0.153 1.47 1.631 161
-0.648 0.153 1.466 1.622 187
-0.641 0.153 1.474 1.627 212
-0.623 0.151 1.458 1.605 233
-0.608 0.149 1.447 1.589 252
-0.605 0.151 1.465 1.605 279
-0.594 0.15 1.462 1.597 281
-0.578 0.149 1.449 1.58 296
-0.571 0.149 1.456 1.584 322
-0.558 0.148 1.449 1.572 337
-0.55 0.148 1.454 1.575 362
-0.546 0.15 1.469 1.587 381
-0.531 0.148 1.456 1.569 401
-0.521 0.148 1.455 1.566 400
-0.51 0.147 1.451 1.558 399
-0.504 0.148 1.463 1.568 412
-0.494 0.147 1.461 1.562 419
-0.483 0.147 1.455 1.553 423
-0.475 0.147 1.46 1.555 439
-0.465 0.147 1.46 1.553 447
-0.456 0.146 1.462 1.552 435
-0.448 0.147 1.468 1.555 430
-0.438 0.146 1.464 1.548 420
-0.43 0.147 1.471 1.552 402
-0.424 0.147 1.481 1.561 369
-0.419 0.149 1.498 1.576 353
-0.411 0.149 1.503 1.579 329
-0.409 0.152 1.531 1.605 308
-0.404 0.153 1.55 1.623 272
-0.403 0.156 1.584 1.655 242
-0.396 0.157 1.596 1.665 216
-0.399 0.162 1.649 1.718 202
-0.402 0.167 1.702 1.77 189
-0.396 0.169 1.723 1.789 177
-0.393 0.172 1.757 1.822 175
-0.382 0.172 1.756 1.818 174
-0.375 0.174 1.776 1.837 175
-0.364 0.173 1.773 1.832 182
-0.353 0.173 1.773 1.829 188
-0.344 0.173 1.778 1.833 190
-0.333 0.173 1.777 1.83 194
-0.32 0.172 1.766 1.817 190
-0.31 0.172 1.767 1.816 192
-0.299 0.171 1.763 1.81 194
-0.265 0.158 1.622 1.665 222
-0.236 0.145 1.492 1.531 364
-0.223 0.143 1.469 1.506 441
-0.214 0.142 1.465 1.501 473
-0.205 0.142 1.464 1.499 471
-0.197 0.142 1.464 1.498 469
-0.189 0.142 1.466 1.499 455
-0.181 0.143 1.473 1.505 457
-0.171 0.142 1.464 1.495 453
-0.164 0.143 1.477 1.506 454
-0.154 0.141 1.464 1.492 456
-0.146 0.142 1.47 1.498 461
-0.137 0.141 1.465 1.492 461
-0.129 0.142 1.469 1.496 461
-0.12 0.141 1.466 1.491 480
-0.112 0.141 1.466 1.491 493
-0.104 0.142 1.473 1.497 459
-0.097 0.144 1.492 1.516 400
-0.093 0.151 1.57 1.594 287
-0.089 0.161 1.68 1.704 226
-0.08 0.162 1.691 1.715 215
-0.071 0.163 1.698 1.721 244
-0.06 0.161 1.674 1.696 298
-0.051 0.161 1.681 1.703 284
-0.041 0.162 1.683 1.705 270
-0.032 0.161 1.679 1.7 269
-0.022 0.161 1.674 1.696 260
-0.013 0.16 1.665 1.686 261
-0.003 0.161 1.675 1.696 264
0.005 0.159 1.661 1.683 268
0.015 0.16 1.665 1.687 267
0.024 0.158 1.649 1.671 270
0.034 0.16 1.669 1.691 270
0.044 0.16 1.667 1.69 270
0.053 0.159 1.653 1.675 273
0.062 0.159 1.656 1.679 276
0.072 0.159 1.657 1.68 275
0.081 0.158 1.649 1.673 271
0.09 0.157 1.637 1.661 275
0.099 0.158 1.641 1.666 282
0.108 0.157 1.628 1.653 276
0.117 0.157 1.633 1.659 280
0.127 0.157 1.633 1.659 281
0.136 0.157 1.627 1.655 280
0.144 0.156 1.618 1.646 283
0.154 0.156 1.617 1.645 281
0.163 0.156 1.613 1.643 285
0.172 0.155 1.611 1.642 287
0.181 0.156 1.613 1.645 283
0.189 0.154 1.599 1.632 287
0.198 0.154 1.598 1.631 290
0.207 0.154 1.593 1.628 292
0.215 0.154 1.588 1.624 296
0.226 0.154 1.594 1.632 296
0.232 0.153 1.574 1.612 304
0.241 0.153 1.575 1.615 315
0.246 0.15 1.548 1.589 294
0.244 0.144 1.481 1.522 387
0.249 0.142 1.459 1.501 471
0.256 0.141 1.445 1.488 514
0.264 0.141 1.441 1.486 528
0.274 0.142 1.453 1.5 523
0.282 0.141 1.446 1.494 521
0.289 0.141 1.44 1.49 528
0.298 0.141 1.441 1.492 533
0.307 0.141 1.442 1.495 536
0.315 0.141 1.437 1.492 521
0.324 0.142 1.44 1.497 497
0.333 0.142 1.441 1.5 446
0.344 0.143 1.448 1.509 296
0.356 0.144 1.462 1.526 237
0.366 0.145 1.466 1.532 242
0.375 0.145 1.465 1.533 238
0.381 0.144 1.453 1.523 237
0.389 0.144 1.45 1.522 240
0.395 0.143 1.438 1.512 234
0.403 0.143 1.434 1.51 239
0.414 0.144 1.441 1.52 234
0.423 0.144 1.441 1.523 234
0.424 0.141 1.413 1.496 232
0.441 0.144 1.438 1.525 232
0.446 0.143 1.424 1.513 232
0.456 0.143 1.427 1.518 235
0.464 0.143 1.425 1.519 235
0.469 0.142 1.411 1.507 234
0.481 0.143 1.419 1.519 235
0.488 0.143 1.413 1.516 235
0.492 0.142 1.397 1.502 233
0.504 0.143 1.404 1.512 234
0.513 0.143 1.402 1.514 232
0.525 0.144 1.409 1.524 240
0.533 0.144 1.406 1.524 240
0.537 0.142 1.39 1.511 246
0.545 0.142 1.386 1.51 237
0.551 0.142 1.378 1.505 245
0.565 0.143 1.388 1.519 247
0.57 0.142 1.376 1.51 244
0.581 0.143 1.378 1.516 241
0.587 0.142 1.371 1.512 245
0.594 0.142 1.364 1.508 249
0.604 0.142 1.363 1.511 249
0.613 0.142 1.363 1.515 242
0.622 0.143 1.361 1.517 252
0.631 0.143 1.357 1.517 251
0.642 0.143 1.359 1.523 257
0.643 0.141 1.34 1.506 260
0.654 0.142 1.341 1.512 261
0.661 0.142 1.335 1.51 259
0.669 0.142 1.33 1.509 256
0.674 0.141 1.321 1.503 252
0.686 0.142 1.325 1.512 256
0.697 0.142 1.325 1.517 252
0.708 0.143 1.327 1.524 253
0.713 0.142 1.315 1.516 256
0.718 0.142 1.306 1.511 257
0.731 0.142 1.31 1.52 255
0.741 0.143 1.309 1.525 260
-1.057 0.215 1.873 2.173 72
-1.046 0.215 1.881 2.174 75
-1.012 0.211 1.847 2.128 77
-1.006 0.212 1.863 2.139 78
-0.978 0.209 1.838 2.104 76
-0.965 0.208 1.842 2.102 76
-0.959 0.21 1.858 2.113 80
-0.934 0.207 1.838 2.084 82
-0.919 0.206 1.836 2.075 79
-0.886 0.201 1.797 2.025 84
-0.89 0.205 1.834 2.061 85
-0.875 0.204 1.83 2.051 86
-0.859 0.203 1.826 2.04 86
-0.854 0.204 1.844 2.054 91
-0.74 0.18 1.623 1.805 119
-0.657 0.162 1.462 1.624 246
-0.646 0.161 1.461 1.618 336
-0.637 0.161 1.465 1.618 366
-0.621 0.159 1.451 1.599 382
-0.615 0.16 1.463 1.608 382
-0.603 0.16 1.459 1.6 402
-0.595 0.16 1.465 1.602 394
-0.584 0.159 1.461 1.594 387
-0.577 0.16 1.47 1.599 383
-0.565 0.159 1.465 1.591 373
-0.556 0.159 1.468 1.59 383
-0.546 0.158 1.467 1.586 395
-0.539 0.159 1.476 1.592 404
-0.531 0.159 1.481 1.594 385
-0.519 0.158 1.476 1.585 364
-0.513 0.159 1.487 1.594 362
-0.505 0.16 1.493 1.597 366
-0.499 0.161 1.506 1.607 349
-0.493 0.161 1.516 1.615 331
-0.49 0.163 1.538 1.635 307
-0.488 0.166 1.566 1.662 283
-0.487 0.169 1.595 1.689 257
-0.486 0.172 1.627 1.72 229
-0.487 0.176 1.668 1.759 210
-0.486 0.179 1.701 1.792 191
-0.48 0.18 1.717 1.805 182
-0.475 0.183 1.74 1.826 178
-0.471 0.185 1.764 1.848 181
-0.467 0.187 1.791 1.874 184
-0.45 0.185 1.768 1.847 189
-0.441 0.186 1.779 1.855 191
-0.434 0.187 1.791 1.866 192
-0.417 0.184 1.768 1.839 193
-0.406 0.184 1.766 1.834 193
-0.396 0.184 1.771 1.838 193
-0.383 0.183 1.761 1.825 198
-0.371 0.182 1.757 1.818 201
-0.365 0.184 1.778 1.838 203
-0.352 0.183 1.767 1.825 204
-0.339 0.181 1.753 1.809 201
-0.33 0.182 1.759 1.812 207
-0.32 0.182 1.766 1.818 206
-0.305 0.179 1.739 1.789 204
-0.296 0.18 1.745 1.793 206
-0.274 0.173 1.677 1.722 212
-0.238 0.155 1.505 1.545 331
-0.224 0.152 1.474 1.512 428
-0.215 0.151 1.47 1.507 469
-0.207 0.151 1.473 1.508 483
-0.198 0.151 1.473 1.507 468
-0.189 0.151 1.469 1.503 462
-0.181 0.151 1.476 1.509 456
-0.172 0.151 1.473 1.505 456
-0.164 0.151 1.475 1.505 457
-0.155 0.15 1.467 1.497 457
-0.147 0.151 1.474 1.503 463
-0.138 0.15 1.469 1.497 470
-0.129 0.15 1.469 1.496 457
-0.121 0.15 1.469 1.496 477
-0.112 0.15 1.468 1.494 491
-0.104 0.15 1.468 1.493 472
-0.097 0.152 1.493 1.518 419
-0.092 0.158 1.551 1.576 319
-0.088 0.168 1.646 1.671 233
-0.08 0.171 1.675 1.7 225
-0.069 0.169 1.656 1.679 272
-0.06 0.168 1.653 1.677 315
-0.051 0.169 1.663 1.686 295
-0.041 0.17 1.671 1.694 283
-0.032 0.169 1.665 1.688 280
-0.022 0.169 1.664 1.687 274
-0.012 0.169 1.661 1.683 275
-0.003 0.168 1.65 1.673 275
0.005 0.168 1.654 1.676 277
0.015 0.169 1.658 1.681 276
0.024 0.167 1.641 1.663 276
0.034 0.167 1.645 1.668 277
0.043 0.167 1.637 1.66 278
0.052 0.166 1.635 1.658 276
0.062 0.167 1.642 1.666 275
0.07 0.165 1.624 1.648 272
0.08 0.165 1.624 1.648 270
0.089 0.166 1.628 1.653 273
0.098 0.164 1.613 1.638 280
0.107 0.165 1.615 1.641 280
0.117 0.165 1.621 1.647 282
0.125 0.164 1.608 1.635 284
0.134 0.164 1.602 1.63 282
0.143 0.164 1.608 1.636 288
0.152 0.163 1.597 1.626 280
0.162 0.164 1.609 1.639 285
0.17 0.163 1.598 1.629 288
0.179 0.163 1.591 1.623 286
0.188 0.163 1.587 1.62 289
0.196 0.162 1.58 1.614 296
0.205 0.162 1.582 1.618 297
0.213 0.161 1.57 1.606 302
0.223 0.161 1.573 1.611 303
0.23 0.161 1.563 1.602 303
0.239 0.161 1.56 1.601 316
0.247 0.16 1.552 1.594 301
0.245 0.153 1.483 1.525 377
0.249 0.151 1.459 1.502 469
0.256 0.15 1.447 1.492 510
0.264 0.149 1.443 1.489 520
0.273 0.15 1.446 1.494 518
0.282 0.15 1.446 1.495 509
0.289 0.149 1.438 1.488 507
0.299 0.15 1.444 1.496 500
0.307 0.15 1.439 1.493 522
0.316 0.15 1.442 1.498 518
0.322 0.149 1.43 1.488 497
0.334 0.151 1.445 1.504 452
0.342 0.15 1.44 1.502 312
0.353 0.152 1.451 1.515 240
0.361 0.151 1.445 1.511 245
0.369 0.151 1.441 1.509 246
0.377 0.151 1.437 1.507 243
0.389 0.152 1.447 1.52 241
0.397 0.152 1.445 1.52 244
0.403 0.151 1.434 1.511 245
0.411 0.151 1.432 1.511 239
0.419 0.151 1.426 1.508 241
0.426 0.15 1.419 1.503 240
0.434 0.15 1.416 1.503 241
0.443 0.151 1.416 1.505 238
0.45 0.15 1.408 1.499 241
0.457 0.15 1.402 1.496 245
0.47 0.151 1.414 1.511 243
0.475 0.15 1.401 1.501 245
0.484 0.15 1.399 1.502 244
0.488 0.149 1.386 1.491 241
0.498 0.149 1.385 1.493 243
0.509 0.15 1.39 1.501 238
0.518 0.15 1.389 1.504 245
0.529 0.151 1.393 1.511 249
0.533 0.15 1.38 1.501 248
0.542 0.15 1.379 1.503 246
0.548 0.149 1.369 1.496 256
0.559 0.15 1.374 1.505 254
0.565 0.149 1.364 1.498 250
0.576 0.15 1.366 1.503 251
0.582 0.149 1.357 1.498 255
0.591 0.149 1.355 1.499 253
0.597 0.149 1.347 1.495 254
0.608 0.15 1.35 1.502 252
0.608 0.148 1.329 1.483 253
0.62 0.148 1.333 1.491 259
0.633 0.15 1.34 1.503 266
0.638 0.149 1.329 1.495 259
0.647 0.149 1.326 1.496 259
0.654 0.149 1.32 1.494 263
0.658 0.148 1.308 1.485 263
0.673 0.149 1.318 1.5 266
0.678 0.148 1.307 1.493 267
0.696 0.151 1.323 1.516 265
0.7 0.15 1.31 1.506 258
0.707 0.149 1.304 1.504 258
0.717 0.15 1.304 1.509 262
0.721 0.149 1.29 1.499 259
0.733 0.149 1.293 1.507 267
-1.033 0.222 1.83 2.125 76
-1.014 0.221 1.823 2.109 82
-1 0.22 1.824 2.103 82
-0.983 0.219 1.819 2.091 79
-0.968 0.218 1.818 2.083 84
-0.954 0.218 1.819 2.077 84
-0.935 0.216 1.809 2.06 83
-0.92 0.215 1.807 2.051 85
-0.906 0.215 1.808 2.046 87
-0.893 0.214 1.809 2.04 88
-0.875 0.213 1.802 2.026 86
-0.874 0.215 1.828 2.05 92
-0.849 0.212 1.803 2.016 94
-0.827 0.209 1.785 1.99 96
-0.794 0.203 1.74 1.935 106
-0.667 0.173 1.484 1.648 227
-0.652 0.172 1.473 1.632 343
-0.642 0.172 1.477 1.632 386
-0.631 0.171 1.475 1.626 405
-0.621 0.171 1.475 1.622 411
-0.606 0.169 1.465 1.607 407
-0.6 0.17 1.475 1.614 403
-0.589 0.17 1.475 1.609 400
-0.582 0.17 1.482 1.614 386
-0.57 0.169 1.477 1.605 360
-0.569 0.172 1.501 1.627 347
-0.562 0.172 1.511 1.634 333
-0.556 0.173 1.523 1.643 298
-0.563 0.178 1.572 1.692 269
-0.563 0.182 1.602 1.721 252
-0.558 0.183 1.618 1.734 248
-0.556 0.186 1.645 1.759 239
-0.554 0.188 1.671 1.784 225
-0.559 0.193 1.722 1.833 217
-0.557 0.196 1.751 1.86 196
-0.552 0.198 1.772 1.879 207
-0.54 0.198 1.769 1.873 215
-0.523 0.195 1.751 1.851 218
-0.515 0.196 1.763 1.86 208
-0.507 0.197 1.775 1.869 204
-0.487 0.193 1.741 1.831 202
-0.485 0.197 1.776 1.865 203
-0.468 0.194 1.753 1.838 206
-0.461 0.195 1.767 1.85 205
-0.447 0.194 1.758 1.837 205
-0.436 0.194 1.755 1.832 207
-0.427 0.194 1.764 1.838 205
-0.417 0.194 1.766 1.839 204
-0.402 0.192 1.751 1.82 206
-0.394 0.193 1.759 1.826 204
-0.38 0.192 1.748 1.812 212
-0.368 0.19 1.739 1.801 213
-0.357 0.19 1.735 1.795 217
-0.348 0.19 1.742 1.8 217
-0.339 0.191 1.752 1.809 219
-0.325 0.189 1.733 1.787 219
-0.314 0.189 1.731 1.783 216
-0.304 0.189 1.734 1.784 219
-0.294 0.188 1.732 1.781 221
-0.28 0.186 1.712 1.758 217
-0.243 0.168 1.541 1.582 294
-0.226 0.162 1.484 1.524 415
-0.216 0.16 1.474 1.512 461
-0.206 0.16 1.469 1.505 478
-0.199 0.16 1.476 1.512 477
-0.19 0.16 1.479 1.514 470
-0.182 0.16 1.479 1.513 460
-0.174 0.161 1.483 1.515 459
-0.164 0.159 1.473 1.504 458
-0.155 0.159 1.473 1.504 458
-0.147 0.16 1.479 1.508 466
-0.138 0.16 1.476 1.505 469
-0.13 0.159 1.473 1.501 457
-0.121 0.159 1.476 1.503 475
-0.113 0.159 1.472 1.499 493
-0.104 0.159 1.477 1.503 481
-0.097 0.161 1.49 1.516 434
-0.091 0.165 1.53 1.556 344
-0.087 0.175 1.626 1.651 245
-0.079 0.179 1.66 1.685 232
-0.069 0.177 1.645 1.67 291
-0.059 0.175 1.631 1.655 320
-0.05 0.177 1.645 1.669 295
-0.041 0.177 1.648 1.672 282
-0.031 0.178 1.651 1.675 273
-0.022 0.176 1.636 1.659 277
-0.012 0.177 1.644 1.668 279
-0.003 0.177 1.642 1.665 279
0.005 0.175 1.624 1.648 274
0.015 0.176 1.636 1.659 277
0.024 0.175 1.625 1.649 277
0.033 0.174 1.622 1.646 280
0.042 0.174 1.618 1.642 281
0.052 0.174 1.619 1.643 281
0.06 0.173 1.604 1.628 282
0.07 0.173 1.609 1.634 284
0.079 0.173 1.609 1.634 284
0.087 0.172 1.594 1.619 290
0.097 0.172 1.6 1.626 289
0.106 0.172 1.598 1.625 289
0.115 0.172 1.595 1.623 286
0.124 0.172 1.593 1.621 289
0.132 0.171 1.581 1.609 289
0.141 0.171 1.584 1.613 295
0.152 0.172 1.594 1.624 285
0.16 0.171 1.582 1.614 286
0.168 0.17 1.575 1.607 285
0.176 0.169 1.566 1.599 291
0.185 0.169 1.565 1.599 293
0.194 0.169 1.563 1.598 299
0.203 0.169 1.56 1.596 298
0.21 0.168 1.548 1.586 305
0.22 0.169 1.553 1.592 305
0.229 0.168 1.549 1.589 313
0.238 0.169 1.551 1.592 314
0.244 0.167 1.533 1.575 310
0.245 0.161 1.48 1.523 362
0.25 0.159 1.459 1.503 457
0.255 0.158 1.442 1.487 506
0.265 0.158 1.447 1.494 524
0.274 0.158 1.448 1.496 509
0.282 0.158 1.444 1.494 492
0.291 0.159 1.447 1.498 442
0.299 0.159 1.445 1.499 450
0.307 0.158 1.438 1.493 509
0.317 0.159 1.446 1.503 502
0.324 0.158 1.437 1.495 496
0.332 0.158 1.437 1.497 448
0.341 0.158 1.435 1.497 311
0.351 0.159 1.441 1.506 253
0.358 0.159 1.434 1.501 254
0.366 0.158 1.428 1.496 256
0.375 0.159 1.43 1.501 255
0.381 0.158 1.42 1.493 251
0.388 0.157 1.412 1.487 255
0.397 0.158 1.414 1.491 252
0.405 0.157 1.409 1.488 248
0.415 0.158 1.412 1.495 245
0.427 0.159 1.421 1.506 246
0.428 0.157 1.396 1.483 247
0.439 0.157 1.401 1.49 247
0.446 0.157 1.395 1.487 252
0.453 0.156 1.388 1.482 253
0.461 0.156 1.385 1.482 258
0.468 0.156 1.378 1.478 253
0.48 0.157 1.389 1.492 252
0.488 0.157 1.385 1.491 251
0.495 0.157 1.376 1.484 250
0.503 0.157 1.374 1.485 256
0.511 0.157 1.37 1.485 253
0.519 0.156 1.365 1.483 257
0.528 0.157 1.366 1.487 255
0.539 0.157 1.37 1.494 255
0.543 0.156 1.356 1.483 259
0.553 0.157 1.356 1.486 263
0.564 0.157 1.36 1.494 262
0.576 0.158 1.366 1.505 257
0.576 0.156 1.344 1.484 260
0.583 0.156 1.337 1.48 259
0.593 0.156 1.337 1.484 264
0.6 0.156 1.333 1.484 258
0.609 0.156 1.331 1.485 262
0.613 0.155 1.317 1.474 264
0.631 0.158 1.336 1.499 264
0.635 0.157 1.323 1.489 269
0.647 0.157 1.326 1.497 271
0.651 0.156 1.314 1.488 272
0.66 0.156 1.312 1.49 269
0.666 0.156 1.304 1.486 273
0.671 0.155 1.293 1.478 270
0.678 0.155 1.287 1.476 276
0.694 0.157 1.298 1.493 265
0.702 0.157 1.293 1.493 272
0.707 0.156 1.283 1.486 269
0.712 0.155 1.274 1.481 273
0.724 0.156 1.278 1.49 278
-1.009 0.229 1.786 2.075 84
-1.007 0.231 1.808 2.094 86
-0.977 0.227 1.781 2.055 86
-0.977 0.229 1.807 2.079 88
-0.955 0.227 1.792 2.055 87
-0.944 0.227 1.799 2.056 89
-0.927 0.225 1.793 2.043 84
-0.911 0.224 1.788 2.031 86
-0.909 0.227 1.813 2.053 87
-0.884 0.223 1.791 2.022 94
-0.868 0.222 1.784 2.008 94
-0.848 0.22 1.771 1.988 96
-0.838 0.22 1.778 1.989 101
-0.826 0.22 1.781 1.987 97
-0.811 0.219 1.778 1.978 100
-0.711 0.195 1.581 1.757 154
-0.661 0.183 1.493 1.655 304
-0.646 0.182 1.484 1.641 380
-0.637 0.182 1.489 1.642 398
-0.621 0.18 1.476 1.624 406
-0.614 0.181 1.484 1.629 411
-0.605 0.181 1.486 1.627 415
-0.593 0.18 1.484 1.621 420
-0.582 0.179 1.482 1.615 426
-0.577 0.18 1.495 1.625 429
-0.569 0.181 1.501 1.628 406
-0.571 0.184 1.533 1.659 364
-0.58 0.19 1.587 1.713 294
-0.573 0.191 1.599 1.722 275
-0.581 0.197 1.653 1.776 264
-0.574 0.198 1.663 1.783 264
-0.57 0.2 1.685 1.802 250
-0.565 0.202 1.703 1.819 243
-0.562 0.205 1.731 1.844 237
-0.557 0.207 1.749 1.86 230
-0.55 0.208 1.763 1.871 250
-0.541 0.208 1.77 1.876 246
-0.519 0.204 1.735 1.835 235
-0.514 0.206 1.756 1.854 223
-0.507 0.208 1.773 1.868 217
-0.486 0.203 1.736 1.827 216
-0.475 0.203 1.737 1.825 213
-0.469 0.205 1.756 1.842 219
-0.455 0.203 1.745 1.829 219
-0.446 0.204 1.75 1.83 218
-0.433 0.203 1.742 1.82 217
-0.422 0.202 1.743 1.818 221
-0.411 0.202 1.739 1.812 221
-0.398 0.201 1.732 1.802 218
-0.389 0.201 1.738 1.805 222
-0.374 0.199 1.718 1.782 224
-0.363 0.198 1.714 1.776 227
-0.355 0.199 1.724 1.785 229
-0.343 0.198 1.719 1.778 230
-0.331 0.197 1.711 1.767 230
-0.321 0.197 1.711 1.765 230
-0.313 0.198 1.723 1.776 231
-0.3 0.196 1.706 1.756 230
-0.289 0.195 1.703 1.751 228
-0.279 0.195 1.702 1.749 226
-0.25 0.181 1.581 1.624 262
-0.227 0.171 1.489 1.529 390
-0.216 0.169 1.477 1.516 456
-0.207 0.169 1.476 1.514 475
-0.199 0.169 1.478 1.515 473
-0.19 0.169 1.477 1.513 471
-0.182 0.169 1.477 1.511 463
-0.173 0.169 1.476 1.509 460
-0.165 0.169 1.481 1.513 458
-0.157 0.17 1.487 1.518 463
-0.147 0.169 1.479 1.509 470
-0.139 0.168 1.477 1.507 470
-0.13 0.168 1.477 1.506 463
-0.122 0.168 1.478 1.506 474
-0.113 0.168 1.476 1.504 484
-0.104 0.168 1.473 1.5 484
-0.097 0.17 1.494 1.52 443
-0.09 0.173 1.524 1.551 364
-0.085 0.181 1.598 1.624 262
-0.078 0.187 1.645 1.671 236
-0.068 0.185 1.627 1.653 303
-0.059 0.184 1.62 1.646 312
-0.049 0.184 1.622 1.647 293
-0.04 0.185 1.636 1.661 281
-0.031 0.184 1.627 1.652 280
-0.022 0.184 1.624 1.648 280
-0.012 0.184 1.62 1.644 284
-0.003 0.183 1.612 1.636 285
0.005 0.183 1.614 1.638 283
0.015 0.183 1.615 1.639 285
0.024 0.183 1.615 1.64 287
0.033 0.181 1.6 1.624 284
0.042 0.182 1.607 1.631 286
0.051 0.181 1.593 1.618 287
0.06 0.181 1.597 1.622 290
0.069 0.181 1.595 1.621 291
0.078 0.181 1.595 1.621 290
0.087 0.181 1.592 1.619 293
0.096 0.18 1.583 1.61 294
0.105 0.179 1.577 1.605 293
0.114 0.18 1.582 1.61 296
0.123 0.18 1.584 1.613 292
0.132 0.18 1.581 1.611 293
0.14 0.179 1.571 1.601 293
0.147 0.176 1.549 1.58 287
0.158 0.178 1.561 1.593 291
0.165 0.177 1.549 1.582 292
0.175 0.177 1.556 1.59 296
0.183 0.176 1.547 1.581 301
0.193 0.177 1.552 1.588 305
0.199 0.175 1.529 1.565 303
0.21 0.177 1.546 1.584 310
0.218 0.176 1.54 1.579 311
0.226 0.175 1.531 1.571 315
0.234 0.175 1.525 1.567 319
0.24 0.173 1.504 1.547 317
0.247 0.171 1.492 1.536 362
0.25 0.168 1.46 1.505 451
0.257 0.167 1.449 1.495 508
0.266 0.167 1.453 1.501 515
0.274 0.167 1.451 1.5 505
0.285 0.168 1.459 1.51 488
0.29 0.167 1.441 1.494 438
0.299 0.167 1.441 1.495 443
0.305 0.166 1.43 1.486 499
0.316 0.167 1.441 1.499 497
0.324 0.167 1.435 1.495 490
0.334 0.167 1.441 1.503 405
0.339 0.166 1.425 1.488 311
0.348 0.166 1.428 1.494 275
0.356 0.166 1.423 1.49 267
0.363 0.165 1.415 1.484 268
0.37 0.165 1.409 1.48 265
0.379 0.165 1.411 1.484 258
0.388 0.165 1.41 1.486 260
0.394 0.165 1.401 1.479 262
0.403 0.165 1.401 1.481 259
0.407 0.163 1.385 1.467 260
0.417 0.164 1.388 1.472 257
0.429 0.165 1.398 1.486 259
0.439 0.166 1.4 1.49 262
0.444 0.165 1.387 1.479 257
0.45 0.164 1.378 1.472 258
0.459 0.164 1.379 1.476 260
0.465 0.163 1.37 1.47 259
0.476 0.164 1.376 1.479 263
0.48 0.163 1.36 1.465 263
0.493 0.164 1.371 1.48 260
0.499 0.164 1.361 1.472 260
0.509 0.164 1.363 1.478 262
0.515 0.163 1.354 1.472 264
0.529 0.165 1.367 1.488 264
0.534 0.164 1.357 1.481 261
0.541 0.164 1.349 1.477 263
0.549 0.164 1.347 1.478 265
0.558 0.164 1.344 1.478 264
0.564 0.163 1.336 1.473 264
0.57 0.163 1.329 1.469 267
0.583 0.164 1.335 1.479 268
0.587 0.163 1.324 1.471 269
0.594 0.163 1.317 1.468 266
0.601 0.162 1.312 1.466 270
0.614 0.164 1.319 1.477 266
0.622 0.164 1.315 1.477 269
0.624 0.162 1.298 1.462 264
0.639 0.164 1.309 1.479 270
0.638 0.161 1.286 1.458 270
0.652 0.163 1.295 1.472 277
0.663 0.164 1.298 1.48 268
0.663 0.162 1.278 1.462 271
0.681 0.164 1.292 1.483 277
0.685 0.163 1.281 1.475 273
0.688 0.162 1.268 1.465 278
0.699 0.162 1.268 1.47 275
0.711 0.163 1.272 1.48 280
0.712 0.162 1.255 1.465 278
-1.01 0.24 1.786 2.077 87
-0.984 0.237 1.765 2.046 89
-0.987 0.24 1.797 2.076 90
-0.966 0.238 1.785 2.055 92
-0.943 0.235 1.769 2.03 94
-0.93 0.235 1.77 2.025 95
-0.913 0.233 1.764 2.012 95
-0.888 0.23 1.743 1.981 96
-0.885 0.232 1.762 1.997 96
-0.871 0.231 1.762 1.991 99
-0.86 0.231 1.768 1.992 102
-0.83 0.226 1.732 1.946 102
-0.814 0.225 1.725 1.933 103
-0.819 0.229 1.764 1.97 99
-0.795 0.225 1.739 1.938 110
-0.76 0.219 1.691 1.879 116
-0.666 0.194 1.503 1.667 262
-0.648 0.192 1.487 1.646 378
-0.64 0.192 1.493 1.648 407
-0.624 0.19 1.481 1.631 415
-0.616 0.19 1.487 1.633 418
-0.611 0.192 1.501 1.645 420
-0.596 0.19 1.49 1.628 438
-0.584 0.189 1.486 1.621 448
-0.577 0.19 1.495 1.626 472
-0.572 0.191 1.508 1.637 468
-0.57 0.193 1.531 1.658 404
-0.578 0.199 1.583 1.709 319
-0.575 0.202 1.605 1.729 303
-0.577 0.206 1.639 1.762 278
-0.569 0.206 1.648 1.768 275
-0.566 0.209 1.672 1.79 264
-0.562 0.211 1.694 1.81 256
-0.557 0.213 1.713 1.827 247
-0.554 0.216 1.738 1.85 245
-0.541 0.215 1.732 1.84 277
-0.532 0.216 1.741 1.846 269
-0.521 0.216 1.743 1.845 244
-0.506 0.214 1.729 1.828 237
-0.494 0.213 1.724 1.819 234
-0.488 0.215 1.744 1.837 232
-0.476 0.214 1.737 1.827 234
-0.463 0.213 1.731 1.818 233
-0.45 0.211 1.722 1.805 233
-0.439 0.211 1.723 1.804 231
-0.429 0.211 1.723 1.801 228
-0.418 0.21 1.723 1.798 233
-0.41 0.211 1.733 1.807 232
-0.393 0.208 1.709 1.779 232
-0.385 0.209 1.719 1.788 231
-0.373 0.208 1.71 1.776 232
-0.364 0.209 1.719 1.783 239
-0.351 0.207 1.704 1.765 239
-0.341 0.207 1.707 1.767 236
-0.329 0.206 1.698 1.756 236
-0.318 0.205 1.691 1.746 241
-0.308 0.205 1.693 1.746 242
-0.298 0.205 1.697 1.748 247
-0.286 0.203 1.683 1.733 235
-0.276 0.203 1.682 1.73 233
-0.257 0.196 1.626 1.671 245
-0.228 0.18 1.496 1.537 360
-0.217 0.178 1.478 1.518 441
-0.207 0.178 1.475 1.514 477
-0.198 0.177 1.471 1.508 475
-0.192 0.179 1.487 1.524 474
-0.183 0.178 1.484 1.52 464
-0.174 0.178 1.487 1.521 459
-0.165 0.178 1.483 1.517 460
-0.157 0.178 1.487 1.52 461
-0.148 0.178 1.482 1.513 469
-0.139 0.178 1.483 1.514 473
-0.13 0.177 1.478 1.508 465
-0.122 0.177 1.478 1.507 471
-0.113 0.177 1.476 1.504 484
-0.104 0.176 1.474 1.502 488
-0.096 0.177 1.482 1.51 454
-0.089 0.18 1.504 1.531 383
-0.085 0.189 1.582 1.609 279
-0.077 0.192 1.609 1.636 253
-0.067 0.19 1.596 1.623 317
-0.058 0.19 1.593 1.62 311
-0.049 0.191 1.603 1.629 293
-0.04 0.191 1.6 1.625 278
-0.03 0.191 1.6 1.625 285
-0.021 0.192 1.61 1.635 281
-0.012 0.191 1.599 1.625 288
-0.003 0.191 1.604 1.629 287
0.005 0.191 1.601 1.626 284
0.014 0.189 1.586 1.611 286
0.023 0.189 1.584 1.609 289
0.032 0.188 1.579 1.604 290
0.041 0.189 1.587 1.613 291
0.05 0.189 1.581 1.607 285
0.059 0.188 1.574 1.6 293
0.068 0.187 1.571 1.597 294
0.078 0.189 1.58 1.607 295
0.086 0.187 1.566 1.594 295
0.094 0.186 1.56 1.588 300
0.104 0.187 1.569 1.597 295
0.113 0.187 1.567 1.596 300
0.121 0.186 1.554 1.584 300
0.129 0.185 1.546 1.577 298
0.138 0.185 1.546 1.578 298
0.147 0.185 1.545 1.577 297
0.155 0.184 1.535 1.568 299
0.166 0.186 1.553 1.587 303
0.172 0.183 1.524 1.558 301
0.181 0.184 1.53 1.566 306
0.19 0.183 1.528 1.565 308
0.198 0.182 1.519 1.557 311
0.207 0.183 1.524 1.563 315
0.214 0.182 1.511 1.551 318
0.224 0.183 1.519 1.561 320
0.23 0.181 1.499 1.541 327
0.238 0.18 1.496 1.539 332
0.243 0.178 1.471 1.516 364
0.25 0.176 1.458 1.504 446
0.257 0.175 1.45 1.498 493
0.266 0.176 1.454 1.503 498
0.275 0.176 1.452 1.502 483
0.28 0.174 1.436 1.487 468
0.288 0.174 1.43 1.483 405
0.297 0.174 1.435 1.489 406
0.305 0.174 1.432 1.488 439
0.315 0.175 1.435 1.493 428
0.322 0.174 1.426 1.486 401
0.33 0.174 1.426 1.488 362
0.335 0.172 1.407 1.471 328
0.342 0.172 1.403 1.468 300
0.35 0.172 1.4 1.468 286
0.36 0.172 1.403 1.472 280
0.367 0.172 1.396 1.468 278
0.377 0.173 1.403 1.477 275
0.386 0.173 1.404 1.48 272
0.392 0.172 1.393 1.471 274
0.399 0.171 1.385 1.466 267
0.406 0.171 1.379 1.461 269
0.416 0.172 1.384 1.469 268
0.423 0.171 1.378 1.466 265
0.434 0.172 1.383 1.473 267
0.438 0.171 1.369 1.461 265
0.444 0.17 1.358 1.453 269
0.457 0.172 1.372 1.47 272
0.463 0.171 1.362 1.463 269
0.472 0.171 1.361 1.464 268
0.479 0.171 1.356 1.462 270
0.487 0.171 1.353 1.462 270
0.494 0.17 1.348 1.46 272
0.503 0.171 1.348 1.463 268
0.513 0.171 1.349 1.468 270
0.515 0.169 1.33 1.45 275
0.53 0.171 1.346 1.47 264
0.534 0.17 1.332 1.459 265
0.543 0.17 1.331 1.461 266
0.55 0.17 1.325 1.458 266
0.56 0.17 1.325 1.462 267
0.568 0.171 1.323 1.464 276
0.571 0.169 1.308 1.451 272
0.58 0.169 1.306 1.453 274
0.592 0.17 1.311 1.462 276
0.596 0.169 1.299 1.452 272
0.609 0.171 1.308 1.466 275
0.615 0.17 1.299 1.461 274
0.624 0.17 1.297 1.463 273
0.631 0.17 1.292 1.462 270
0.642 0.171 1.293 1.467 277
0.646 0.169 1.281 1.458 277
0.654 0.17 1.279 1.46 277
0.665 0.17 1.28 1.466 276
0.671 0.17 1.271 1.46 280
0.676 0.169 1.262 1.455 274
0.689 0.17 1.269 1.467 275
0.696 0.17 1.262 1.464 282
0.707 0.171 1.264 1.471 285
0.715 0.171 1.259 1.471 285
-1.008 0.251 1.78 2.073 90
-0.991 0.25 1.777 2.061 92
-0.957 0.244 1.74 2.013 95
-0.96 0.248 1.772 2.043 95
-0.943 0.247 1.767 2.03 96
-0.907 0.24 1.725 1.976 95
-0.906 0.243 1.75 1.997 97
-0.898 0.244 1.761 2.004 100
-0.869 0.239 1.729 1.962 101
-0.861 0.239 1.74 1.968 105
-0.837 0.236 1.718 1.938 106
-0.818 0.233 1.705 1.917 108
-0.803 0.232 1.701 1.907 106
-0.803 0.235 1.728 1.932 108
-0.784 0.233 1.716 1.913 112
-0.765 0.231 1.701 1.891 116
-0.693 0.212 1.564 1.736 195
-0.654 0.203 1.501 1.662 351
-0.637 0.2 1.486 1.642 406
-0.63 0.201 1.494 1.646 417
-0.62 0.201 1.497 1.645 423
-0.609 0.2 1.495 1.639 427
-0.599 0.2 1.495 1.635 438
-0.588 0.199 1.496 1.632 452
-0.576 0.198 1.49 1.622 468
-0.572 0.2 1.507 1.637 478
-0.568 0.202 1.525 1.652 424
-0.572 0.207 1.564 1.69 341
-0.575 0.211 1.601 1.727 312
-0.565 0.211 1.606 1.728 290
-0.566 0.215 1.638 1.759 276
-0.569 0.22 1.682 1.802 273
-0.559 0.22 1.682 1.799 266
-0.552 0.222 1.697 1.811 258
-0.547 0.224 1.716 1.828 249
-0.536 0.223 1.715 1.823 273
-0.526 0.223 1.718 1.824 273
-0.511 0.221 1.707 1.808 255
-0.499 0.221 1.705 1.803 250
-0.488 0.22 1.703 1.798 248
-0.483 0.222 1.723 1.816 242
-0.469 0.221 1.712 1.802 240
-0.458 0.221 1.713 1.8 242
-0.445 0.219 1.703 1.787 240
-0.436 0.22 1.71 1.791 239
-0.422 0.218 1.696 1.775 237
-0.413 0.218 1.702 1.778 239
-0.402 0.217 1.698 1.772 245
-0.389 0.216 1.69 1.761 240
-0.379 0.216 1.692 1.76 248
-0.367 0.215 1.683 1.75 246
-0.358 0.215 1.688 1.752 249
-0.345 0.213 1.676 1.738 247
-0.336 0.214 1.68 1.74 253
-0.324 0.212 1.671 1.729 250
-0.316 0.213 1.681 1.737 252
-0.304 0.212 1.67 1.724 250
-0.292 0.21 1.66 1.712 249
-0.282 0.21 1.659 1.71 242
-0.273 0.21 1.664 1.713 243
-0.26 0.208 1.643 1.69 243
-0.231 0.191 1.512 1.555 324
-0.217 0.187 1.481 1.522 425
-0.207 0.186 1.471 1.511 466
-0.199 0.187 1.479 1.518 478
-0.191 0.187 1.48 1.518 467
-0.183 0.187 1.483 1.519 465
-0.174 0.187 1.483 1.519 456
-0.165 0.187 1.483 1.517 455
-0.157 0.187 1.488 1.522 460
-0.148 0.186 1.48 1.513 467
-0.14 0.187 1.489 1.521 474
-0.131 0.186 1.48 1.512 468
-0.122 0.186 1.482 1.513 469
-0.113 0.185 1.477 1.507 480
-0.104 0.185 1.474 1.503 491
-0.097 0.187 1.488 1.516 463
-0.089 0.189 1.506 1.535 404
-0.084 0.196 1.568 1.596 299
-0.076 0.2 1.6 1.628 263
-0.067 0.199 1.587 1.615 327
-0.057 0.198 1.584 1.611 316
-0.049 0.199 1.593 1.62 293
-0.04 0.2 1.598 1.624 289
-0.03 0.198 1.583 1.61 287
-0.021 0.199 1.588 1.615 291
-0.012 0.199 1.589 1.616 291
-0.003 0.197 1.579 1.605 296
0.005 0.197 1.576 1.602 293
0.014 0.197 1.572 1.598 290
0.023 0.197 1.576 1.602 291
0.032 0.197 1.572 1.598 293
0.041 0.195 1.561 1.587 292
0.05 0.195 1.563 1.59 293
0.059 0.197 1.571 1.598 297
0.068 0.195 1.56 1.588 295
0.076 0.194 1.553 1.581 299
0.085 0.194 1.547 1.576 299
0.094 0.194 1.549 1.578 305
0.102 0.192 1.531 1.56 300
0.111 0.193 1.541 1.571 303
0.12 0.193 1.543 1.573 304
0.129 0.193 1.537 1.568 304
0.137 0.193 1.538 1.57 303
0.145 0.191 1.519 1.552 301
0.153 0.19 1.514 1.548 303
0.161 0.19 1.508 1.543 310
0.171 0.19 1.514 1.55 312
0.179 0.191 1.515 1.552 313
0.187 0.19 1.507 1.544 313
0.196 0.19 1.506 1.545 314
0.203 0.188 1.492 1.531 315
0.212 0.188 1.492 1.533 316
0.22 0.188 1.488 1.53 319
0.228 0.188 1.486 1.529 327
0.235 0.187 1.475 1.519 340
0.242 0.186 1.465 1.51 366
0.248 0.184 1.449 1.496 394
0.257 0.184 1.446 1.494 412
0.264 0.183 1.44 1.49 419
0.273 0.183 1.439 1.49 408
0.279 0.182 1.43 1.483 397
0.286 0.181 1.422 1.476 384
0.293 0.18 1.413 1.468 375
0.303 0.181 1.421 1.478 397
0.312 0.181 1.419 1.478 396
0.319 0.181 1.411 1.472 385
0.328 0.181 1.414 1.476 369
0.335 0.18 1.406 1.471 340
0.343 0.181 1.405 1.471 311
0.349 0.179 1.394 1.463 296
0.357 0.179 1.392 1.462 294
0.366 0.179 1.391 1.463 287
0.375 0.18 1.394 1.469 287
0.38 0.179 1.381 1.457 282
0.39 0.179 1.383 1.462 283
0.397 0.179 1.379 1.46 279
0.403 0.178 1.37 1.453 279
0.413 0.179 1.372 1.457 278
0.42 0.178 1.365 1.453 274
0.426 0.177 1.357 1.447 274
0.435 0.178 1.358 1.451 275
0.443 0.177 1.354 1.449 274
0.452 0.178 1.355 1.453 275
0.459 0.177 1.349 1.449 274
0.466 0.177 1.343 1.447 269
0.477 0.178 1.349 1.455 277
0.485 0.178 1.347 1.456 279
0.49 0.177 1.336 1.448 280
0.498 0.177 1.332 1.447 278
0.504 0.176 1.324 1.441 276
0.516 0.177 1.33 1.451 277
0.521 0.176 1.32 1.444 272
0.528 0.176 1.314 1.441 276
0.537 0.177 1.315 1.445 277
0.544 0.176 1.309 1.442 280
0.551 0.176 1.305 1.441 275
0.556 0.175 1.293 1.432 276
0.574 0.178 1.315 1.459 277
0.578 0.177 1.301 1.448 281
0.583 0.176 1.291 1.441 278
0.59 0.175 1.285 1.438 282
0.601 0.177 1.29 1.447 279
0.607 0.176 1.28 1.441 279
0.617 0.176 1.281 1.446 279
0.62 0.175 1.268 1.436 280
0.631 0.176 1.27 1.442 283
0.641 0.176 1.272 1.448 285
0.647 0.176 1.262 1.442 281
0.648 0.174 1.246 1.428 281
0.668 0.177 1.266 1.456 280
0.671 0.176 1.252 1.444 279
0.681 0.176 1.252 1.449 284
0.686 0.175 1.243 1.443 286
0.695 0.176 1.241 1.446 292
0.703 0.176 1.236 1.446 291
-0.964 0.251 1.7 1.982 94
-0.967 0.255 1.731 2.011 99
-0.961 0.257 1.746 2.021 96
-0.929 0.251 1.712 1.976 96
-0.92 0.252 1.721 1.979 104
-0.901 0.249 1.711 1.961 105
-0.889 0.249 1.716 1.96 101
-0.883 0.25 1.729 1.969 104
-0.847 0.243 1.684 1.912 100
-0.849 0.247 1.714 1.94 110
-0.825 0.243 1.693 1.911 114
-0.818 0.244 1.705 1.919 111
-0.815 0.247 1.725 1.935 111
-0.802 0.246 1.725 1.93 117
-0.77 0.24 1.684 1.879 118
-0.757 0.239 1.682 1.872 125
-0.712 0.228 1.608 1.785 145
-0.651 0.211 1.491 1.653 300
-0.641 0.211 1.494 1.652 392
-0.63 0.21 1.494 1.648 420
-0.623 0.211 1.502 1.652 425
-0.611 0.21 1.499 1.645 427
-0.602 0.21 1.502 1.644 438
-0.591 0.209 1.5 1.638 451
-0.58 0.209 1.5 1.634 468
-0.571 0.209 1.502 1.633 483
-0.568 0.211 1.523 1.652 450
-0.573 0.217 1.565 1.694 374
-0.577 0.222 1.607 1.735 316
-0.575 0.225 1.632 1.758 295
-0.572 0.228 1.656 1.779 278
-0.564 0.228 1.665 1.785 279
-0.558 0.23 1.678 1.796 273
-0.552 0.232 1.695 1.81 267
-0.541 0.232 1.697 1.809 265
-0.532 0.232 1.703 1.812 292
-0.519 0.231 1.695 1.8 280
-0.508 0.23 1.695 1.798 266
-0.499 0.231 1.702 1.801 258
-0.487 0.23 1.697 1.793 255
-0.473 0.228 1.685 1.778 251
-0.467 0.23 1.703 1.794 253
-0.452 0.227 1.686 1.773 249
-0.441 0.227 1.687 1.772 247
-0.432 0.228 1.693 1.775 246
-0.418 0.225 1.677 1.756 244
-0.405 0.224 1.669 1.745 245
-0.397 0.224 1.676 1.75 248
-0.389 0.226 1.687 1.759 250
-0.375 0.223 1.669 1.739 251
-0.365 0.223 1.673 1.741 254
-0.353 0.222 1.662 1.727 256
-0.344 0.222 1.667 1.729 252
-0.332 0.221 1.659 1.72 254
-0.32 0.219 1.649 1.708 253
-0.314 0.222 1.669 1.726 255
-0.303 0.221 1.662 1.717 261
-0.288 0.217 1.637 1.69 255
-0.281 0.219 1.65 1.702 253
-0.268 0.216 1.633 1.682 249
-0.257 0.215 1.625 1.672 247
-0.238 0.206 1.56 1.605 292
-0.219 0.198 1.494 1.536 407
-0.208 0.195 1.478 1.519 467
-0.201 0.196 1.488 1.528 477
-0.192 0.196 1.489 1.528 476
-0.183 0.196 1.489 1.527 466
-0.174 0.196 1.484 1.521 460
-0.165 0.195 1.482 1.518 455
-0.157 0.195 1.482 1.516 456
-0.148 0.196 1.486 1.52 461
-0.139 0.195 1.481 1.514 465
-0.131 0.194 1.479 1.511 468
-0.123 0.195 1.487 1.518 469
-0.113 0.194 1.478 1.508 476
-0.105 0.195 1.484 1.514 493
-0.097 0.195 1.484 1.513 476
-0.089 0.196 1.492 1.522 419
-0.083 0.202 1.543 1.572 317
-0.076 0.207 1.584 1.613 282
-0.066 0.206 1.57 1.599 328
-0.057 0.205 1.568 1.596 309
-0.048 0.206 1.574 1.602 300
-0.039 0.205 1.569 1.597 293
-0.03 0.206 1.573 1.6 296
-0.021 0.205 1.563 1.591 297
-0.012 0.205 1.563 1.59 297
-0.003 0.205 1.563 1.59 297
0.005 0.203 1.554 1.581 293
0.014 0.204 1.56 1.587 297
0.023 0.203 1.55 1.577 301
0.032 0.204 1.556 1.584 304
0.04 0.202 1.541 1.569 300
0.049 0.201 1.538 1.566 300
0.058 0.201 1.538 1.566 301
0.066 0.2 1.524 1.553 302
0.075 0.201 1.53 1.559 300
0.084 0.201 1.533 1.562 300
0.092 0.199 1.518 1.548 303
0.101 0.2 1.522 1.552 302
0.109 0.199 1.513 1.544 306
0.118 0.2 1.52 1.552 308
0.126 0.198 1.506 1.538 306
0.135 0.198 1.509 1.542 306
0.143 0.197 1.501 1.535 308
0.151 0.196 1.492 1.527 304
0.159 0.196 1.492 1.527 312
0.168 0.196 1.487 1.523 314
0.177 0.197 1.495 1.532 316
0.185 0.197 1.491 1.53 318
0.193 0.195 1.48 1.519 320
0.202 0.196 1.485 1.526 321
0.21 0.195 1.478 1.519 317
0.218 0.195 1.472 1.515 324
0.225 0.194 1.467 1.511 327
0.232 0.192 1.452 1.497 338
0.24 0.192 1.451 1.498 362
0.249 0.192 1.449 1.497 376
0.255 0.191 1.438 1.487 386
0.261 0.189 1.423 1.473 396
0.271 0.19 1.429 1.481 396
0.278 0.19 1.424 1.477 401
0.285 0.189 1.416 1.471 403
0.294 0.189 1.414 1.471 398
0.301 0.188 1.409 1.467 394
0.31 0.189 1.412 1.472 389
0.317 0.188 1.405 1.466 380
0.324 0.188 1.398 1.462 364
0.335 0.189 1.408 1.474 347
0.34 0.187 1.391 1.458 319
0.349 0.188 1.393 1.462 304
0.354 0.186 1.38 1.451 303
0.362 0.186 1.375 1.448 296
0.371 0.186 1.379 1.454 291
0.379 0.186 1.376 1.453 291
0.383 0.184 1.359 1.438 297
0.396 0.186 1.372 1.454 285
0.4 0.185 1.356 1.44 282
0.41 0.185 1.36 1.446 286
0.418 0.185 1.358 1.447 283
0.424 0.185 1.351 1.442 281
0.432 0.184 1.346 1.439 282
0.44 0.185 1.346 1.442 285
0.445 0.183 1.334 1.432 286
0.453 0.183 1.332 1.432 277
0.46 0.183 1.325 1.428 282
0.47 0.184 1.328 1.435 282
0.478 0.184 1.327 1.437 286
0.489 0.185 1.331 1.444 289
0.495 0.184 1.324 1.44 285
0.503 0.184 1.321 1.439 283
0.508 0.183 1.309 1.43 285
0.517 0.183 1.309 1.433 279
0.526 0.184 1.309 1.436 279
0.529 0.182 1.295 1.424 284
0.539 0.183 1.296 1.429 282
0.546 0.182 1.291 1.427 277
0.557 0.183 1.294 1.434 279
0.567 0.184 1.295 1.439 280
0.572 0.183 1.286 1.433 284
0.581 0.183 1.285 1.436 284
0.588 0.183 1.279 1.433 288
0.597 0.183 1.278 1.436 293
0.601 0.182 1.268 1.429 287
0.612 0.183 1.271 1.436 292
0.624 0.184 1.276 1.446 289
0.627 0.183 1.261 1.434 290
0.63 0.181 1.248 1.423 291
0.645 0.183 1.259 1.439 286
0.653 0.183 1.255 1.44 283
0.659 0.183 1.247 1.436 286
0.666 0.183 1.243 1.435 288
0.673 0.182 1.237 1.433 290
0.682 0.183 1.235 1.435 294
0.691 0.183 1.232 1.437 298
0.695 0.182 1.221 1.429 300
-0.969 0.264 1.709 1.994 102
-0.961 0.265 1.719 1.998 104
-0.941 0.262 1.708 1.979 105
-0.922 0.26 1.699 1.963 108
-0.91 0.26 1.702 1.959 107
-0.888 0.257 1.686 1.934 109
-0.881 0.258 1.697 1.941 111
-0.859 0.255 1.681 1.917 108
-0.843 0.253 1.674 1.903 112
-0.84 0.255 1.694 1.92 110
-0.82 0.252 1.68 1.898 115
