# .PCD v0.7 - Point Cloud Data file format
VERSION 0.7
FIELDS x y z d a
SIZE 4 4 4 4 4
TYPE F F F F F
COUNT 1 1 1 1 1
WIDTH 1691
HEIGHT 1
VIEWPOINT 0 0 0 1 0 0 0
POINTS 1691
DATA ascii
-1.214 -0.06 2.197 2.523 49
-1.189 -0.059 2.185 2.5 46
-1.149 -0.058 2.142 2.444 52
-1.147 -0.058 2.17 2.467 53
-1.119 -0.058 2.149 2.436 52
-1.096 -0.057 2.136 2.413 48
-1.081 -0.057 2.139 2.409 56
-1.062 -0.057 2.135 2.397 50
-1.036 -0.056 2.115 2.368 52
-1.006 -0.055 2.086 2.329 55
-0.987 -0.055 2.078 2.314 54
-0.997 -0.056 2.132 2.366 54
-0.991 -0.057 2.153 2.384 58
-0.959 -0.055 2.117 2.337 56
-0.94 -0.055 2.109 2.322 57
-0.916 -0.054 2.089 2.294 58
-0.907 -0.055 2.103 2.304 59
-0.894 -0.055 2.107 2.302 60
-0.887 -0.055 2.127 2.318 62
-0.857 -0.054 2.09 2.272 59
-0.846 -0.054 2.099 2.277 59
-0.804 -0.052 2.029 2.196 59
-0.805 -0.053 2.067 2.232 58
-0.805 -0.054 2.105 2.267 59
-0.782 -0.053 2.082 2.237 61
-0.783 -0.054 2.124 2.277 62
-0.76 -0.053 2.1 2.247 60
-0.74 -0.053 2.083 2.224 59
-0.735 -0.053 2.107 2.245 58
-0.724 -0.053 2.118 2.252 63
-0.708 -0.053 2.109 2.239 63
-0.696 -0.053 2.117 2.242 59
-0.677 -0.053 2.099 2.22 64
-0.66 -0.052 2.09 2.206 63
-0.65 -0.053 2.102 2.214 64
-0.624 -0.051 2.057 2.163 63
-0.619 -0.052 2.088 2.192 63
-0.594 -0.051 2.046 2.144 60
-0.498 -0.043 1.751 1.834 67
-0.461 -0.041 1.655 1.731 84
-0.446 -0.04 1.637 1.711 85
-0.442 -0.041 1.661 1.732 90
-0.438 -0.041 1.689 1.759 97
-0.424 -0.041 1.675 1.742 99
-0.423 -0.042 1.712 1.777 113
-0.407 -0.041 1.688 1.751 113
-0.401 -0.042 1.708 1.769 114
-0.382 -0.041 1.669 1.727 114
-0.378 -0.041 1.699 1.755 118
-0.366 -0.041 1.69 1.743 123
-0.355 -0.041 1.688 1.739 125
-0.35 -0.041 1.713 1.762 129
-0.336 -0.041 1.69 1.737 133
-0.322 -0.04 1.67 1.715 136
-0.319 -0.041 1.712 1.755 137
-0.306 -0.041 1.694 1.736 135
-0.295 -0.041 1.685 1.725 136
-0.287 -0.041 1.698 1.736 136
-0.274 -0.04 1.68 1.716 138
-0.265 -0.041 1.69 1.725 136
-0.257 -0.041 1.697 1.73 140
-0.243 -0.04 1.672 1.704 138
-0.234 -0.04 1.676 1.706 142
-0.226 -0.04 1.691 1.721 138
-0.215 -0.04 1.678 1.706 139
-0.205 -0.04 1.68 1.707 139
-0.195 -0.04 1.68 1.705 137
-0.187 -0.04 1.69 1.714 139
-0.175 -0.04 1.671 1.695 137
-0.167 -0.04 1.687 1.71 140
-0.156 -0.04 1.677 1.699 136
-0.146 -0.04 1.665 1.686 137
-0.136 -0.04 1.67 1.69 136
-0.126 -0.039 1.66 1.68 134
-0.117 -0.04 1.668 1.687 135
-0.107 -0.039 1.662 1.68 136
-0.099 -0.04 1.683 1.7 135
-0.088 -0.039 1.656 1.673 134
-0.079 -0.039 1.659 1.675 130
-0.069 -0.039 1.658 1.674 131
-0.059 -0.039 1.642 1.658 134
-0.05 -0.039 1.653 1.669 129
-0.041 -0.039 1.655 1.67 128
-0.031 -0.039 1.668 1.682 128
-0.022 -0.039 1.644 1.659 128
-0.012 -0.039 1.65 1.665 127
-0.003 -0.039 1.659 1.674 128
0.005 -0.039 1.653 1.667 128
0.015 -0.039 1.636 1.65 131
0.024 -0.038 1.628 1.643 129
0.033 -0.039 1.636 1.651 131
0.043 -0.039 1.645 1.66 130
0.052 -0.039 1.637 1.653 129
0.062 -0.039 1.646 1.661 132
0.07 -0.039 1.628 1.644 133
0.081 -0.039 1.655 1.671 133
0.089 -0.039 1.634 1.651 133
0.099 -0.039 1.648 1.666 134
0.108 -0.039 1.638 1.656 140
0.117 -0.039 1.631 1.65 143
0.127 -0.039 1.64 1.66 141
0.137 -0.039 1.644 1.665 143
0.146 -0.039 1.639 1.66 142
0.155 -0.039 1.643 1.665 140
0.164 -0.039 1.636 1.659 143
0.174 -0.039 1.643 1.667 144
0.182 -0.039 1.625 1.65 143
0.193 -0.039 1.643 1.669 143
0.202 -0.039 1.633 1.66 147
0.212 -0.039 1.639 1.668 143
0.222 -0.039 1.644 1.674 145
0.229 -0.039 1.624 1.655 147
0.237 -0.039 1.617 1.649 148
0.249 -0.039 1.629 1.663 148
0.257 -0.039 1.619 1.654 152
0.269 -0.039 1.637 1.673 148
0.28 -0.039 1.645 1.684 150
0.288 -0.039 1.633 1.673 149
0.292 -0.038 1.606 1.647 151
0.307 -0.039 1.633 1.677 148
0.314 -0.039 1.619 1.664 150
0.324 -0.039 1.618 1.665 147
0.335 -0.039 1.628 1.676 148
0.343 -0.039 1.619 1.67 150
0.353 -0.039 1.62 1.673 149
0.362 -0.039 1.616 1.671 150
0.376 -0.04 1.634 1.692 151
0.377 -0.039 1.594 1.653 148
0.392 -0.039 1.618 1.68 149
0.404 -0.039 1.625 1.689 149
0.409 -0.039 1.606 1.672 150
0.415 -0.039 1.592 1.66 149
0.424 -0.039 1.589 1.659 137
0.438 -0.039 1.601 1.675 142
0.445 -0.039 1.592 1.668 145
0.454 -0.039 1.588 1.666 141
0.461 -0.039 1.577 1.658 143
0.475 -0.039 1.59 1.673 142
0.478 -0.038 1.568 1.654 133
0.479 -0.038 1.537 1.625 121
0.488 -0.038 1.534 1.624 115
0.495 -0.038 1.527 1.62 117
0.516 -0.039 1.561 1.659 117
0.514 -0.038 1.524 1.623 113
0.607 -0.044 1.765 1.881 88
0.665 -0.048 1.899 2.027 93
0.689 -0.048 1.93 2.064 94
0.691 -0.048 1.9 2.037 94
0.705 -0.048 1.903 2.044 92
0.732 -0.049 1.942 2.09 94
0.72 -0.047 1.877 2.025 97
0.746 -0.048 1.91 2.065 91
0.753 -0.048 1.894 2.053 94
0.762 -0.048 1.884 2.047 91
0.784 -0.049 1.905 2.075 91
0.805 -0.049 1.923 2.099 93
0.801 -0.048 1.881 2.059 94
0.819 -0.049 1.892 2.076 94
0.816 -0.048 1.854 2.04 92
0.848 -0.049 1.896 2.091 91
0.846 -0.048 1.861 2.058 91
0.865 -0.049 1.873 2.078 92
0.888 -0.049 1.892 2.104 91
0.884 -0.048 1.856 2.07 88
0.902 -0.049 1.864 2.085 91
0.927 -0.049 1.885 2.115 94
0.935 -0.049 1.873 2.107 92
0.951 -0.049 1.876 2.117 84
0.948 -0.049 1.843 2.087 86
0.955 -0.048 1.829 2.077 89
0.992 -0.05 1.871 2.131 86
1.001 -0.05 1.861 2.127 89
1.02 -0.05 1.867 2.141 88
1.041 -0.05 1.878 2.161 85
1.047 -0.05 1.862 2.15 86
-1.187 -0.044 2.117 2.439 50
-1.165 -0.044 2.107 2.42 52
-1.139 -0.043 2.092 2.394 54
-1.111 -0.043 2.071 2.362 50
-1.112 -0.043 2.103 2.391 55
-1.085 -0.043 2.084 2.362 55
-1.074 -0.043 2.094 2.366 55
-1.036 -0.042 2.051 2.31 55
-1.04 -0.042 2.09 2.347 53
-1.019 -0.042 2.079 2.328 58
-0.992 -0.041 2.055 2.294 55
-1 -0.042 2.105 2.343 57
-0.959 -0.041 2.05 2.276 59
-0.96 -0.042 2.086 2.309 62
-0.946 -0.042 2.089 2.306 61
-0.94 -0.042 2.11 2.322 62
-0.91 -0.041 2.075 2.278 62
-0.891 -0.041 2.067 2.264 64
-0.886 -0.041 2.089 2.282 64
-0.866 -0.041 2.078 2.264 62
-0.843 -0.04 2.057 2.236 63
-0.845 -0.041 2.098 2.275 63
-0.821 -0.041 2.074 2.244 61
-0.798 -0.04 2.049 2.212 59
-0.785 -0.04 2.053 2.211 63
-0.773 -0.04 2.057 2.211 67
-0.768 -0.04 2.083 2.233 65
-0.754 -0.04 2.084 2.23 62
-0.737 -0.04 2.075 2.216 63
-0.73 -0.04 2.094 2.231 62
-0.712 -0.04 2.081 2.213 67
-0.697 -0.04 2.079 2.206 70
-0.674 -0.039 2.05 2.172 65
-0.661 -0.039 2.051 2.169 65
-0.647 -0.039 2.046 2.159 68
-0.638 -0.039 2.062 2.172 69
-0.616 -0.039 2.032 2.136 65
-0.579 -0.037 1.951 2.049 59
-0.499 -0.032 1.715 1.8 74
-0.465 -0.03 1.633 1.711 85
-0.453 -0.03 1.628 1.703 89
-0.45 -0.031 1.654 1.728 91
-0.44 -0.031 1.655 1.726 102
-0.428 -0.031 1.648 1.717 106
-0.429 -0.031 1.695 1.762 118
-0.415 -0.031 1.679 1.743 118
-0.406 -0.031 1.686 1.748 116
-0.396 -0.031 1.686 1.746 122
-0.382 -0.031 1.67 1.727 120
-0.371 -0.031 1.664 1.718 126
-0.369 -0.031 1.703 1.757 132
-0.358 -0.031 1.7 1.752 137
-0.345 -0.031 1.688 1.737 139
-0.334 -0.031 1.682 1.729 139
-0.326 -0.031 1.693 1.738 141
-0.309 -0.03 1.656 1.699 140
-0.304 -0.031 1.681 1.723 140
-0.294 -0.031 1.685 1.724 140
-0.281 -0.03 1.665 1.703 142
-0.27 -0.03 1.659 1.694 145
-0.264 -0.031 1.681 1.715 145
-0.252 -0.03 1.667 1.7 147
-0.241 -0.03 1.658 1.689 145
-0.232 -0.03 1.661 1.692 146
-0.222 -0.03 1.659 1.688 145
-0.212 -0.03 1.655 1.682 143
-0.205 -0.03 1.681 1.707 146
-0.192 -0.03 1.654 1.679 145
-0.183 -0.03 1.654 1.678 142
-0.174 -0.03 1.666 1.689 144
-0.166 -0.03 1.677 1.7 142
-0.153 -0.03 1.645 1.667 141
-0.146 -0.03 1.665 1.686 137
-0.135 -0.03 1.652 1.672 139
-0.125 -0.03 1.652 1.671 137
-0.116 -0.03 1.649 1.667 136
-0.106 -0.03 1.651 1.669 139
-0.097 -0.03 1.651 1.668 136
-0.087 -0.029 1.636 1.653 137
-0.078 -0.03 1.642 1.658 135
-0.069 -0.03 1.65 1.666 134
-0.059 -0.03 1.655 1.671 135
-0.049 -0.029 1.626 1.641 131
-0.04 -0.029 1.618 1.633 130
-0.031 -0.029 1.623 1.638 130
-0.021 -0.029 1.631 1.646 131
-0.012 -0.029 1.635 1.649 132
-0.003 -0.029 1.626 1.64 132
0.005 -0.029 1.632 1.646 133
0.015 -0.029 1.637 1.651 133
0.024 -0.029 1.635 1.65 136
0.034 -0.03 1.657 1.672 133
0.043 -0.029 1.634 1.649 137
0.051 -0.029 1.618 1.633 141
0.061 -0.029 1.63 1.645 138
0.07 -0.029 1.622 1.638 142
0.08 -0.029 1.639 1.656 142
0.088 -0.029 1.617 1.634 143
0.098 -0.029 1.626 1.643 146
0.107 -0.029 1.618 1.636 149
0.117 -0.029 1.629 1.648 147
0.126 -0.029 1.633 1.653 153
0.135 -0.029 1.627 1.647 153
0.144 -0.029 1.622 1.643 152
0.155 -0.029 1.634 1.656 153
0.164 -0.029 1.632 1.654 151
0.172 -0.029 1.621 1.644 154
0.182 -0.029 1.624 1.648 150
0.191 -0.029 1.625 1.651 154
0.199 -0.029 1.613 1.64 148
0.206 -0.029 1.592 1.62 150
0.219 -0.029 1.622 1.651 150
0.224 -0.029 1.593 1.623 153
0.234 -0.029 1.595 1.627 153
0.245 -0.029 1.605 1.639 153
0.254 -0.029 1.605 1.64 152
0.265 -0.029 1.61 1.646 154
0.274 -0.029 1.61 1.648 154
0.285 -0.029 1.617 1.657 154
0.292 -0.029 1.605 1.646 156
0.302 -0.029 1.605 1.648 150
0.311 -0.029 1.604 1.649 148
0.32 -0.029 1.598 1.644 152
0.328 -0.029 1.592 1.64 151
0.335 -0.029 1.582 1.632 154
0.349 -0.029 1.599 1.651 153
0.357 -0.029 1.593 1.647 154
0.364 -0.029 1.581 1.636 155
0.377 -0.029 1.597 1.655 156
0.389 -0.029 1.605 1.666 155
0.395 -0.029 1.59 1.653 153
0.407 -0.029 1.597 1.662 153
0.412 -0.029 1.579 1.646 153
0.418 -0.029 1.565 1.635 147
0.427 -0.029 1.564 1.636 146
0.437 -0.029 1.563 1.637 146
0.449 -0.029 1.57 1.647 144
0.459 -0.029 1.569 1.649 144
0.466 -0.029 1.56 1.642 145
0.473 -0.029 1.55 1.635 137
0.472 -0.028 1.516 1.602 129
0.491 -0.029 1.543 1.634 122
0.494 -0.028 1.524 1.617 120
0.501 -0.028 1.514 1.609 119
0.516 -0.029 1.531 1.63 116
0.562 -0.031 1.633 1.742 97
0.654 -0.036 1.868 1.994 96
0.668 -0.036 1.873 2.003 99
0.688 -0.036 1.891 2.027 100
0.697 -0.036 1.882 2.021 100
0.709 -0.036 1.881 2.025 100
0.715 -0.036 1.862 2.009 100
0.735 -0.036 1.881 2.034 98
0.751 -0.036 1.888 2.046 96
0.759 -0.036 1.876 2.038 97
0.773 -0.036 1.878 2.045 94
0.776 -0.036 1.854 2.024 97
0.799 -0.037 1.876 2.053 96
0.792 -0.036 1.83 2.008 95
0.815 -0.036 1.852 2.038 93
0.831 -0.036 1.858 2.05 93
0.849 -0.037 1.869 2.066 93
0.857 -0.037 1.856 2.058 96
0.869 -0.037 1.852 2.06 96
0.881 -0.037 1.85 2.063 95
0.891 -0.037 1.841 2.059 92
0.916 -0.037 1.864 2.091 94
0.924 -0.037 1.851 2.083 95
0.934 -0.037 1.844 2.081 96
0.947 -0.037 1.84 2.083 93
0.964 -0.037 1.846 2.097 93
0.964 -0.037 1.819 2.072 91
0.997 -0.038 1.853 2.118 95
1 -0.037 1.831 2.1 93
1.023 -0.038 1.846 2.124 94
1.026 -0.037 1.825 2.107 91
-1.151 -0.029 2.052 2.365 54
-1.137 -0.029 2.058 2.363 51
-1.124 -0.029 2.064 2.362 54
-1.121 -0.03 2.089 2.383 52
-1.097 -0.029 2.075 2.36 55
-1.064 -0.029 2.042 2.314 53
-1.07 -0.029 2.086 2.356 58
-1.025 -0.028 2.027 2.284 57
-1.039 -0.029 2.089 2.345 61
-1.004 -0.029 2.05 2.295 61
-1 -0.029 2.073 2.314 61
-0.982 -0.029 2.067 2.301 64
-0.96 -0.028 2.054 2.28 62
-0.934 -0.028 2.03 2.247 62
-0.917 -0.028 2.026 2.236 69
-0.91 -0.028 2.042 2.248 68
-0.908 -0.028 2.072 2.275 65
-0.887 -0.028 2.058 2.254 69
-0.861 -0.028 2.031 2.219 65
-0.837 -0.027 2.008 2.188 65
-0.827 -0.027 2.016 2.192 65
-0.819 -0.027 2.033 2.204 65
-0.803 -0.027 2.027 2.193 64
-0.791 -0.027 2.033 2.194 68
-0.778 -0.027 2.034 2.19 66
-0.768 -0.027 2.046 2.199 69
-0.754 -0.027 2.044 2.192 68
-0.744 -0.027 2.055 2.199 68
-0.726 -0.027 2.042 2.18 67
-0.712 -0.027 2.041 2.175 68
-0.697 -0.027 2.038 2.167 70
-0.68 -0.027 2.027 2.151 67
-0.667 -0.027 2.026 2.146 70
-0.644 -0.026 1.997 2.112 72
-0.644 -0.027 2.04 2.152 76
-0.628 -0.027 2.03 2.139 74
-0.582 -0.025 1.92 2.02 65
-0.486 -0.021 1.636 1.72 81
-0.471 -0.021 1.618 1.699 94
-0.456 -0.02 1.601 1.678 95
-0.452 -0.021 1.624 1.7 96
-0.443 -0.021 1.63 1.702 102
-0.44 -0.021 1.654 1.725 114
-0.429 -0.021 1.652 1.72 125
-0.424 -0.021 1.675 1.742 124
-0.413 -0.021 1.671 1.735 124
-0.398 -0.021 1.651 1.712 126
-0.39 -0.021 1.66 1.719 129
-0.382 -0.021 1.668 1.725 135
-0.372 -0.021 1.67 1.724 137
-0.356 -0.021 1.644 1.696 141
-0.35 -0.021 1.662 1.712 144
-0.34 -0.021 1.663 1.711 143
-0.326 -0.021 1.64 1.686 144
-0.319 -0.021 1.655 1.699 145
-0.308 -0.021 1.651 1.694 147
-0.296 -0.02 1.639 1.68 145
-0.294 -0.021 1.683 1.723 146
-0.281 -0.021 1.662 1.7 148
-0.269 -0.021 1.651 1.687 149
-0.257 -0.02 1.636 1.67 156
-0.248 -0.02 1.639 1.671 155
-0.24 -0.02 1.651 1.682 153
-0.23 -0.02 1.648 1.678 153
-0.22 -0.02 1.643 1.672 152
-0.211 -0.02 1.647 1.674 149
-0.2 -0.02 1.639 1.666 150
-0.192 -0.02 1.65 1.676 149
-0.181 -0.02 1.643 1.667 149
-0.172 -0.02 1.642 1.665 146
-0.162 -0.02 1.635 1.657 149
-0.152 -0.02 1.633 1.655 147
-0.143 -0.02 1.636 1.656 151
-0.134 -0.02 1.635 1.655 147
-0.124 -0.02 1.637 1.656 147
-0.114 -0.02 1.628 1.646 147
-0.105 -0.02 1.631 1.648 146
-0.096 -0.02 1.626 1.643 147
-0.087 -0.02 1.637 1.654 141
-0.077 -0.02 1.634 1.65 144
-0.068 -0.02 1.632 1.648 139
-0.058 -0.02 1.601 1.616 136
-0.049 -0.02 1.616 1.631 132
-0.04 -0.02 1.613 1.628 133
-0.031 -0.02 1.638 1.653 132
-0.021 -0.02 1.629 1.643 133
-0.012 -0.02 1.613 1.627 134
-0.003 -0.02 1.635 1.649 135
0.005 -0.02 1.619 1.634 134
0.014 -0.02 1.618 1.632 139
0.024 -0.02 1.619 1.634 137
0.033 -0.02 1.631 1.645 139
0.042 -0.02 1.614 1.629 140
0.051 -0.02 1.614 1.629 139
0.06 -0.02 1.609 1.624 140
0.07 -0.02 1.621 1.637 143
0.079 -0.02 1.612 1.628 142
0.088 -0.02 1.611 1.628 147
0.096 -0.02 1.6 1.618 150
0.105 -0.02 1.598 1.616 155
0.115 -0.02 1.604 1.622 155
0.124 -0.02 1.603 1.622 154
0.133 -0.02 1.596 1.616 158
0.144 -0.02 1.618 1.639 153
0.153 -0.02 1.615 1.637 155
0.161 -0.02 1.605 1.628 156
0.169 -0.019 1.589 1.612 157
0.179 -0.02 1.599 1.623 156
0.187 -0.02 1.593 1.619 154
0.197 -0.02 1.594 1.621 160
0.208 -0.02 1.605 1.633 157
0.216 -0.02 1.601 1.63 158
0.227 -0.02 1.613 1.643 158
0.235 -0.02 1.599 1.631 158
0.244 -0.02 1.596 1.629 161
0.254 -0.02 1.602 1.636 157
0.263 -0.02 1.6 1.636 159
0.27 -0.02 1.585 1.622 159
0.277 -0.019 1.573 1.612 158
0.287 -0.019 1.578 1.618 157
0.299 -0.02 1.589 1.632 156
0.307 -0.02 1.583 1.627 159
0.317 -0.02 1.585 1.631 160
0.325 -0.02 1.577 1.625 158
0.337 -0.02 1.591 1.641 157
0.344 -0.02 1.578 1.629 163
0.354 -0.02 1.579 1.633 162
0.36 -0.019 1.565 1.62 160
0.369 -0.019 1.564 1.621 159
0.38 -0.02 1.569 1.629 164
0.387 -0.019 1.557 1.619 160
0.399 -0.02 1.565 1.63 162
0.406 -0.019 1.555 1.622 159
0.412 -0.019 1.544 1.613 158
0.42 -0.019 1.537 1.607 148
0.434 -0.02 1.553 1.627 151
0.447 -0.02 1.563 1.64 148
0.457 -0.02 1.564 1.644 148
0.462 -0.02 1.549 1.63 145
0.469 -0.019 1.537 1.621 140
0.477 -0.019 1.532 1.619 132
0.476 -0.019 1.496 1.584 126
0.479 -0.019 1.477 1.567 124
0.493 -0.019 1.488 1.582 124
0.508 -0.019 1.505 1.602 121
0.533 -0.02 1.549 1.652 104
0.65 -0.024 1.856 1.981 99
0.661 -0.024 1.852 1.98 108
0.678 -0.024 1.864 1.998 105
0.688 -0.024 1.858 1.995 106
0.7 -0.024 1.856 1.997 103
0.717 -0.025 1.868 2.015 104
0.72 -0.024 1.843 1.993 103
0.74 -0.025 1.861 2.016 107
0.734 -0.024 1.814 1.971 100
0.753 -0.024 1.831 1.993 101
0.77 -0.024 1.841 2.009 98
0.776 -0.024 1.824 1.997 100
0.798 -0.025 1.843 2.022 98
0.808 -0.025 1.837 2.021 99
0.82 -0.025 1.834 2.023 97
0.825 -0.024 1.815 2.007 97
0.847 -0.025 1.835 2.035 98
0.864 -0.025 1.843 2.049 96
0.876 -0.025 1.839 2.051 99
0.893 -0.025 1.846 2.065 101
0.903 -0.025 1.837 2.061 100
0.896 -0.025 1.796 2.021 96
0.919 -0.025 1.813 2.046 95
0.93 -0.025 1.808 2.047 101
0.95 -0.025 1.818 2.065 97
0.959 -0.025 1.808 2.06 94
0.985 -0.025 1.83 2.092 96
1.014 -0.026 1.857 2.129 97
1.018 -0.026 1.837 2.113 97
1.029 -0.026 1.83 2.113 95
-1.154 -0.016 2.057 2.37 59
-1.135 -0.016 2.054 2.358 60
-1.123 -0.016 2.062 2.36 59
-1.091 -0.016 2.034 2.32 60
-1.097 -0.016 2.076 2.36 60
-1.051 -0.016 2.018 2.287 61
-1.033 -0.016 2.014 2.276 59
-1.03 -0.016 2.038 2.296 64
-1.029 -0.016 2.068 2.322 60
-1.007 -0.016 2.054 2.3 65
-0.984 -0.016 2.04 2.277 60
-0.952 -0.015 2.003 2.23 64
-0.936 -0.015 2.002 2.223 67
-0.929 -0.015 2.019 2.234 68
-0.904 -0.015 1.995 2.203 68
-0.902 -0.015 2.025 2.23 71
-0.883 -0.015 2.013 2.211 70
-0.869 -0.015 2.015 2.207 68
-0.849 -0.015 2.002 2.187 68
-0.839 -0.015 2.013 2.193 67
-0.816 -0.015 1.989 2.163 66
-0.814 -0.015 2.021 2.192 70
-0.79 -0.015 1.995 2.159 70
-0.787 -0.015 2.023 2.183 70
-0.774 -0.015 2.025 2.181 70
-0.747 -0.014 1.989 2.137 74
-0.731 -0.014 1.982 2.126 70
-0.726 -0.015 2.006 2.146 72
-0.71 -0.014 1.997 2.133 71
-0.695 -0.014 1.993 2.123 71
-0.677 -0.014 1.979 2.105 76
-0.673 -0.014 2.006 2.129 77
-0.661 -0.014 2.01 2.129 74
-0.642 -0.014 1.992 2.106 77
-0.624 -0.014 1.975 2.084 74
-0.597 -0.014 1.929 2.032 67
-0.5 -0.011 1.648 1.735 88
-0.475 -0.011 1.596 1.679 99
-0.463 -0.011 1.591 1.671 98
-0.456 -0.011 1.603 1.68 102
-0.446 -0.011 1.603 1.678 110
-0.443 -0.011 1.629 1.702 121
-0.432 -0.011 1.625 1.695 129
-0.425 -0.011 1.636 1.704 130
-0.416 -0.011 1.64 1.705 125
-0.409 -0.011 1.653 1.717 123
-0.398 -0.011 1.649 1.71 130
-0.387 -0.011 1.646 1.705 139
-0.375 -0.011 1.64 1.696 145
-0.363 -0.011 1.629 1.682 144
-0.356 -0.011 1.642 1.694 150
-0.343 -0.011 1.63 1.68 152
-0.333 -0.011 1.629 1.677 148
-0.326 -0.011 1.64 1.686 151
-0.315 -0.011 1.637 1.681 149
-0.301 -0.011 1.614 1.656 154
-0.292 -0.011 1.613 1.653 151
-0.284 -0.011 1.625 1.663 152
-0.274 -0.011 1.619 1.656 155
-0.268 -0.011 1.643 1.679 160
-0.257 -0.011 1.634 1.668 160
-0.244 -0.011 1.614 1.646 157
-0.235 -0.011 1.616 1.647 159
-0.227 -0.011 1.624 1.653 155
-0.218 -0.011 1.631 1.659 157
-0.208 -0.011 1.628 1.656 157
-0.197 -0.011 1.614 1.64 155
-0.188 -0.011 1.617 1.642 155
-0.177 -0.01 1.6 1.623 154
-0.169 -0.011 1.619 1.641 157
-0.161 -0.011 1.628 1.65 158
-0.15 -0.011 1.615 1.636 157
-0.14 -0.01 1.597 1.617 156
-0.132 -0.011 1.618 1.638 156
-0.123 -0.011 1.621 1.64 151
-0.113 -0.01 1.606 1.624 153
-0.105 -0.011 1.626 1.643 154
-0.095 -0.011 1.609 1.626 151
-0.085 -0.01 1.596 1.612 148
-0.076 -0.01 1.599 1.615 150
-0.066 -0.01 1.592 1.607 146
-0.058 -0.01 1.6 1.615 145
-0.048 -0.01 1.593 1.608 143
-0.039 -0.01 1.598 1.613 139
-0.03 -0.01 1.596 1.61 143
-0.021 -0.01 1.607 1.622 142
-0.012 -0.01 1.603 1.617 142
-0.003 -0.01 1.592 1.606 141
0.005 -0.01 1.594 1.608 138
0.014 -0.01 1.595 1.609 142
0.023 -0.01 1.574 1.589 143
0.032 -0.01 1.589 1.604 143
0.042 -0.01 1.603 1.618 145
0.051 -0.01 1.595 1.61 145
0.06 -0.01 1.598 1.613 145
0.068 -0.01 1.587 1.602 147
0.078 -0.01 1.596 1.612 151
0.085 -0.01 1.568 1.585 156
0.095 -0.01 1.581 1.598 160
0.105 -0.01 1.593 1.61 163
0.114 -0.01 1.586 1.604 163
0.122 -0.01 1.579 1.598 163
0.133 -0.01 1.6 1.62 166
0.141 -0.01 1.588 1.609 162
0.149 -0.01 1.577 1.598 161
0.16 -0.01 1.596 1.618 158
0.169 -0.01 1.589 1.612 161
0.177 -0.01 1.579 1.603 160
0.186 -0.01 1.584 1.609 161
0.195 -0.01 1.577 1.604 161
0.204 -0.01 1.581 1.609 159
0.214 -0.01 1.584 1.613 162
0.221 -0.01 1.567 1.597 164
0.229 -0.01 1.562 1.593 166
0.241 -0.01 1.578 1.61 167
0.247 -0.01 1.561 1.595 168
0.259 -0.01 1.577 1.613 162
0.268 -0.01 1.572 1.609 162
0.277 -0.01 1.571 1.61 164
0.286 -0.01 1.573 1.613 166
0.296 -0.01 1.577 1.619 164
0.303 -0.01 1.561 1.605 161
0.314 -0.01 1.568 1.613 168
0.32 -0.01 1.555 1.602 167
0.331 -0.01 1.56 1.609 169
0.339 -0.01 1.554 1.604 170
0.345 -0.01 1.541 1.594 168
0.355 -0.01 1.544 1.598 171
0.365 -0.01 1.545 1.601 171
0.375 -0.01 1.547 1.606 174
0.385 -0.01 1.551 1.612 170
0.395 -0.01 1.551 1.614 167
0.403 -0.01 1.546 1.612 166
0.412 -0.01 1.541 1.61 158
0.424 -0.01 1.553 1.624 151
0.428 -0.01 1.531 1.604 146
0.445 -0.01 1.555 1.632 147
0.45 -0.01 1.541 1.619 149
0.457 -0.01 1.531 1.611 149
0.457 -0.01 1.499 1.581 140
0.47 -0.01 1.511 1.596 131
0.482 -0.01 1.516 1.605 136
0.483 -0.01 1.489 1.58 130
0.491 -0.01 1.484 1.577 128
0.503 -0.01 1.49 1.587 130
0.519 -0.01 1.508 1.608 118
0.615 -0.012 1.755 1.873 102
0.646 -0.013 1.809 1.935 113
0.656 -0.013 1.805 1.935 110
0.671 -0.013 1.813 1.947 109
0.693 -0.013 1.839 1.979 112
0.697 -0.013 1.817 1.96 108
0.72 -0.013 1.843 1.993 108
0.726 -0.013 1.826 1.979 106
0.739 -0.013 1.827 1.985 106
0.735 -0.013 1.787 1.946 108
0.765 -0.013 1.827 1.995 108
0.773 -0.013 1.815 1.987 104
0.79 -0.013 1.826 2.003 106
0.797 -0.013 1.812 1.994 104
0.825 -0.013 1.845 2.035 105
0.831 -0.013 1.829 2.023 99
0.833 -0.013 1.804 2 103
0.842 -0.013 1.794 1.996 100
0.866 -0.013 1.817 2.026 101
0.878 -0.013 1.814 2.029 101
0.891 -0.013 1.813 2.034 101
0.901 -0.013 1.805 2.031 101
0.916 -0.013 1.808 2.041 101
0.914 -0.013 1.776 2.011 100
0.949 -0.014 1.817 2.063 103
0.945 -0.013 1.783 2.032 99
0.967 -0.013 1.797 2.055 101
0.98 -0.013 1.794 2.057 101
0.996 -0.014 1.798 2.069 100
1.012 -0.014 1.799 2.078 102
-1.13 -0.003 2.016 2.323 66
-1.116 -0.003 2.019 2.319 64
-1.092 -0.003 2.004 2.294 65
-1.079 -0.003 2.01 2.293 61
-1.045 -0.003 1.977 2.248 64
-1.066 -0.003 2.047 2.32 64
-1.014 -0.003 1.977 2.234 66
-1.001 -0.003 1.98 2.231 66
-0.985 -0.003 1.978 2.222 63
-0.969 -0.003 1.977 2.214 70
-0.974 -0.003 2.019 2.254 68
-0.936 -0.003 1.97 2.193 68
-0.931 -0.003 1.99 2.209 72
-0.918 -0.003 1.994 2.207 73
-0.907 -0.003 2.002 2.21 70
-0.877 -0.003 1.968 2.167 71
-0.869 -0.003 1.982 2.177 69
-0.862 -0.003 2 2.19 70
-0.856 -0.003 2.018 2.204 71
-0.829 -0.003 1.987 2.166 72
-0.822 -0.003 2.006 2.181 73
-0.806 -0.003 1.999 2.168 70
-0.774 -0.002 1.952 2.113 72
-0.771 -0.002 1.981 2.139 74
-0.765 -0.003 2.002 2.156 74
-0.745 -0.002 1.984 2.132 75
-0.733 -0.002 1.988 2.131 77
-0.716 -0.002 1.977 2.116 77
-0.707 -0.002 1.988 2.123 75
-0.689 -0.002 1.975 2.105 75
-0.672 -0.002 1.964 2.089 77
-0.654 -0.002 1.949 2.069 82
-0.648 -0.002 1.969 2.086 78
-0.639 -0.002 1.981 2.095 73
-0.589 -0.002 1.863 1.967 76
-0.498 -0.001 1.605 1.693 98
-0.479 -0.001 1.576 1.66 115
-0.465 -0.001 1.562 1.643 109
-0.465 -0.001 1.599 1.678 114
-0.448 -0.001 1.573 1.649 119
-0.442 -0.001 1.588 1.662 118
-0.435 -0.001 1.597 1.668 126
-0.427 -0.001 1.604 1.673 126
-0.421 -0.001 1.622 1.689 124
-0.405 -0.001 1.596 1.66 126
-0.4 -0.001 1.618 1.68 130
-0.391 -0.001 1.621 1.681 137
-0.378 -0.001 1.608 1.665 141
-0.37 -0.001 1.617 1.672 144
-0.361 -0.001 1.622 1.675 146
-0.35 -0.001 1.615 1.666 152
-0.341 -0.001 1.619 1.668 151
-0.326 -0.001 1.595 1.642 155
-0.32 -0.001 1.608 1.653 152
-0.312 -0.001 1.621 1.664 156
-0.296 -0.001 1.585 1.627 159
-0.291 -0.001 1.607 1.647 153
-0.281 -0.001 1.609 1.647 158
-0.274 -0.001 1.621 1.658 161
-0.261 -0.001 1.604 1.639 163
-0.253 -0.001 1.612 1.645 160
-0.243 -0.001 1.608 1.64 162
-0.23 -0.001 1.582 1.612 161
-0.224 -0.001 1.606 1.636 161
-0.215 -0.001 1.604 1.633 162
-0.204 -0.001 1.592 1.619 162
-0.199 -0.001 1.628 1.654 164
-0.185 -0.001 1.594 1.619 163
-0.178 -0.001 1.611 1.634 161
-0.17 -0.001 1.625 1.648 162
-0.158 -0.001 1.598 1.62 165
-0.149 -0.001 1.6 1.621 164
-0.139 -0.001 1.591 1.612 163
-0.13 -0.001 1.591 1.61 157
-0.12 -0.001 1.584 1.602 160
-0.111 -0.001 1.574 1.591 157
-0.103 -0.001 1.594 1.612 157
-0.093 -0.001 1.579 1.596 156
-0.084 -0.001 1.589 1.606 157
-0.075 -0.001 1.585 1.6 155
-0.066 -0.001 1.59 1.605 146
-0.057 -0.001 1.582 1.597 150
-0.048 -0.001 1.58 1.595 149
-0.039 -0.001 1.57 1.585 147
-0.03 -0.001 1.586 1.6 150
-0.021 -0.001 1.583 1.598 147
-0.012 -0.001 1.59 1.605 149
-0.003 -0.001 1.564 1.578 148
0.005 -0.001 1.588 1.602 146
0.014 -0.001 1.586 1.6 150
0.023 -0.001 1.575 1.59 152
0.032 -0.001 1.58 1.594 153
0.041 -0.001 1.583 1.597 155
0.05 -0.001 1.565 1.58 154
0.059 -0.001 1.569 1.585 156
0.067 -0.001 1.553 1.569 158
0.076 -0.001 1.559 1.575 155
0.085 -0.001 1.555 1.572 162
0.094 -0.001 1.568 1.585 167
0.103 -0.001 1.57 1.587 169
0.111 -0.001 1.553 1.571 168
0.12 -0.001 1.556 1.575 171
0.129 -0.001 1.558 1.578 168
0.138 -0.001 1.558 1.578 165
0.148 -0.001 1.563 1.584 165
0.157 -0.001 1.569 1.591 165
0.166 -0.001 1.561 1.584 164
0.175 -0.001 1.561 1.585 166
0.182 -0.001 1.544 1.569 166
0.193 -0.001 1.562 1.588 165
0.201 -0.001 1.557 1.584 166
0.211 -0.001 1.56 1.588 166
0.221 -0.001 1.567 1.597 167
0.229 -0.001 1.559 1.59 169
0.238 -0.001 1.561 1.594 171
0.249 -0.001 1.571 1.605 171
0.255 -0.001 1.551 1.586 171
0.265 -0.001 1.555 1.591 173
0.275 -0.001 1.559 1.597 173
0.283 -0.001 1.557 1.597 170
0.291 -0.001 1.549 1.59 169
0.301 -0.001 1.551 1.595 169
0.308 -0.001 1.541 1.586 170
0.321 -0.001 1.56 1.607 169
0.328 -0.001 1.548 1.597 171
0.335 -0.001 1.537 1.587 174
0.345 -0.001 1.539 1.591 176
0.354 -0.001 1.539 1.594 174
0.362 -0.001 1.534 1.591 173
0.374 -0.001 1.541 1.6 177
0.382 -0.001 1.539 1.6 173
0.395 -0.001 1.549 1.613 171
0.4 -0.001 1.533 1.598 167
0.406 -0.001 1.521 1.588 158
0.417 -0.001 1.524 1.594 150
0.422 -0.001 1.509 1.581 149
0.437 -0.001 1.528 1.604 150
0.441 -0.001 1.511 1.588 143
0.452 -0.001 1.515 1.595 145
0.457 -0.001 1.498 1.581 144
0.465 -0.001 1.493 1.578 133
0.471 -0.001 1.483 1.57 131
0.475 -0.001 1.466 1.555 126
0.48 -0.001 1.45 1.541 127
0.492 -0.001 1.459 1.554 130
0.511 -0.001 1.485 1.584 124
0.603 -0.002 1.721 1.837 111
0.645 -0.002 1.808 1.934 120
0.662 -0.002 1.82 1.95 119
0.67 -0.002 1.808 1.942 114
0.68 -0.002 1.802 1.94 115
0.695 -0.002 1.81 1.952 117
0.709 -0.002 1.814 1.962 116
0.711 -0.002 1.788 1.938 114
0.727 -0.002 1.797 1.952 110
0.738 -0.002 1.793 1.953 112
0.758 -0.002 1.812 1.978 112
0.76 -0.002 1.785 1.954 112
0.785 -0.002 1.814 1.99 111
0.784 -0.002 1.782 1.961 110
0.801 -0.002 1.793 1.977 111
0.812 -0.002 1.788 1.978 110
0.839 -0.002 1.817 2.015 109
0.828 -0.002 1.765 1.963 109
0.849 -0.002 1.781 1.987 106
0.862 -0.002 1.782 1.993 104
0.878 -0.002 1.786 2.004 110
0.894 -0.002 1.792 2.016 108
0.898 -0.002 1.772 2 107
0.914 -0.002 1.777 2.012 106
0.914 -0.002 1.75 1.988 105
0.942 -0.002 1.776 2.024 106
0.943 -0.002 1.752 2.003 107
0.958 -0.002 1.754 2.012 103
0.984 -0.002 1.776 2.044 107
1.005 -0.002 1.788 2.064 107
-1.113 0.009 1.984 2.287 65
-1.101 0.009 1.991 2.287 68
-1.074 0.009 1.972 2.257 68
-1.067 0.009 1.988 2.269 67
-1.055 0.009 1.996 2.269 68
-1.021 0.009 1.959 2.221 69
-1.009 0.009 1.967 2.223 71
-1.01 0.009 1.998 2.25 70
-0.992 0.009 1.993 2.238 69
-0.972 0.009 1.983 2.221 73
-0.958 0.009 1.984 2.215 69
-0.912 0.009 1.919 2.137 75
-0.91 0.009 1.945 2.159 74
-0.904 0.009 1.963 2.174 73
-0.901 0.009 1.99 2.197 73
-0.868 0.009 1.948 2.145 71
-0.84 0.008 1.916 2.105 72
-0.844 0.009 1.957 2.144 77
-0.839 0.009 1.979 2.162 75
-0.82 0.009 1.966 2.142 75
-0.8 0.008 1.951 2.121 76
-0.793 0.009 1.968 2.134 79
-0.774 0.008 1.955 2.115 80
-0.754 0.008 1.936 2.09 78
-0.753 0.008 1.968 2.12 78
-0.746 0.009 1.986 2.134 80
-0.724 0.008 1.963 2.105 81
-0.705 0.008 1.946 2.082 81
-0.686 0.008 1.93 2.062 79
-0.684 0.008 1.962 2.091 81
-0.668 0.008 1.953 2.077 86
-0.653 0.008 1.946 2.066 83
-0.622 0.008 1.889 2.002 82
-0.57 0.008 1.765 1.868 80
-0.512 0.007 1.617 1.71 113
-0.489 0.007 1.575 1.662 126
-0.478 0.007 1.572 1.656 128
-0.467 0.007 1.571 1.653 126
-0.458 0.007 1.572 1.65 121
-0.446 0.007 1.565 1.64 118
-0.434 0.007 1.557 1.629 118
-0.428 0.007 1.572 1.642 122
-0.415 0.007 1.559 1.626 124
-0.407 0.007 1.567 1.633 122
-0.398 0.007 1.57 1.634 125
-0.388 0.007 1.57 1.631 123
-0.384 0.007 1.592 1.651 128
-0.368 0.007 1.564 1.62 129
-0.358 0.007 1.562 1.616 133
-0.35 0.007 1.571 1.623 131
-0.341 0.007 1.574 1.624 135
-0.33 0.007 1.566 1.614 135
-0.322 0.007 1.575 1.622 140
-0.312 0.007 1.571 1.615 142
-0.302 0.007 1.565 1.608 144
-0.291 0.007 1.56 1.601 145
-0.283 0.007 1.563 1.602 143
-0.275 0.007 1.57 1.608 148
-0.265 0.007 1.57 1.606 150
-0.257 0.007 1.575 1.609 151
-0.246 0.007 1.567 1.6 151
-0.239 0.007 1.578 1.61 152
-0.228 0.007 1.57 1.6 154
-0.219 0.007 1.57 1.599 156
-0.209 0.007 1.559 1.587 154
-0.201 0.007 1.568 1.595 155
-0.19 0.007 1.557 1.582 162
-0.184 0.007 1.581 1.606 159
-0.172 0.007 1.553 1.576 159
-0.165 0.007 1.571 1.594 161
-0.156 0.007 1.573 1.595 164
-0.146 0.007 1.565 1.586 161
-0.136 0.007 1.558 1.578 163
-0.129 0.007 1.575 1.594 157
-0.12 0.007 1.574 1.592 157
-0.111 0.007 1.585 1.603 157
-0.1 0.007 1.554 1.572 163
-0.091 0.007 1.554 1.571 158
-0.083 0.007 1.571 1.587 158
-0.074 0.007 1.568 1.584 158
-0.065 0.007 1.55 1.566 154
-0.056 0.007 1.557 1.572 154
-0.047 0.007 1.556 1.571 157
-0.039 0.007 1.567 1.582 157
-0.03 0.007 1.567 1.581 158
-0.021 0.007 1.564 1.578 156
-0.012 0.007 1.568 1.582 158
-0.003 0.007 1.57 1.584 158
0.005 0.007 1.56 1.574 160
0.014 0.007 1.557 1.572 159
0.023 0.007 1.55 1.564 158
0.032 0.007 1.559 1.573 158
0.041 0.007 1.566 1.581 159
0.049 0.007 1.556 1.571 161
0.058 0.007 1.547 1.562 160
0.067 0.007 1.553 1.569 164
0.076 0.007 1.551 1.568 160
0.084 0.007 1.547 1.564 171
0.093 0.007 1.553 1.57 171
0.103 0.007 1.557 1.574 173
0.111 0.007 1.55 1.568 171
0.12 0.007 1.552 1.571 174
0.128 0.007 1.542 1.562 176
0.138 0.007 1.554 1.574 178
0.147 0.007 1.552 1.573 174
0.156 0.007 1.553 1.575 174
0.163 0.007 1.54 1.563 172
0.174 0.007 1.552 1.576 172
0.182 0.007 1.545 1.57 172
0.189 0.007 1.533 1.558 172
0.199 0.007 1.537 1.564 174
0.207 0.007 1.535 1.563 176
0.216 0.007 1.534 1.563 174
0.226 0.007 1.538 1.569 177
0.234 0.007 1.531 1.563 175
0.244 0.007 1.539 1.573 175
0.252 0.007 1.532 1.567 174
0.261 0.007 1.535 1.571 180
0.27 0.007 1.536 1.573 178
0.28 0.007 1.537 1.577 181
0.287 0.007 1.528 1.569 178
0.298 0.007 1.537 1.58 177
0.307 0.007 1.536 1.581 181
0.314 0.007 1.524 1.57 179
0.323 0.007 1.526 1.574 179
0.331 0.007 1.52 1.569 177
0.343 0.007 1.53 1.582 183
0.351 0.007 1.525 1.579 179
0.359 0.007 1.518 1.574 177
0.366 0.007 1.51 1.568 179
0.374 0.007 1.505 1.565 175
0.385 0.007 1.511 1.574 176
0.395 0.007 1.516 1.581 171
0.401 0.007 1.5 1.566 163
0.41 0.007 1.499 1.568 156
0.42 0.007 1.5 1.572 155
0.432 0.007 1.51 1.584 155
0.434 0.007 1.486 1.563 154
0.441 0.007 1.478 1.557 155
0.45 0.007 1.476 1.557 148
0.459 0.007 1.472 1.556 141
0.462 0.007 1.454 1.54 132
0.471 0.007 1.453 1.542 127
0.476 0.007 1.439 1.53 132
0.487 0.007 1.443 1.537 132
0.5 0.007 1.453 1.55 133
0.561 0.007 1.602 1.711 111
0.633 0.008 1.773 1.896 126
0.651 0.008 1.789 1.918 126
0.657 0.008 1.773 1.904 123
0.677 0.008 1.797 1.934 122
0.68 0.008 1.771 1.911 121
0.701 0.008 1.794 1.94 118
0.713 0.008 1.794 1.944 123
0.71 0.008 1.755 1.907 123
0.743 0.008 1.806 1.966 122
0.746 0.008 1.782 1.945 118
0.749 0.008 1.759 1.926 117
0.76 0.008 1.757 1.928 118
0.769 0.008 1.748 1.923 118
0.792 0.008 1.771 1.954 114
0.784 0.008 1.724 1.908 116
0.809 0.008 1.751 1.943 120
0.829 0.008 1.768 1.967 114
0.838 0.008 1.759 1.962 113
0.843 0.008 1.741 1.948 112
0.865 0.008 1.759 1.974 113
0.869 0.008 1.74 1.959 114
0.892 0.008 1.76 1.987 113
0.9 0.008 1.75 1.981 111
0.913 0.008 1.748 1.985 112
0.928 0.008 1.75 1.994 113
0.942 0.008 1.75 2.001 112
0.945 0.008 1.731 1.985 113
0.956 0.008 1.725 1.985 113
0.98 0.008 1.742 2.012 111
-1.1 0.022 1.96 2.259 68
-1.088 0.022 1.968 2.261 66
-1.068 0.021 1.961 2.245 72
-1.038 0.021 1.934 2.207 73
-1.032 0.021 1.951 2.219 70
-1.03 0.021 1.976 2.241 71
-1 0.021 1.949 2.203 73
-0.993 0.021 1.965 2.214 78
-0.971 0.021 1.951 2.192 77
-0.952 0.021 1.942 2.176 76
-0.936 0.021 1.939 2.165 76
-0.931 0.021 1.96 2.182 80
-0.909 0.021 1.943 2.158 78
-0.893 0.021 1.939 2.147 80
-0.876 0.021 1.934 2.136 78
-0.855 0.02 1.919 2.113 81
-0.86 0.021 1.961 2.154 80
-0.832 0.02 1.929 2.114 84
-0.805 0.02 1.897 2.074 82
-0.806 0.02 1.932 2.106 81
-0.793 0.02 1.934 2.103 80
-0.77 0.02 1.91 2.072 85
-0.762 0.02 1.923 2.081 84
-0.751 0.02 1.93 2.084 83
-0.735 0.02 1.921 2.069 80
-0.732 0.02 1.949 2.095 85
-0.699 0.02 1.894 2.032 83
-0.695 0.02 1.918 2.053 86
-0.685 0.02 1.927 2.058 85
-0.665 0.02 1.906 2.032 86
-0.654 0.02 1.911 2.033 89
-0.636 0.019 1.895 2.012 91
-0.61 0.019 1.852 1.963 92
-0.512 0.016 1.583 1.677 140
-0.495 0.016 1.562 1.652 158
-0.483 0.016 1.555 1.642 163
-0.476 0.016 1.568 1.652 159
-0.46 0.016 1.547 1.627 157
-0.446 0.016 1.533 1.61 152
-0.434 0.016 1.522 1.596 147
-0.428 0.016 1.535 1.607 143
-0.42 0.016 1.541 1.61 139
-0.405 0.016 1.522 1.588 137
-0.398 0.016 1.531 1.595 136
-0.386 0.016 1.523 1.585 134
-0.374 0.016 1.512 1.571 133
-0.366 0.016 1.517 1.574 130
-0.366 0.016 1.556 1.612 135
-0.349 0.016 1.523 1.576 133
-0.345 0.016 1.546 1.598 133
-0.326 0.015 1.502 1.55 134
-0.322 0.016 1.526 1.574 132
-0.314 0.016 1.531 1.577 135
-0.303 0.016 1.526 1.57 132
-0.292 0.015 1.513 1.555 133
-0.283 0.015 1.513 1.553 130
-0.272 0.015 1.502 1.54 130
-0.265 0.015 1.515 1.552 134
-0.257 0.015 1.522 1.557 132
-0.25 0.015 1.531 1.565 134
-0.235 0.015 1.493 1.526 131
-0.231 0.015 1.528 1.56 140
-0.221 0.015 1.522 1.552 135
-0.214 0.015 1.533 1.562 138
-0.204 0.015 1.527 1.555 136
-0.193 0.015 1.506 1.532 142
-0.186 0.015 1.52 1.546 146
-0.176 0.015 1.515 1.54 148
-0.169 0.015 1.532 1.556 148
-0.161 0.015 1.535 1.557 148
-0.152 0.015 1.535 1.557 150
-0.142 0.015 1.524 1.544 149
-0.132 0.015 1.513 1.533 150
-0.125 0.015 1.534 1.553 152
-0.115 0.015 1.516 1.535 150
-0.107 0.015 1.526 1.544 149
-0.098 0.015 1.523 1.54 150
-0.09 0.015 1.529 1.545 152
-0.081 0.015 1.521 1.537 153
-0.072 0.015 1.525 1.54 152
-0.064 0.015 1.528 1.544 151
-0.055 0.015 1.52 1.535 154
-0.047 0.015 1.541 1.556 153
-0.037 0.015 1.52 1.535 153
-0.029 0.015 1.525 1.539 150
-0.02 0.015 1.545 1.559 156
-0.011 0.015 1.525 1.539 157
-0.003 0.015 1.534 1.548 156
0.005 0.015 1.541 1.555 159
0.014 0.015 1.54 1.554 154
0.022 0.015 1.542 1.556 157
0.031 0.015 1.524 1.539 159
0.04 0.015 1.528 1.543 162
0.048 0.015 1.53 1.545 160
0.058 0.015 1.541 1.556 162
0.066 0.015 1.539 1.555 164
0.075 0.015 1.534 1.55 168
0.084 0.015 1.537 1.554 171
0.092 0.015 1.533 1.55 175
0.101 0.015 1.536 1.553 177
0.109 0.015 1.526 1.544 179
0.119 0.015 1.534 1.553 178
0.126 0.015 1.519 1.539 179
0.136 0.015 1.533 1.553 179
0.145 0.015 1.535 1.556 179
0.152 0.015 1.519 1.541 182
0.162 0.015 1.529 1.552 180
0.17 0.015 1.521 1.545 176
0.179 0.015 1.526 1.55 180
0.189 0.015 1.531 1.557 176
0.196 0.015 1.514 1.541 178
0.206 0.015 1.528 1.556 183
0.212 0.015 1.507 1.537 182
0.224 0.015 1.525 1.556 184
0.231 0.015 1.513 1.545 186
0.239 0.015 1.51 1.544 182
0.249 0.015 1.518 1.553 182
0.256 0.015 1.504 1.54 182
0.266 0.015 1.512 1.55 185
0.274 0.015 1.505 1.544 187
0.283 0.015 1.503 1.544 186
0.294 0.015 1.514 1.556 184
0.303 0.016 1.514 1.558 183
0.307 0.015 1.491 1.537 187
0.318 0.015 1.501 1.549 188
0.33 0.016 1.512 1.562 187
0.341 0.016 1.521 1.573 188
0.346 0.016 1.504 1.558 188
0.357 0.016 1.512 1.568 187
0.363 0.015 1.498 1.555 190
0.376 0.016 1.513 1.574 184
0.382 0.016 1.502 1.564 182
0.39 0.016 1.496 1.561 180
0.4 0.016 1.497 1.564 172
0.408 0.016 1.494 1.563 168
0.419 0.016 1.498 1.57 170
0.424 0.016 1.484 1.558 168
0.432 0.015 1.479 1.555 166
0.44 0.015 1.474 1.552 165
0.452 0.016 1.483 1.565 157
0.459 0.015 1.473 1.557 148
0.462 0.015 1.453 1.538 141
0.468 0.015 1.444 1.532 136
0.475 0.015 1.434 1.525 139
0.488 0.015 1.447 1.541 143
0.488 0.015 1.419 1.515 142
0.53 0.016 1.512 1.616 122
0.634 0.019 1.775 1.899 126
0.644 0.019 1.772 1.899 133
0.655 0.019 1.768 1.9 131
0.665 0.019 1.763 1.898 129
0.683 0.019 1.78 1.921 129
0.702 0.019 1.795 1.942 127
0.704 0.019 1.769 1.918 126
0.714 0.019 1.764 1.917 125
0.718 0.019 1.744 1.9 131
0.728 0.019 1.739 1.899 126
0.75 0.019 1.761 1.928 125
0.77 0.019 1.779 1.952 126
0.77 0.019 1.751 1.927 127
0.778 0.019 1.741 1.921 124
0.789 0.019 1.737 1.922 121
0.808 0.019 1.75 1.941 125
0.809 0.019 1.723 1.917 122
0.832 0.019 1.745 1.947 126
0.831 0.019 1.717 1.921 121
0.846 0.019 1.72 1.931 125
0.863 0.019 1.729 1.946 124
0.881 0.019 1.738 1.962 122
0.876 0.019 1.702 1.928 124
0.899 0.019 1.722 1.956 118
0.918 0.019 1.731 1.973 120
0.935 0.019 1.738 1.987 122
0.943 0.019 1.726 1.981 123
0.964 0.02 1.739 2.002 121
0.955 0.019 1.699 1.962 117
-1.07 0.033 1.907 2.199 70
-1.057 0.033 1.911 2.196 72
-1.043 0.033 1.915 2.193 73
-1.041 0.034 1.94 2.214 74
-1 0.033 1.891 2.151 76
-1.007 0.033 1.932 2.19 80
-0.974 0.033 1.897 2.145 81
-0.978 0.033 1.934 2.18 78
-0.945 0.032 1.897 2.132 80
-0.929 0.032 1.895 2.123 80
-0.925 0.033 1.916 2.14 80
-0.908 0.032 1.911 2.128 84
-0.885 0.032 1.891 2.1 83
-0.887 0.032 1.926 2.132 83
-0.869 0.032 1.918 2.119 83
-0.831 0.031 1.863 2.052 83
-0.837 0.032 1.908 2.096 82
-0.82 0.032 1.901 2.083 86
-0.811 0.032 1.912 2.09 85
-0.796 0.032 1.906 2.079 88
-0.771 0.031 1.878 2.043 89
-0.758 0.031 1.879 2.039 89
-0.76 0.032 1.917 2.075 87
-0.734 0.031 1.884 2.034 86
-0.725 0.031 1.894 2.041 85
-0.713 0.031 1.898 2.04 89
-0.691 0.031 1.872 2.009 91
-0.685 0.031 1.892 2.025 87
-0.668 0.031 1.877 2.006 90
-0.669 0.031 1.917 2.043 89
-0.635 0.03 1.856 1.975 92
-0.637 0.031 1.898 2.015 94
-0.609 0.03 1.851 1.962 94
-0.511 0.026 1.581 1.675 173
-0.489 0.025 1.543 1.632 265
-0.479 0.025 1.543 1.629 298
-0.466 0.025 1.533 1.616 298
-0.457 0.025 1.534 1.614 284
-0.446 0.025 1.532 1.609 279
-0.435 0.025 1.527 1.601 267
-0.424 0.025 1.524 1.595 243
-0.416 0.025 1.529 1.599 236
-0.408 0.025 1.535 1.602 234
-0.397 0.025 1.528 1.592 224
-0.385 0.025 1.518 1.58 213
-0.378 0.025 1.529 1.589 210
-0.369 0.025 1.528 1.585 209
-0.358 0.024 1.522 1.577 198
-0.344 0.024 1.502 1.555 193
-0.336 0.024 1.507 1.558 190
-0.328 0.024 1.513 1.562 189
-0.322 0.024 1.525 1.572 179
-0.308 0.024 1.506 1.551 177
-0.3 0.024 1.509 1.552 177
-0.29 0.024 1.506 1.548 172
-0.282 0.024 1.507 1.547 169
-0.275 0.024 1.518 1.557 165
-0.262 0.024 1.499 1.536 163
-0.251 0.024 1.486 1.521 159
-0.247 0.024 1.514 1.548 155
-0.237 0.024 1.51 1.542 153
-0.226 0.024 1.494 1.525 154
-0.22 0.024 1.509 1.539 150
-0.207 0.024 1.484 1.513 149
-0.198 0.024 1.481 1.509 150
-0.191 0.024 1.494 1.52 148
-0.182 0.024 1.486 1.511 148
-0.172 0.023 1.479 1.503 148
-0.165 0.024 1.494 1.517 147
-0.157 0.024 1.501 1.523 149
-0.147 0.024 1.486 1.507 148
-0.138 0.023 1.475 1.496 146
-0.129 0.023 1.475 1.494 148
-0.12 0.023 1.468 1.487 147
-0.112 0.023 1.472 1.491 146
-0.105 0.024 1.498 1.516 145
-0.096 0.023 1.481 1.499 145
-0.088 0.023 1.487 1.503 143
-0.079 0.023 1.485 1.502 144
-0.07 0.023 1.485 1.501 147
-0.062 0.023 1.478 1.494 146
-0.054 0.024 1.494 1.509 144
-0.045 0.023 1.484 1.499 143
-0.037 0.023 1.489 1.504 146
-0.028 0.023 1.488 1.502 144
-0.02 0.023 1.479 1.494 146
-0.011 0.024 1.494 1.509 148
-0.003 0.024 1.493 1.507 150
0.005 0.023 1.478 1.492 149
0.013 0.023 1.479 1.494 151
0.022 0.023 1.485 1.499 152
0.03 0.024 1.494 1.508 154
0.039 0.024 1.506 1.521 156
0.047 0.023 1.487 1.502 156
0.056 0.024 1.491 1.506 159
0.064 0.024 1.489 1.505 162
0.073 0.024 1.497 1.513 162
0.082 0.024 1.506 1.523 165
0.089 0.023 1.482 1.499 165
0.099 0.024 1.502 1.52 169
0.107 0.024 1.491 1.509 172
0.116 0.024 1.497 1.516 175
0.124 0.024 1.494 1.514 173
0.132 0.024 1.489 1.509 175
0.141 0.024 1.487 1.508 175
0.15 0.024 1.498 1.52 179
0.158 0.024 1.487 1.51 178
0.168 0.024 1.499 1.523 178
0.177 0.024 1.501 1.526 180
0.184 0.024 1.492 1.517 179
0.193 0.024 1.495 1.522 181
0.202 0.024 1.498 1.527 185
0.211 0.024 1.5 1.529 187
0.221 0.024 1.503 1.533 185
0.229 0.024 1.502 1.534 184
0.236 0.024 1.492 1.525 181
0.245 0.024 1.492 1.526 186
0.255 0.024 1.5 1.536 188
0.263 0.024 1.495 1.532 189
0.272 0.024 1.494 1.533 188
0.279 0.024 1.483 1.524 187
0.288 0.024 1.487 1.529 187
0.295 0.024 1.477 1.521 188
0.31 0.024 1.503 1.549 190
0.318 0.024 1.5 1.548 190
0.324 0.024 1.487 1.536 192
0.332 0.024 1.482 1.533 194
0.343 0.024 1.49 1.544 193
0.349 0.024 1.477 1.532 193
0.356 0.024 1.467 1.523 191
0.369 0.024 1.485 1.545 191
0.376 0.024 1.477 1.538 191
0.383 0.024 1.468 1.532 188
0.393 0.024 1.47 1.536 180
0.405 0.024 1.48 1.549 170
0.412 0.024 1.474 1.545 176
0.425 0.024 1.485 1.559 170
0.43 0.024 1.47 1.546 165
0.434 0.024 1.451 1.529 169
0.445 0.024 1.46 1.54 165
0.448 0.024 1.44 1.522 153
0.456 0.024 1.434 1.519 148
0.462 0.024 1.425 1.512 145
0.467 0.023 1.41 1.499 143
0.476 0.023 1.409 1.501 144
0.489 0.024 1.422 1.518 146
0.514 0.024 1.467 1.569 133
0.615 0.028 1.723 1.844 131
0.633 0.029 1.741 1.867 138
0.646 0.029 1.745 1.875 141
0.668 0.029 1.772 1.908 135
0.67 0.029 1.745 1.883 135
0.679 0.029 1.737 1.879 135
0.688 0.029 1.731 1.877 133
0.706 0.029 1.744 1.896 130
0.711 0.029 1.728 1.883 131
0.73 0.029 1.743 1.904 130
0.742 0.029 1.743 1.909 133
0.746 0.029 1.723 1.892 131
0.763 0.029 1.734 1.908 132
0.772 0.029 1.726 1.904 132
0.78 0.029 1.715 1.898 131
0.8 0.03 1.732 1.922 131
0.814 0.03 1.736 1.931 132
0.832 0.03 1.746 1.948 130
0.833 0.03 1.721 1.926 129
0.844 0.03 1.717 1.927 129
0.873 0.03 1.748 1.967 132
0.87 0.03 1.717 1.939 127
0.884 0.03 1.718 1.946 128
0.903 0.03 1.728 1.963 127
0.902 0.03 1.7 1.938 126
0.919 0.03 1.707 1.953 126
0.916 0.03 1.676 1.924 126
0.936 0.03 1.688 1.943 126
0.954 0.03 1.696 1.96 125
-1.053 0.045 1.876 2.163 75
-1.05 0.045 1.899 2.182 78
-1.034 0.045 1.897 2.172 77
-1.019 0.045 1.897 2.166 80
-0.995 0.044 1.88 2.14 81
-0.985 0.045 1.89 2.143 80
-0.968 0.044 1.886 2.132 82
-0.952 0.044 1.882 2.122 82
-0.934 0.044 1.876 2.108 85
-0.916 0.044 1.868 2.094 87
-0.918 0.044 1.901 2.124 85
-0.899 0.044 1.891 2.107 82
-0.868 0.043 1.855 2.061 84
-0.88 0.044 1.91 2.116 83
-0.848 0.043 1.871 2.067 86
-0.832 0.043 1.866 2.056 89
-0.822 0.043 1.874 2.059 87
-0.814 0.043 1.887 2.068 92
-0.79 0.042 1.86 2.034 94
-0.776 0.042 1.86 2.028 90
-0.767 0.043 1.87 2.034 88
-0.752 0.042 1.865 2.024 92
-0.743 0.042 1.874 2.029 94
-0.733 0.042 1.881 2.032 93
-0.716 0.042 1.87 2.016 89
-0.701 0.042 1.864 2.005 90
-0.688 0.042 1.865 2.001 95
-0.672 0.042 1.854 1.985 92
-0.667 0.042 1.876 2.004 92
-0.655 0.042 1.877 2.001 98
-0.647 0.042 1.889 2.01 97
-0.622 0.041 1.852 1.967 101
-0.608 0.041 1.846 1.957 96
-0.523 0.036 1.617 1.713 160
-0.493 0.035 1.556 1.645 294
-0.482 0.035 1.554 1.64 353
-0.472 0.035 1.552 1.636 364
-0.458 0.034 1.54 1.62 363
-0.45 0.034 1.546 1.623 369
-0.442 0.034 1.552 1.627 371
-0.428 0.034 1.538 1.61 349
-0.417 0.034 1.529 1.599 345
-0.408 0.034 1.532 1.599 344
-0.398 0.034 1.531 1.596 343
-0.384 0.033 1.513 1.574 353
-0.377 0.034 1.525 1.585 361
-0.368 0.034 1.527 1.585 348
-0.355 0.033 1.511 1.566 341
-0.349 0.033 1.525 1.579 338
-0.339 0.033 1.518 1.569 341
-0.329 0.033 1.515 1.564 339
-0.318 0.033 1.507 1.555 334
-0.309 0.033 1.51 1.555 337
-0.298 0.033 1.499 1.542 336
-0.29 0.033 1.502 1.544 325
-0.279 0.033 1.493 1.533 313
-0.271 0.033 1.5 1.538 300
-0.262 0.033 1.496 1.532 291
-0.252 0.032 1.492 1.527 281
-0.244 0.032 1.496 1.53 274
-0.234 0.032 1.487 1.519 265
-0.225 0.032 1.486 1.517 256
-0.217 0.032 1.488 1.518 244
-0.206 0.032 1.475 1.504 237
-0.199 0.032 1.484 1.512 224
-0.189 0.032 1.475 1.501 216
-0.181 0.032 1.478 1.503 212
-0.172 0.032 1.48 1.504 207
-0.164 0.032 1.478 1.501 200
-0.156 0.032 1.484 1.506 195
-0.145 0.032 1.461 1.482 193
-0.137 0.032 1.467 1.487 191
-0.128 0.031 1.46 1.48 183
-0.121 0.032 1.479 1.498 181
-0.112 0.032 1.476 1.495 179
-0.103 0.032 1.462 1.48 176
-0.095 0.032 1.474 1.491 170
-0.086 0.032 1.468 1.485 168
-0.078 0.032 1.466 1.483 168
-0.069 0.031 1.458 1.474 170
-0.061 0.031 1.458 1.474 165
-0.052 0.031 1.452 1.467 159
-0.045 0.032 1.471 1.486 156
-0.036 0.032 1.467 1.482 154
-0.028 0.031 1.457 1.472 154
-0.019 0.031 1.462 1.476 152
-0.011 0.032 1.47 1.485 152
-0.003 0.031 1.455 1.469 153
0.005 0.031 1.461 1.475 149
0.013 0.031 1.464 1.479 152
0.021 0.032 1.467 1.481 151
0.029 0.031 1.46 1.474 154
0.038 0.032 1.466 1.481 151
0.046 0.031 1.461 1.476 151
0.054 0.031 1.455 1.471 151
0.062 0.031 1.437 1.453 152
0.07 0.031 1.444 1.46 154
0.078 0.031 1.439 1.456 156
0.087 0.031 1.451 1.468 160
0.095 0.031 1.446 1.464 158
0.105 0.031 1.46 1.478 159
0.112 0.031 1.445 1.464 160
0.121 0.031 1.458 1.477 161
0.13 0.032 1.463 1.483 162
0.136 0.031 1.442 1.463 163
0.145 0.031 1.446 1.468 162
0.155 0.032 1.457 1.48 165
0.162 0.031 1.452 1.475 165
0.173 0.032 1.47 1.495 164
0.177 0.031 1.433 1.459 166
0.189 0.032 1.462 1.489 169
0.197 0.032 1.458 1.486 171
0.206 0.032 1.459 1.488 173
0.213 0.031 1.449 1.479 171
0.221 0.031 1.447 1.478 171
0.231 0.032 1.46 1.493 173
0.238 0.032 1.449 1.483 175
0.248 0.032 1.457 1.492 173
0.257 0.032 1.459 1.496 178
0.266 0.032 1.462 1.501 183
0.274 0.032 1.456 1.496 181
0.283 0.032 1.456 1.498 183
0.292 0.032 1.462 1.506 184
0.302 0.032 1.466 1.511 181
0.307 0.032 1.449 1.496 184
0.319 0.032 1.461 1.51 187
0.325 0.032 1.452 1.503 192
0.337 0.032 1.466 1.519 192
0.342 0.032 1.447 1.501 191
0.355 0.032 1.463 1.52 190
0.364 0.032 1.465 1.525 193
0.372 0.032 1.458 1.519 189
0.381 0.032 1.461 1.525 192
0.39 0.032 1.461 1.526 182
0.395 0.032 1.444 1.511 173
0.402 0.032 1.437 1.507 165
0.418 0.033 1.46 1.533 163
0.42 0.032 1.438 1.512 164
0.432 0.032 1.447 1.525 166
0.436 0.032 1.429 1.508 170
0.44 0.032 1.414 1.495 162
0.446 0.032 1.403 1.487 156
0.456 0.032 1.404 1.49 152
0.465 0.032 1.405 1.494 150
0.469 0.031 1.388 1.48 143
0.478 0.032 1.39 1.484 154
0.495 0.032 1.41 1.509 149
0.591 0.037 1.654 1.771 138
0.627 0.039 1.723 1.848 145
0.641 0.039 1.729 1.858 144
0.653 0.039 1.731 1.864 140
0.659 0.039 1.715 1.852 138
0.676 0.039 1.73 1.872 137
0.68 0.039 1.71 1.855 135
0.694 0.039 1.716 1.865 137
0.706 0.039 1.715 1.868 137
0.72 0.04 1.721 1.879 143
0.723 0.039 1.698 1.859 137
0.738 0.039 1.705 1.872 136
0.756 0.04 1.717 1.89 140
0.762 0.04 1.704 1.88 135
0.779 0.04 1.713 1.896 136
0.781 0.039 1.69 1.876 139
0.793 0.04 1.69 1.881 140
0.816 0.04 1.712 1.911 137
0.813 0.039 1.679 1.88 139
0.824 0.039 1.676 1.881 133
0.846 0.04 1.693 1.907 137
0.864 0.04 1.704 1.925 136
0.856 0.04 1.662 1.883 132
0.883 0.04 1.69 1.92 130
0.908 0.041 1.712 1.952 129
0.893 0.04 1.659 1.898 135
0.919 0.04 1.682 1.931 134
0.933 0.041 1.682 1.937 136
0.944 0.041 1.677 1.938 133
-1.053 0.057 1.875 2.163 81
-1.059 0.058 1.915 2.201 78
-1.026 0.057 1.883 2.157 81
-1.005 0.056 1.871 2.137 84
-0.989 0.056 1.868 2.126 82
-0.979 0.056 1.879 2.131 86
-0.964 0.056 1.878 2.124 84
-0.938 0.055 1.854 2.09 86
-0.937 0.056 1.88 2.114 88
-0.906 0.055 1.847 2.07 85
-0.904 0.055 1.872 2.091 88
-0.88 0.055 1.851 2.063 85
-0.869 0.055 1.856 2.063 86
-0.857 0.055 1.861 2.062 90
-0.842 0.054 1.858 2.053 88
-0.816 0.053 1.83 2.017 87
-0.811 0.054 1.847 2.03 92
-0.797 0.054 1.846 2.024 94
-0.788 0.054 1.856 2.029 94
-0.781 0.054 1.87 2.039 96
-0.757 0.053 1.845 2.007 94
-0.738 0.053 1.828 1.985 93
-0.732 0.053 1.846 1.999 97
-0.724 0.053 1.857 2.007 96
-0.704 0.053 1.839 1.983 97
-0.7 0.053 1.862 2.003 97
-0.68 0.053 1.842 1.977 98
-0.67 0.053 1.848 1.979 97
-0.668 0.053 1.877 2.006 100
-0.644 0.052 1.845 1.968 101
-0.63 0.052 1.84 1.959 99
-0.622 0.052 1.851 1.966 105
-0.606 0.052 1.839 1.95 101
-0.554 0.048 1.713 1.814 128
-0.499 0.045 1.575 1.666 267
-0.483 0.044 1.557 1.644 340
-0.472 0.044 1.553 1.637 370
-0.468 0.044 1.573 1.655 369
-0.453 0.044 1.556 1.634 375
-0.443 0.044 1.557 1.632 372
-0.431 0.043 1.548 1.62 369
-0.423 0.043 1.552 1.623 353
-0.412 0.043 1.547 1.615 325
-0.399 0.043 1.536 1.601 330
-0.39 0.043 1.536 1.599 350
-0.379 0.043 1.532 1.593 366
-0.371 0.043 1.537 1.595 374
-0.359 0.042 1.527 1.583 368
-0.351 0.042 1.531 1.585 371
-0.34 0.042 1.526 1.578 377
-0.331 0.042 1.526 1.576 390
-0.321 0.042 1.52 1.567 396
-0.311 0.042 1.515 1.561 405
-0.3 0.042 1.51 1.554 415
-0.293 0.042 1.52 1.562 409
-0.283 0.042 1.513 1.553 406
-0.272 0.041 1.504 1.542 403
-0.263 0.041 1.505 1.542 400
-0.254 0.041 1.5 1.536 396
-0.245 0.041 1.5 1.534 397
-0.234 0.041 1.49 1.523 392
-0.227 0.041 1.498 1.529 389
-0.217 0.041 1.494 1.524 389
-0.209 0.041 1.494 1.523 379
-0.199 0.041 1.485 1.512 360
-0.191 0.041 1.492 1.519 355
-0.182 0.041 1.485 1.51 357
-0.172 0.04 1.475 1.5 361
-0.163 0.04 1.471 1.494 357
-0.155 0.04 1.476 1.499 344
-0.146 0.04 1.47 1.492 341
-0.138 0.04 1.476 1.497 334
-0.129 0.04 1.473 1.494 323
-0.12 0.04 1.461 1.481 315
-0.111 0.04 1.465 1.483 305
-0.103 0.04 1.462 1.48 303
-0.094 0.04 1.461 1.479 299
-0.086 0.04 1.461 1.478 289
-0.078 0.04 1.467 1.484 280
-0.069 0.04 1.458 1.474 280
-0.061 0.039 1.449 1.465 279
-0.052 0.04 1.451 1.467 274
-0.044 0.039 1.448 1.463 268
-0.036 0.039 1.446 1.461 252
-0.027 0.039 1.443 1.458 253
-0.019 0.039 1.443 1.458 244
-0.011 0.04 1.452 1.466 235
-0.003 0.039 1.445 1.46 227
0.004 0.039 1.443 1.457 219
0.013 0.04 1.451 1.466 212
0.021 0.039 1.441 1.456 205
0.029 0.039 1.44 1.455 198
0.037 0.039 1.435 1.45 195
0.045 0.039 1.431 1.446 195
0.053 0.039 1.433 1.449 188
0.062 0.039 1.438 1.454 186
0.069 0.039 1.42 1.436 182
0.078 0.039 1.435 1.452 181
0.086 0.039 1.423 1.44 178
0.095 0.039 1.436 1.454 177
0.102 0.039 1.423 1.442 173
0.111 0.039 1.432 1.451 173
0.119 0.039 1.438 1.457 172
0.126 0.039 1.424 1.444 168
0.135 0.039 1.429 1.45 169
0.142 0.039 1.419 1.441 176
0.151 0.039 1.42 1.443 170
0.16 0.039 1.428 1.452 167
