# .PCD v0.7 - Point Cloud Data file format
VERSION 0.7
FIELDS x y z d a
SIZE 4 4 4 4 4
TYPE F F F F F
COUNT 1 1 1 1 1
WIDTH 1718
HEIGHT 1
VIEWPOINT 0 0 0 1 0 0 0
POINTS 1718
DATA ascii
0.134 0.137 0.902 0.936 37
0.117 0.116 0.761 0.792 32
0.132 0.125 0.822 0.856 31
0.148 0.135 0.891 0.928 45
0.171 0.151 0.997 1.036 92
0.188 0.16 1.057 1.099 150
0.195 0.16 1.058 1.101 112
0.141 0.114 0.742 0.777 25
0.151 0.108 0.701 0.739 31
0.205 0.142 0.927 0.974 61
0.209 0.141 0.919 0.967 77
0.217 0.143 0.93 0.98 85
0.213 0.137 0.891 0.94 45
0.197 0.124 0.804 0.851 28
0.22 0.135 0.874 0.925 27
0.176 0.103 0.664 0.709 28
0.391 0.162 1.021 1.119 33
0.389 0.159 0.999 1.097 40
0.412 0.166 1.039 1.143 185
0.423 0.167 1.047 1.155 859
0.429 0.168 1.046 1.157 955
0.434 0.167 1.04 1.153 956
0.442 0.167 1.04 1.155 965
0.447 0.167 1.035 1.153 977
0.453 0.167 1.03 1.151 995
0.461 0.167 1.033 1.157 1011
0.464 0.166 1.021 1.147 993
0.472 0.167 1.023 1.152 994
0.477 0.166 1.018 1.15 1007
0.485 0.167 1.018 1.153 1015
0.492 0.167 1.016 1.155 1021
0.496 0.166 1.01 1.151 1024
0.501 0.166 1.004 1.148 1044
0.508 0.166 1.002 1.149 1059
0.516 0.166 1.002 1.152 1047
0.522 0.166 0.999 1.152 1050
0.527 0.166 0.992 1.149 1058
0.533 0.166 0.989 1.149 1078
0.537 0.165 0.982 1.144 1085
0.545 0.165 0.981 1.147 1080
0.55 0.165 0.977 1.146 1093
0.558 0.166 0.977 1.15 1101
-1.074 0.33 1.891 2.211 68
-1.073 0.333 1.916 2.233 58
-1.068 0.336 1.937 2.249 42
-1.073 0.341 1.974 2.284 62
-1.081 0.347 2.018 2.327 67
-1.021 0.332 1.936 2.226 83
-1.026 0.338 1.974 2.262 74
-1.011 0.337 1.976 2.257 65
-0.993 0.336 1.971 2.244 76
-0.995 0.34 2.006 2.277 75
-0.97 0.336 1.985 2.246 88
-0.955 0.335 1.985 2.24 105
-0.953 0.339 2.013 2.265 97
-0.931 0.336 1.998 2.242 85
-0.915 0.334 1.996 2.233 81
-0.912 0.338 2.022 2.256 81
-0.896 0.337 2.019 2.247 74
-0.89 0.339 2.039 2.262 79
-0.873 0.337 2.034 2.251 75
-0.858 0.337 2.034 2.246 75
-0.836 0.333 2.015 2.219 73
-0.826 0.334 2.025 2.225 65
-0.774 0.317 1.929 2.115 35
-0.621 0.267 1.631 1.778 34
-0.703 0.308 1.884 2.047 150
-0.682 0.303 1.862 2.019 185
-0.664 0.3 1.846 1.997 187
-0.657 0.302 1.862 2.01 191
-0.638 0.298 1.842 1.984 196
-0.62 0.295 1.824 1.962 208
-0.605 0.293 1.817 1.95 215
-0.592 0.292 1.813 1.942 213
-0.577 0.29 1.803 1.927 212
-0.564 0.289 1.799 1.921 222
-0.548 0.286 1.786 1.903 228
-0.537 0.286 1.787 1.901 226
-0.521 0.283 1.772 1.882 232
-0.506 0.281 1.759 1.864 244
-0.497 0.282 1.767 1.87 242
-0.483 0.28 1.757 1.856 242
-0.464 0.275 1.728 1.823 255
-0.453 0.274 1.725 1.818 262
-0.443 0.274 1.73 1.82 266
-0.431 0.273 1.727 1.814 265
-0.415 0.27 1.705 1.789 276
-0.406 0.27 1.71 1.792 281
-0.391 0.267 1.69 1.768 285
-0.381 0.267 1.693 1.769 288
-0.367 0.264 1.676 1.749 268
-0.36 0.266 1.69 1.761 256
-0.353 0.268 1.708 1.778 250
-0.344 0.269 1.712 1.78 242
-0.337 0.271 1.732 1.799 242
-0.329 0.273 1.745 1.81 233
-0.322 0.276 1.765 1.828 226
-0.315 0.279 1.784 1.846 220
-0.302 0.276 1.77 1.83 216
-0.295 0.279 1.791 1.85 206
-0.286 0.281 1.802 1.859 157
-0.25 0.255 1.634 1.686 63
-0.089 0.095 0.594 0.622 28
-0.094 0.104 0.655 0.684 33
-0.096 0.11 0.695 0.723 32
-0.086 0.103 0.649 0.676 30
-0.072 0.09 0.566 0.591 27
-0.062 0.081 0.508 0.532 29
-0.084 0.117 0.743 0.771 36
-0.083 0.122 0.776 0.803 45
-0.057 0.088 0.556 0.58 27
-0.047 0.077 0.48 0.502 25
-0.136 0.238 1.534 1.572 37
-0.156 0.292 1.891 1.934 137
-0.146 0.294 1.907 1.949 142
-0.139 0.304 1.968 2.01 85
-0.133 0.315 2.042 2.084 86
-0.124 0.322 2.088 2.13 85
-0.112 0.323 2.101 2.142 87
-0.101 0.326 2.12 2.161 94
-0.091 0.334 2.174 2.215 107
-0.079 0.338 2.199 2.24 115
-0.068 0.343 2.23 2.271 130
-0.055 0.344 2.237 2.278 144
-0.042 0.341 2.216 2.256 165
-0.029 0.34 2.212 2.252 205
-0.016 0.34 2.21 2.25 193
-0.004 0.34 2.211 2.251 146
0.008 0.351 2.283 2.324 73
0.022 0.366 2.38 2.422 69
0.036 0.37 2.407 2.449 61
0.051 0.372 2.425 2.468 56
0.038 0.227 1.467 1.499 50
0.031 0.153 0.98 1.006 639
0.035 0.149 0.957 0.983 335
0.035 0.128 0.818 0.843 56
0.04 0.128 0.817 0.841 57
0.044 0.128 0.816 0.841 59
0.052 0.134 0.856 0.882 58
0.056 0.134 0.856 0.882 57
0.062 0.134 0.859 0.886 60
0.065 0.131 0.836 0.863 61
0.071 0.133 0.852 0.879 67
0.091 0.158 1.012 1.042 312
0.098 0.161 1.032 1.063 569
0.105 0.161 1.033 1.065 559
0.111 0.162 1.035 1.068 557
0.117 0.162 1.035 1.068 547
0.122 0.161 1.028 1.061 466
0.128 0.16 1.024 1.059 175
0.122 0.146 0.932 0.965 51
0.107 0.124 0.787 0.818 36
0.105 0.116 0.736 0.766 31
0.125 0.133 0.845 0.878 35
0.149 0.152 0.969 1.006 77
0.165 0.162 1.028 1.068 145
0.175 0.166 1.053 1.094 168
0.179 0.164 1.042 1.084 133
0.18 0.159 1.01 1.052 86
0.175 0.15 0.95 0.992 49
0.163 0.121 0.76 0.801 34
0.199 0.144 0.903 0.95 58
0.211 0.148 0.93 0.979 80
0.216 0.148 0.928 0.978 88
0.209 0.14 0.874 0.924 44
0.198 0.129 0.806 0.854 30
0.188 0.12 0.747 0.794 28
0.213 0.132 0.823 0.874 27
0.369 0.159 0.964 1.058 34
0.38 0.161 0.973 1.071 39
0.413 0.172 1.041 1.146 207
0.423 0.174 1.048 1.157 884
0.429 0.174 1.043 1.155 975
0.434 0.173 1.038 1.152 982
0.443 0.174 1.042 1.159 988
0.447 0.173 1.034 1.153 989
0.452 0.173 1.028 1.149 999
0.461 0.174 1.032 1.157 1005
0.467 0.173 1.027 1.154 995
0.473 0.173 1.025 1.155 1010
0.478 0.173 1.019 1.152 1030
0.482 0.172 1.011 1.147 1032
0.489 0.172 1.009 1.148 1026
0.499 0.174 1.014 1.157 1042
0.503 0.173 1.007 1.152 1056
0.508 0.172 1.002 1.15 1081
0.515 0.172 0.999 1.15 1075
0.52 0.172 0.994 1.148 1059
0.526 0.172 0.99 1.147 1092
0.535 0.173 0.991 1.152 1104
0.539 0.172 0.985 1.149 1106
0.545 0.172 0.98 1.147 1108
0.553 0.172 0.981 1.153 1118
0.557 0.172 0.973 1.147 1128
-1.073 0.342 1.887 2.209 49
-1.092 0.352 1.949 2.273 52
-1.119 0.364 2.026 2.354 69
-1.108 0.365 2.037 2.359 80
-1.07 0.357 1.996 2.304 89
-1.049 0.354 1.987 2.286 85
-1.04 0.355 2 2.293 93
-1.006 0.348 1.963 2.245 100
-0.993 0.348 1.969 2.244 98
-0.972 0.345 1.957 2.224 98
-0.947 0.34 1.935 2.193 111
-0.941 0.343 1.954 2.208 130
-0.927 0.342 1.956 2.204 122
-0.924 0.346 1.981 2.225 112
-0.905 0.343 1.972 2.209 104
-0.895 0.344 1.982 2.214 100
-0.89 0.347 2.004 2.232 98
-0.88 0.348 2.015 2.239 97
-0.866 0.347 2.017 2.234 101
-0.86 0.35 2.037 2.251 102
-0.851 0.352 2.05 2.26 104
-0.836 0.35 2.048 2.252 92
-0.793 0.338 1.976 2.168 49
-0.692 0.314 1.853 2.015 147
-0.68 0.314 1.853 2.011 183
-0.67 0.314 1.862 2.016 189
-0.654 0.312 1.85 1.999 194
-0.641 0.311 1.85 1.996 202
-0.627 0.31 1.845 1.986 204
-0.609 0.306 1.827 1.963 209
-0.59 0.302 1.807 1.938 217
-0.579 0.302 1.807 1.934 214
-0.562 0.299 1.793 1.915 220
-0.549 0.297 1.786 1.905 231
-0.534 0.295 1.775 1.89 229
-0.519 0.293 1.762 1.873 237
-0.51 0.294 1.773 1.881 239
-0.494 0.291 1.757 1.861 244
-0.483 0.29 1.754 1.856 252
-0.469 0.288 1.743 1.841 258
-0.453 0.284 1.726 1.82 258
-0.442 0.284 1.726 1.818 263
-0.429 0.282 1.717 1.806 270
-0.418 0.281 1.714 1.8 271
-0.406 0.281 1.71 1.793 277
-0.392 0.277 1.693 1.773 279
-0.381 0.277 1.691 1.769 284
-0.368 0.275 1.68 1.755 275
-0.361 0.277 1.694 1.767 253
-0.351 0.276 1.694 1.765 248
-0.344 0.279 1.713 1.783 243
-0.336 0.281 1.725 1.793 242
-0.328 0.282 1.737 1.803 230
-0.321 0.286 1.759 1.824 220
-0.313 0.287 1.772 1.836 223
-0.304 0.289 1.783 1.845 212
-0.293 0.288 1.781 1.841 203
-0.283 0.288 1.781 1.84 163
-0.199 0.211 1.297 1.342 31
-0.089 0.102 0.618 0.646 26
-0.088 0.105 0.635 0.664 28
-0.081 0.101 0.61 0.637 30
-0.073 0.096 0.579 0.604 32
-0.075 0.103 0.623 0.65 27
-0.078 0.112 0.684 0.712 32
-0.087 0.133 0.813 0.842 44
-0.068 0.109 0.668 0.694 30
-0.041 0.07 0.419 0.44 26
-0.136 0.247 1.536 1.575 41
-0.158 0.308 1.919 1.963 161
-0.148 0.309 1.93 1.974 170
-0.141 0.319 1.992 2.036 107
-0.135 0.333 2.083 2.128 120
-0.125 0.337 2.109 2.153 116
-0.113 0.338 2.114 2.158 113
-0.103 0.345 2.159 2.203 114
-0.091 0.347 2.173 2.217 120
-0.079 0.351 2.199 2.242 129
-0.068 0.356 2.231 2.274 133
-0.056 0.36 2.256 2.298 153
-0.042 0.358 2.242 2.284 173
-0.029 0.354 2.219 2.261 203
-0.016 0.353 2.215 2.257 193
-0.004 0.352 2.206 2.247 146
0.008 0.362 2.271 2.314 72
0.023 0.382 2.393 2.437 68
0.036 0.384 2.408 2.452 63
0.05 0.383 2.403 2.447 52
0.031 0.191 1.186 1.216 85
0.031 0.159 0.981 1.008 721
0.035 0.153 0.948 0.975 226
0.035 0.132 0.812 0.837 61
0.041 0.137 0.845 0.871 61
0.045 0.136 0.836 0.862 62
0.05 0.135 0.83 0.857 57
0.056 0.138 0.851 0.878 60
0.06 0.135 0.832 0.859 60
0.065 0.136 0.838 0.865 60
0.074 0.145 0.89 0.919 71
0.09 0.164 1.01 1.041 341
0.098 0.166 1.027 1.059 558
0.105 0.168 1.034 1.067 555
0.11 0.167 1.032 1.065 549
0.117 0.168 1.036 1.07 539
0.123 0.168 1.032 1.067 276
0.102 0.133 0.816 0.847 38
0.103 0.129 0.791 0.822 33
0.129 0.154 0.947 0.982 69
0.142 0.162 0.996 1.033 133
0.151 0.166 1.021 1.059 170
0.157 0.166 1.016 1.055 142
0.155 0.158 0.969 1.008 73
0.143 0.141 0.857 0.894 43
0.129 0.123 0.75 0.785 25
0.199 0.153 0.926 0.973 43
0.202 0.151 0.913 0.961 56
0.215 0.156 0.946 0.997 75
0.223 0.158 0.955 1.007 84
0.217 0.15 0.907 0.958 45
0.174 0.118 0.706 0.75 30
0.216 0.143 0.857 0.909 29
0.415 0.182 1.063 1.169 62
0.411 0.178 1.035 1.141 217
0.423 0.181 1.048 1.158 900
0.431 0.181 1.048 1.161 963
0.437 0.181 1.045 1.16 974
0.443 0.181 1.04 1.158 977
0.448 0.18 1.034 1.155 980
0.455 0.181 1.035 1.159 995
0.462 0.18 1.032 1.158 998
0.466 0.18 1.025 1.154 991
0.472 0.18 1.022 1.153 1005
0.478 0.179 1.017 1.151 1027
0.485 0.18 1.016 1.153 1022
0.49 0.179 1.01 1.15 1029
0.496 0.179 1.007 1.15 1028
0.503 0.179 1.005 1.151 1051
0.51 0.179 1.004 1.153 1058
0.515 0.179 0.999 1.151 1059
0.522 0.179 0.996 1.152 1069
0.527 0.179 0.99 1.149 1080
0.534 0.179 0.988 1.15 1085
0.54 0.179 0.986 1.151 1092
0.546 0.178 0.981 1.15 1099
0.553 0.179 0.979 1.152 1112
0.558 0.178 0.974 1.15 1111
-1.138 0.38 2.03 2.369 54
-1.131 0.382 2.047 2.381 69
-1.098 0.375 2.016 2.337 77
-1.079 0.373 2.011 2.324 84
-1.05 0.367 1.988 2.289 87
-1.037 0.367 1.992 2.287 98
-1.004 0.36 1.957 2.24 101
-1.001 0.363 1.982 2.262 106
-0.963 0.354 1.937 2.204 99
-0.949 0.353 1.938 2.199 113
-0.956 0.361 1.983 2.243 131
-0.936 0.358 1.972 2.224 127
-0.924 0.358 1.979 2.225 123
-0.919 0.361 2 2.243 114
-0.901 0.359 1.993 2.229 113
-0.889 0.359 1.999 2.229 111
-0.881 0.361 2.014 2.24 112
-0.873 0.363 2.031 2.252 108
-0.861 0.363 2.037 2.253 101
-0.843 0.361 2.028 2.237 97
-0.836 0.363 2.047 2.253 97
-0.793 0.35 1.975 2.169 55
-0.689 0.324 1.842 2.006 139
-0.683 0.326 1.86 2.021 181
-0.67 0.326 1.86 2.016 191
-0.653 0.323 1.847 1.998 197
-0.639 0.321 1.842 1.989 198
-0.626 0.32 1.84 1.983 203
-0.605 0.315 1.813 1.949 210
-0.597 0.317 1.827 1.96 213
-0.581 0.314 1.813 1.942 215
-0.566 0.312 1.803 1.928 223
-0.551 0.309 1.792 1.913 228
-0.536 0.307 1.781 1.897 231
-0.521 0.305 1.77 1.883 236
-0.504 0.301 1.75 1.859 240
-0.494 0.301 1.755 1.861 243
-0.477 0.297 1.734 1.835 251
-0.465 0.296 1.729 1.828 254
-0.451 0.293 1.716 1.812 257
-0.443 0.295 1.727 1.82 264
-0.434 0.295 1.733 1.824 266
-0.416 0.29 1.705 1.792 271
-0.406 0.29 1.708 1.793 279
-0.395 0.29 1.707 1.789 282
-0.382 0.287 1.693 1.772 280
-0.369 0.285 1.684 1.76 271
-0.362 0.287 1.697 1.772 253
-0.352 0.287 1.7 1.773 244
-0.344 0.289 1.712 1.784 244
-0.338 0.293 1.734 1.804 239
-0.33 0.294 1.747 1.816 232
-0.322 0.297 1.762 1.829 224
-0.313 0.297 1.769 1.834 219
-0.304 0.299 1.779 1.843 213
-0.295 0.301 1.792 1.855 205
-0.284 0.299 1.786 1.846 168
-0.261 0.286 1.703 1.76 84
-0.07 0.087 0.502 0.528 28
-0.084 0.108 0.633 0.661 30
-0.081 0.109 0.642 0.67 30
-0.065 0.091 0.532 0.557 27
-0.07 0.104 0.608 0.634 31
-0.084 0.132 0.779 0.808 43
-0.064 0.106 0.624 0.65 26
-0.05 0.087 0.51 0.533 25
-0.153 0.289 1.735 1.779 58
-0.158 0.318 1.914 1.96 160
-0.148 0.321 1.933 1.978 173
-0.142 0.333 2.004 2.05 108
-0.136 0.347 2.089 2.136 119
-0.125 0.35 2.114 2.16 114
-0.113 0.351 2.118 2.163 112
-0.103 0.357 2.157 2.202 113
-0.092 0.362 2.188 2.234 119
-0.08 0.365 2.202 2.247 126
-0.069 0.373 2.255 2.301 136
-0.055 0.371 2.241 2.286 151
-0.042 0.368 2.227 2.271 175
-0.029 0.368 2.226 2.27 205
-0.016 0.366 2.212 2.255 192
-0.004 0.367 2.22 2.264 143
0.008 0.379 2.29 2.335 70
0.023 0.396 2.393 2.44 66
0.037 0.398 2.409 2.455 61
0.052 0.407 2.464 2.512 50
0.028 0.185 1.104 1.134 135
0.031 0.164 0.976 1.004 766
0.035 0.158 0.944 0.972 150
0.035 0.137 0.811 0.837 62
0.04 0.139 0.823 0.849 62
0.045 0.14 0.834 0.861 61
0.051 0.141 0.84 0.867 61
0.055 0.141 0.837 0.865 59
0.059 0.138 0.817 0.845 62
0.066 0.143 0.846 0.874 64
0.073 0.147 0.873 0.902 74
0.091 0.171 1.021 1.053 373
0.099 0.174 1.034 1.067 575
0.105 0.173 1.032 1.066 551
0.111 0.174 1.034 1.068 555
0.117 0.174 1.032 1.066 514
0.12 0.17 1.011 1.046 165
0.096 0.13 0.767 0.798 32
0.123 0.159 0.942 0.978 80
0.138 0.171 1.013 1.051 174
0.14 0.166 0.981 1.018 97
0.126 0.144 0.849 0.885 41
0.125 0.137 0.808 0.843 27
0.1 0.107 0.625 0.656 27
0.095 0.098 0.571 0.601 26
0.209 0.18 1.062 1.111 90
0.204 0.171 1.004 1.053 59
0.22 0.175 1.024 1.076 73
0.205 0.159 0.926 0.976 58
0.211 0.159 0.929 0.98 73
0.22 0.161 0.94 0.993 86
0.217 0.155 0.904 0.956 45
0.196 0.137 0.795 0.845 28
0.186 0.127 0.735 0.783 28
0.229 0.153 0.886 0.941 27
0.376 0.175 0.981 1.079 33
0.437 0.199 1.121 1.233 116
0.411 0.185 1.034 1.141 228
0.424 0.187 1.047 1.159 906
0.432 0.188 1.049 1.163 954
0.436 0.187 1.042 1.159 967
0.442 0.187 1.037 1.156 977
0.449 0.187 1.037 1.159 971
0.454 0.187 1.031 1.156 989
0.46 0.186 1.027 1.154 994
0.466 0.186 1.024 1.154 979
0.472 0.186 1.02 1.152 1016
0.479 0.186 1.02 1.155 1022
0.484 0.186 1.014 1.152 1018
0.491 0.186 1.011 1.152 1013
0.498 0.186 1.009 1.154 1037
0.506 0.186 1.01 1.158 1039
0.508 0.185 0.999 1.149 1052
0.516 0.185 0.998 1.152 1057
0.521 0.185 0.994 1.151 1053
0.529 0.186 0.994 1.154 1068
0.535 0.185 0.989 1.153 1066
0.543 0.186 0.99 1.158 1084
0.548 0.186 0.985 1.156 1082
0.554 0.185 0.98 1.154 1086
0.559 0.185 0.975 1.152 1094
-1.154 0.398 2.055 2.402 51
-1.135 0.396 2.052 2.39 65
-1.115 0.394 2.046 2.375 74
-1.067 0.382 1.987 2.299 83
-1.039 0.376 1.964 2.265 86
-1.029 0.377 1.975 2.27 93
-1.003 0.372 1.954 2.24 102
-0.983 0.37 1.945 2.223 103
-0.964 0.367 1.936 2.205 106
-0.962 0.371 1.963 2.229 112
-0.947 0.37 1.964 2.224 133
-0.927 0.367 1.953 2.204 121
-0.919 0.369 1.967 2.214 112
-0.906 0.368 1.97 2.211 104
-0.892 0.368 1.971 2.207 101
-0.882 0.369 1.982 2.213 101
-0.883 0.374 2.017 2.245 97
-0.87 0.374 2.022 2.245 97
-0.858 0.374 2.027 2.245 93
-0.842 0.373 2.024 2.236 89
-0.825 0.371 2.018 2.224 79
-0.777 0.354 1.931 2.124 46
-0.692 0.336 1.848 2.014 126
-0.689 0.341 1.874 2.038 184
-0.672 0.338 1.863 2.021 188
-0.657 0.336 1.857 2.011 191
-0.64 0.333 1.842 1.99 198
-0.623 0.33 1.83 1.974 208
-0.603 0.325 1.805 1.944 209
-0.594 0.326 1.815 1.95 214
-0.58 0.325 1.809 1.94 215
-0.563 0.321 1.793 1.92 219
-0.548 0.319 1.782 1.904 225
-0.535 0.317 1.777 1.896 228
-0.519 0.314 1.76 1.874 232
-0.508 0.314 1.763 1.874 241
-0.492 0.31 1.745 1.853 242
-0.484 0.312 1.756 1.861 247
-0.466 0.307 1.73 1.83 254
-0.453 0.305 1.723 1.82 257
-0.444 0.306 1.73 1.826 259
-0.43 0.303 1.717 1.809 266
-0.416 0.3 1.703 1.791 277
-0.402 0.298 1.689 1.775 277
-0.395 0.3 1.704 1.787 282
-0.378 0.295 1.676 1.756 287
-0.37 0.296 1.686 1.765 273
-0.36 0.296 1.686 1.762 253
-0.354 0.299 1.707 1.782 250
-0.345 0.3 1.715 1.788 243
-0.336 0.301 1.723 1.794 239
-0.329 0.304 1.741 1.811 233
-0.321 0.306 1.757 1.825 224
-0.313 0.308 1.767 1.834 221
-0.303 0.308 1.771 1.837 217
-0.297 0.313 1.799 1.863 206
-0.284 0.31 1.786 1.848 177
-0.274 0.31 1.788 1.849 119
-0.226 0.266 1.533 1.585 36
-0.019 0.025 0.124 0.142 25
-0.071 0.1 0.562 0.589 27
-0.071 0.104 0.589 0.616 25
-0.073 0.112 0.634 0.662 30
-0.083 0.135 0.772 0.802 45
-0.061 0.104 0.59 0.615 29
-0.048 0.087 0.489 0.513 27
-0.15 0.292 1.694 1.739 59
-0.159 0.332 1.927 1.975 159
-0.149 0.334 1.942 1.989 170
-0.144 0.349 2.029 2.077 110
-0.136 0.36 2.097 2.145 117
-0.124 0.36 2.095 2.143 117
-0.114 0.365 2.129 2.177 113
-0.104 0.372 2.17 2.217 112
-0.091 0.372 2.17 2.217 121
-0.08 0.379 2.208 2.256 125
-0.067 0.38 2.214 2.261 137
-0.055 0.386 2.25 2.297 149
-0.042 0.382 2.226 2.273 173
-0.029 0.38 2.22 2.266 207
-0.016 0.379 2.214 2.26 192
-0.004 0.38 2.22 2.267 143
0.008 0.388 2.266 2.313 70
0.022 0.405 2.362 2.411 66
0.036 0.411 2.402 2.451 64
0.051 0.419 2.447 2.497 49
0.027 0.182 1.049 1.079 197
0.031 0.169 0.976 1.005 742
0.034 0.159 0.915 0.943 86
0.037 0.152 0.873 0.9 69
0.04 0.145 0.83 0.857 65
0.044 0.143 0.817 0.844 62
0.05 0.145 0.829 0.857 59
0.055 0.146 0.835 0.863 60
0.058 0.14 0.802 0.83 63
0.067 0.15 0.862 0.891 64
0.075 0.157 0.9 0.931 81
0.091 0.177 1.02 1.054 410
0.098 0.179 1.03 1.064 579
0.105 0.18 1.037 1.071 557
0.111 0.18 1.034 1.069 554
0.117 0.18 1.032 1.068 466
0.114 0.168 0.962 0.997 91
0.085 0.12 0.679 0.708 30
0.095 0.128 0.728 0.76 30
0.109 0.141 0.8 0.833 30
0.101 0.125 0.707 0.739 26
0.108 0.124 0.7 0.733 25
0.098 0.108 0.609 0.641 28
0.141 0.149 0.849 0.887 29
0.166 0.169 0.961 1.004 57
0.18 0.177 1.006 1.051 78
0.138 0.132 0.746 0.784 28
0.192 0.177 1.008 1.055 57
0.218 0.195 1.108 1.16 284
0.213 0.185 1.051 1.102 87
0.173 0.143 0.802 0.847 30
0.196 0.157 0.887 0.936 51
0.213 0.166 0.937 0.99 69
0.218 0.166 0.934 0.987 84
0.216 0.161 0.902 0.955 46
0.181 0.132 0.736 0.783 29
0.207 0.147 0.82 0.872 27
0.186 0.129 0.716 0.764 27
0.244 0.151 0.839 0.901 30
0.408 0.195 1.062 1.168 55
0.424 0.2 1.085 1.196 72
0.414 0.193 1.042 1.151 256
0.422 0.193 1.042 1.154 899
0.43 0.194 1.045 1.16 954
0.437 0.194 1.043 1.161 964
0.444 0.194 1.042 1.163 975
0.45 0.194 1.037 1.161 969
0.456 0.194 1.033 1.159 1003
0.462 0.194 1.03 1.159 1002
0.467 0.193 1.026 1.157 993
0.472 0.192 1.019 1.153 1006
0.481 0.193 1.022 1.159 1021
0.483 0.192 1.01 1.149 1015
0.494 0.193 1.016 1.16 1014
0.498 0.192 1.008 1.154 1025
0.504 0.192 1.005 1.154 1041
0.512 0.193 1.005 1.157 1046
0.517 0.192 0.999 1.154 1050
0.524 0.192 0.997 1.156 1059
0.527 0.192 0.989 1.15 1074
0.534 0.192 0.987 1.152 1076
0.54 0.191 0.983 1.15 1077
0.549 0.192 0.984 1.156 1069
0.552 0.191 0.977 1.151 1076
0.558 0.191 0.972 1.15 1091
-1.126 0.407 2.034 2.371 48
-1.084 0.396 1.986 2.308 60
-1.065 0.394 1.98 2.294 72
-1.05 0.393 1.983 2.29 77
-1.018 0.386 1.952 2.247 82
-1.011 0.388 1.968 2.258 89
-0.99 0.385 1.957 2.239 94
-0.973 0.383 1.952 2.226 101
-0.965 0.385 1.968 2.237 114
-0.948 0.383 1.964 2.226 133
-0.935 0.383 1.968 2.224 121
-0.931 0.386 1.99 2.243 104
-0.906 0.381 1.967 2.211 99
-0.898 0.383 1.983 2.222 96
-0.882 0.381 1.981 2.214 96
-0.882 0.387 2.013 2.244 99
-0.864 0.384 2.005 2.229 93
-0.862 0.389 2.034 2.255 88
-0.841 0.385 2.019 2.233 83
-0.834 0.387 2.036 2.247 72
-0.801 0.378 1.991 2.192 40
-0.694 0.349 1.852 2.021 121
-0.693 0.354 1.884 2.051 181
-0.664 0.345 1.839 1.998 189
-0.657 0.347 1.853 2.009 194
-0.639 0.344 1.839 1.989 197
-0.622 0.341 1.825 1.971 205
-0.607 0.338 1.816 1.957 211
-0.597 0.339 1.823 1.961 210
-0.581 0.336 1.811 1.944 216
-0.562 0.331 1.788 1.916 222
-0.55 0.331 1.787 1.912 224
-0.537 0.329 1.78 1.901 225
-0.523 0.327 1.774 1.891 234
-0.511 0.326 1.77 1.884 238
-0.494 0.322 1.751 1.861 243
-0.479 0.319 1.737 1.843 247
-0.464 0.316 1.723 1.825 254
-0.457 0.318 1.736 1.836 256
-0.443 0.315 1.724 1.82 262
-0.43 0.313 1.714 1.807 265
-0.417 0.311 1.704 1.794 269
-0.403 0.308 1.692 1.779 280
-0.393 0.309 1.695 1.78 283
-0.379 0.305 1.678 1.76 287
-0.37 0.306 1.686 1.766 279
-0.361 0.307 1.692 1.77 255
-0.354 0.309 1.706 1.783 252
-0.347 0.312 1.722 1.797 251
-0.336 0.311 1.721 1.794 242
-0.328 0.313 1.736 1.807 234
-0.32 0.315 1.749 1.819 225
-0.313 0.318 1.767 1.835 219
-0.305 0.321 1.783 1.85 214
-0.295 0.321 1.788 1.853 207
-0.286 0.323 1.799 1.863 198
-0.277 0.325 1.808 1.872 156
-0.262 0.319 1.78 1.84 69
-0.049 0.065 0.345 0.368 25
-0.066 0.104 0.569 0.596 28
-0.084 0.141 0.778 0.809 42
-0.069 0.122 0.672 0.701 34
-0.055 0.103 0.56 0.586 25
-0.15 0.303 1.696 1.743 54
-0.158 0.341 1.915 1.965 157
-0.148 0.343 1.927 1.976 170
-0.142 0.356 2 2.05 110
-0.136 0.37 2.084 2.134 118
-0.125 0.373 2.1 2.15 115
-0.114 0.378 2.126 2.176 112
-0.102 0.38 2.14 2.189 115
-0.092 0.388 2.184 2.234 119
-0.08 0.391 2.207 2.256 126
-0.068 0.396 2.235 2.284 136
-0.056 0.399 2.249 2.298 149
-0.042 0.395 2.229 2.278 171
-0.029 0.395 2.226 2.275 202
-0.017 0.395 2.228 2.276 194
-0.004 0.394 2.223 2.271 144
0.008 0.406 2.293 2.343 72
0.022 0.419 2.363 2.414 66
0.036 0.422 2.38 2.431 63
0.05 0.424 2.394 2.445 47
0.026 0.183 1.021 1.052 266
0.03 0.174 0.97 0.999 650
0.031 0.15 0.831 0.859 64
0.036 0.153 0.851 0.88 72
0.04 0.147 0.815 0.843 65
0.044 0.146 0.809 0.837 63
0.049 0.148 0.82 0.849 63
0.055 0.151 0.837 0.866 63
0.059 0.149 0.825 0.854 65
0.065 0.151 0.835 0.865 67
0.076 0.163 0.904 0.936 92
0.092 0.184 1.026 1.06 440
0.098 0.185 1.029 1.064 576
0.105 0.186 1.033 1.069 562
0.11 0.185 1.029 1.065 554
0.117 0.186 1.031 1.068 412
0.104 0.158 0.876 0.91 52
0.074 0.108 0.589 0.617 26
0.095 0.132 0.726 0.757 26
0.099 0.132 0.726 0.759 26
0.117 0.149 0.817 0.853 37
0.145 0.177 0.976 1.016 81
0.155 0.182 1.004 1.046 113
0.167 0.188 1.037 1.08 161
0.177 0.193 1.063 1.109 182
0.183 0.192 1.057 1.103 167
0.183 0.186 1.021 1.068 101
0.172 0.17 0.932 0.977 34
0.194 0.185 1.014 1.063 70
0.214 0.198 1.088 1.14 219
0.209 0.188 1.031 1.082 74
0.167 0.142 0.773 0.817 27
0.187 0.155 0.842 0.89 50
0.211 0.17 0.925 0.978 67
0.218 0.171 0.931 0.985 80
0.212 0.162 0.882 0.935 47
0.162 0.122 0.656 0.701 29
0.219 0.16 0.865 0.92 27
0.231 0.165 0.89 0.948 28
0.377 0.187 0.98 1.08 39
0.403 0.197 1.031 1.138 49
0.417 0.2 1.048 1.159 293
0.424 0.2 1.045 1.159 913
0.43 0.2 1.043 1.159 960
0.438 0.201 1.044 1.163 961
0.444 0.201 1.041 1.163 950
0.449 0.2 1.034 1.158 964
0.456 0.2 1.033 1.161 987
0.462 0.2 1.03 1.16 991
0.466 0.199 1.022 1.154 990
0.475 0.2 1.024 1.159 998
0.48 0.2 1.019 1.158 1004
0.486 0.199 1.016 1.157 1017
0.491 0.199 1.01 1.154 1023
0.499 0.199 1.01 1.157 1028
0.505 0.199 1.006 1.156 1041
0.511 0.199 1.003 1.156 1047
0.518 0.199 1 1.157 1056
0.523 0.199 0.996 1.155 1066
0.528 0.198 0.99 1.153 1084
0.536 0.199 0.99 1.156 1074
0.54 0.198 0.983 1.152 1062
0.548 0.199 0.983 1.155 1070
0.553 0.198 0.976 1.152 1076
0.56 0.198 0.975 1.155 1102
-1.048 0.405 1.977 2.285 51
-1.003 0.392 1.92 2.213 52
-0.996 0.394 1.936 2.224 62
-0.969 0.389 1.913 2.191 61
-0.963 0.391 1.93 2.203 71
-0.937 0.385 1.907 2.171 89
-0.938 0.391 1.939 2.201 113
-0.922 0.389 1.937 2.193 94
-0.903 0.386 1.927 2.175 84
-0.899 0.39 1.952 2.196 81
-0.884 0.389 1.95 2.188 70
-0.88 0.393 1.973 2.208 72
-0.87 0.394 1.983 2.213 69
-0.851 0.39 1.972 2.195 67
-0.839 0.391 1.977 2.195 55
-0.839 0.397 2.013 2.229 59
-0.829 0.398 2.024 2.235 48
-0.694 0.36 1.85 2.021 105
-0.688 0.363 1.869 2.037 179
-0.669 0.359 1.849 2.011 188
-0.652 0.356 1.837 1.994 191
-0.642 0.357 1.846 1.999 198
-0.621 0.351 1.82 1.967 203
-0.612 0.352 1.829 1.974 209
-0.593 0.348 1.809 1.948 212
-0.581 0.347 1.806 1.941 214
-0.567 0.345 1.8 1.931 221
-0.55 0.341 1.785 1.911 224
-0.537 0.34 1.778 1.901 225
-0.523 0.338 1.771 1.89 230
-0.509 0.335 1.761 1.876 235
-0.495 0.333 1.751 1.863 241
-0.479 0.329 1.735 1.843 246
-0.468 0.328 1.733 1.837 248
-0.459 0.33 1.742 1.844 255
-0.446 0.328 1.735 1.834 263
-0.43 0.323 1.712 1.807 265
-0.419 0.323 1.713 1.805 274
-0.406 0.32 1.701 1.791 273
-0.395 0.32 1.702 1.789 278
-0.382 0.318 1.691 1.776 288
-0.366 0.312 1.663 1.744 282
-0.361 0.316 1.686 1.766 258
-0.349 0.315 1.679 1.757 254
-0.349 0.324 1.732 1.809 247
-0.335 0.32 1.714 1.789 235
-0.328 0.323 1.73 1.804 231
-0.32 0.326 1.746 1.818 223
-0.314 0.329 1.769 1.84 218
-0.304 0.331 1.777 1.846 211
-0.298 0.335 1.8 1.868 205
-0.288 0.336 1.808 1.874 199
-0.276 0.334 1.802 1.867 171
-0.239 0.301 1.621 1.679 57
-0.051 0.067 0.343 0.367 25
-0.053 0.083 0.433 0.458 24
-0.076 0.125 0.665 0.694 29
-0.081 0.14 0.747 0.778 44
-0.062 0.113 0.599 0.626 28
-0.04 0.078 0.407 0.43 25
-0.145 0.302 1.637 1.685 59
-0.158 0.352 1.912 1.964 158
-0.147 0.352 1.914 1.965 170
-0.141 0.364 1.979 2.03 104
-0.136 0.382 2.082 2.135 115
-0.126 0.39 2.123 2.175 113
-0.114 0.389 2.119 2.171 109
-0.103 0.394 2.146 2.198 111
-0.092 0.4 2.178 2.23 118
-0.08 0.405 2.211 2.263 122
-0.068 0.41 2.237 2.289 135
-0.055 0.41 2.238 2.29 153
-0.042 0.409 2.233 2.285 170
-0.029 0.405 2.211 2.261 201
-0.016 0.404 2.204 2.255 188
-0.004 0.405 2.212 2.263 146
0.008 0.422 2.306 2.358 70
0.022 0.436 2.381 2.435 67
0.036 0.439 2.398 2.452 64
0.049 0.431 2.352 2.405 45
0.026 0.186 1.006 1.037 335
0.031 0.18 0.971 1.002 624
0.032 0.16 0.861 0.89 63
0.036 0.158 0.849 0.878 72
0.04 0.154 0.829 0.858 70
0.045 0.155 0.832 0.861 68
0.048 0.149 0.799 0.828 62
0.056 0.157 0.843 0.873 64
0.062 0.16 0.86 0.891 66
0.067 0.16 0.857 0.888 68
0.077 0.17 0.914 0.947 100
0.092 0.191 1.028 1.064 461
0.099 0.191 1.03 1.066 577
0.105 0.191 1.029 1.066 561
0.111 0.192 1.034 1.071 559
0.116 0.191 1.028 1.066 370
0.094 0.147 0.786 0.819 39
0.097 0.146 0.778 0.812 34
0.131 0.187 0.999 1.039 140
0.142 0.193 1.033 1.074 211
0.149 0.195 1.042 1.085 229
0.153 0.192 1.024 1.067 207
0.16 0.193 1.031 1.074 136
0.156 0.182 0.968 1.011 79
0.166 0.187 0.996 1.041 58
0.138 0.151 0.798 0.838 30
0.177 0.17 0.898 0.945 41
0.172 0.151 0.795 0.841 31
0.191 0.163 0.859 0.909 50
0.213 0.177 0.934 0.988 67
0.217 0.176 0.927 0.983 76
0.216 0.171 0.899 0.954 49
0.206 0.159 0.834 0.888 28
0.185 0.14 0.731 0.781 29
0.27 0.178 0.926 0.995 32
0.401 0.205 1.042 1.148 57
0.416 0.21 1.063 1.174 70
0.416 0.206 1.044 1.156 322
0.424 0.207 1.046 1.161 909
0.431 0.207 1.044 1.162 959
0.437 0.207 1.041 1.162 959
0.443 0.207 1.037 1.16 955
0.451 0.207 1.037 1.163 976
0.457 0.207 1.034 1.163 988
0.463 0.207 1.03 1.161 988
0.467 0.206 1.023 1.157 996
0.474 0.206 1.022 1.159 996
0.481 0.206 1.019 1.159 1008
0.487 0.206 1.016 1.158 1018
0.494 0.206 1.015 1.16 1026
0.498 0.206 1.008 1.156 1013
0.504 0.205 1.003 1.155 1027
0.512 0.206 1.003 1.157 1047
0.518 0.206 1 1.158 1050
0.525 0.206 0.998 1.159 1059
0.529 0.205 0.991 1.155 1072
0.535 0.205 0.986 1.154 1061
0.542 0.205 0.985 1.155 1071
0.547 0.205 0.979 1.153 1072
0.555 0.205 0.978 1.156 1086
0.56 0.205 0.973 1.153 1091
-0.912 0.392 1.884 2.142 50
-0.885 0.386 1.856 2.104 41
-0.904 0.399 1.927 2.178 36
-0.888 0.398 1.925 2.169 38
-0.713 0.382 1.898 2.075 95
-0.69 0.375 1.87 2.041 179
-0.672 0.372 1.858 2.023 187
-0.658 0.371 1.854 2.014 193
-0.642 0.368 1.843 1.999 197
-0.629 0.367 1.841 1.993 205
-0.606 0.36 1.81 1.955 211
-0.601 0.363 1.831 1.973 218
-0.576 0.355 1.79 1.926 217
-0.566 0.355 1.796 1.929 223
-0.552 0.353 1.787 1.916 222
-0.536 0.35 1.774 1.899 229
-0.524 0.349 1.772 1.893 234
-0.506 0.344 1.747 1.864 240
-0.496 0.344 1.753 1.867 244
-0.482 0.341 1.742 1.852 249
-0.468 0.339 1.733 1.839 253
-0.458 0.34 1.738 1.842 257
-0.443 0.336 1.72 1.82 263
-0.433 0.336 1.722 1.82 264
-0.419 0.333 1.712 1.807 273
-0.408 0.332 1.708 1.8 276
-0.393 0.328 1.688 1.777 279
-0.381 0.327 1.685 1.772 283
-0.369 0.325 1.677 1.761 280
-0.36 0.326 1.682 1.764 258
-0.355 0.33 1.706 1.787 249
-0.345 0.33 1.71 1.789 244
-0.337 0.332 1.722 1.799 239
-0.328 0.334 1.731 1.806 230
-0.319 0.335 1.738 1.812 219
-0.311 0.337 1.754 1.826 216
-0.304 0.341 1.775 1.846 214
-0.297 0.344 1.794 1.864 209
-0.288 0.346 1.803 1.872 199
-0.278 0.347 1.811 1.878 179
-0.251 0.326 1.7 1.762 70
-0.071 0.096 0.488 0.516 25
-0.055 0.089 0.45 0.476 27
-0.062 0.105 0.537 0.564 31
-0.081 0.145 0.747 0.778 43
-0.066 0.124 0.64 0.669 34
-0.066 0.132 0.678 0.708 28
-0.15 0.322 1.689 1.739 54
-0.156 0.358 1.885 1.938 161
-0.148 0.366 1.926 1.98 167
-0.142 0.378 1.992 2.046 108
-0.135 0.392 2.068 2.122 113
-0.126 0.402 2.122 2.177 113
-0.114 0.403 2.124 2.178 108
-0.103 0.409 2.161 2.215 111
-0.091 0.41 2.164 2.218 116
-0.08 0.416 2.2 2.254 124
-0.068 0.423 2.237 2.292 135
-0.055 0.424 2.239 2.293 153
-0.042 0.422 2.233 2.286 171
-0.029 0.42 2.221 2.274 198
-0.016 0.417 2.204 2.257 190
-0.004 0.419 2.215 2.268 141
0.008 0.434 2.293 2.347 70
0.023 0.454 2.402 2.459 66
0.036 0.452 2.388 2.445 64
0.048 0.432 2.285 2.34 43
0.026 0.191 0.999 1.032 388
0.031 0.186 0.973 1.005 622
0.031 0.162 0.843 0.873 62
0.037 0.164 0.853 0.883 75
0.042 0.165 0.857 0.888 72
0.045 0.159 0.827 0.857 68
0.051 0.162 0.843 0.873 63
0.053 0.154 0.799 0.829 65
0.06 0.159 0.827 0.858 70
0.067 0.165 0.855 0.887 73
0.078 0.179 0.932 0.966 103
0.092 0.197 1.026 1.062 471
0.099 0.198 1.03 1.067 579
0.104 0.197 1.027 1.065 563
0.112 0.199 1.037 1.075 549
0.116 0.197 1.022 1.061 323
0.086 0.141 0.725 0.757 35
0.107 0.164 0.851 0.887 40
0.128 0.188 0.974 1.014 98
0.131 0.185 0.956 0.996 74
0.122 0.166 0.855 0.894 52
0.109 0.142 0.73 0.766 31
0.116 0.135 0.692 0.728 27
0.222 0.201 1.028 1.085 75
0.202 0.178 0.909 0.961 56
0.206 0.177 0.901 0.955 62
0.222 0.186 0.949 1.006 79
0.214 0.175 0.889 0.945 51
0.206 0.164 0.834 0.888 28
0.177 0.138 0.697 0.746 32
0.264 0.18 0.907 0.975 29
0.302 0.201 1.014 1.09 31
0.429 0.226 1.115 1.229 99
0.439 0.228 1.12 1.238 164
0.42 0.215 1.054 1.168 346
0.424 0.214 1.045 1.161 927
0.432 0.214 1.046 1.166 956
0.439 0.214 1.043 1.165 954
0.444 0.214 1.039 1.163 954
0.451 0.214 1.037 1.164 973
0.457 0.214 1.034 1.164 984
0.462 0.213 1.028 1.161 981
0.47 0.214 1.027 1.163 991
0.475 0.213 1.022 1.16 992
0.481 0.213 1.019 1.16 1008
0.486 0.212 1.012 1.156 1008
0.492 0.212 1.01 1.157 1004
0.499 0.212 1.007 1.157 1010
0.506 0.212 1.005 1.158 1027
0.513 0.213 1.005 1.162 1030
0.518 0.212 0.998 1.157 1048
0.524 0.212 0.994 1.156 1062
0.532 0.213 0.994 1.161 1068
0.536 0.212 0.987 1.156 1070
0.544 0.212 0.987 1.16 1073
0.549 0.212 0.981 1.157 1065
0.556 0.212 0.979 1.159 1074
0.562 0.212 0.975 1.158 1090
-1.641 0.65 2.961 3.459 43
-1.33 0.688 3.306 3.641 32
-1.307 0.687 3.307 3.634 41
-1.257 0.671 3.236 3.548 33
-1.236 0.671 3.242 3.546 34
-0.733 0.404 1.951 2.135 82
-0.684 0.384 1.854 2.026 178
-0.674 0.384 1.86 2.028 186
-0.662 0.384 1.861 2.025 191
-0.642 0.379 1.84 1.998 200
-0.627 0.376 1.832 1.985 204
-0.609 0.373 1.817 1.965 209
-0.595 0.37 1.809 1.952 217
-0.58 0.368 1.801 1.94 218
-0.567 0.367 1.797 1.932 222
-0.554 0.366 1.794 1.926 224
-0.539 0.362 1.781 1.908 226
-0.523 0.359 1.766 1.889 231
-0.51 0.357 1.76 1.879 237
-0.492 0.352 1.738 1.854 240
-0.483 0.353 1.746 1.859 247
-0.474 0.354 1.752 1.862 250
-0.459 0.35 1.737 1.843 258
-0.444 0.347 1.723 1.826 263
-0.431 0.344 1.712 1.812 264
-0.421 0.345 1.718 1.815 272
-0.405 0.34 1.696 1.79 276
-0.396 0.341 1.699 1.791 279
-0.382 0.338 1.687 1.775 282
-0.374 0.339 1.695 1.781 279
-0.359 0.335 1.675 1.759 247
-0.354 0.339 1.701 1.784 249
-0.345 0.34 1.708 1.788 241
-0.335 0.341 1.711 1.79 237
-0.329 0.344 1.732 1.809 233
-0.321 0.347 1.746 1.822 222
-0.312 0.349 1.759 1.833 219
-0.305 0.352 1.776 1.849 213
-0.295 0.353 1.784 1.855 204
-0.287 0.356 1.798 1.869 197
-0.28 0.361 1.824 1.894 183
-0.253 0.339 1.715 1.78 85
-0.034 0.049 0.229 0.25 28
-0.048 0.073 0.353 0.377 25
-0.056 0.093 0.455 0.481 25
-0.062 0.108 0.533 0.56 27
-0.079 0.145 0.725 0.757 40
-0.069 0.135 0.675 0.705 36
-0.051 0.105 0.522 0.549 29
-0.146 0.324 1.647 1.698 50
-0.158 0.374 1.906 1.962 157
-0.149 0.38 1.94 1.996 171
-0.142 0.391 1.998 2.054 108
-0.136 0.407 2.082 2.139 114
-0.124 0.408 2.087 2.144 113
-0.114 0.416 2.129 2.186 111
-0.103 0.419 2.144 2.2 111
-0.092 0.427 2.186 2.243 118
-0.079 0.427 2.186 2.242 126
-0.067 0.43 2.203 2.259 133
-0.055 0.437 2.241 2.297 151
-0.042 0.435 2.23 2.286 170
-0.029 0.434 2.224 2.28 197
-0.017 0.432 2.216 2.271 189
-0.004 0.433 2.217 2.272 143
0.008 0.448 2.299 2.356 70
0.022 0.464 2.378 2.436 64
0.037 0.469 2.405 2.465 63
0.047 0.441 2.259 2.315 42
0.026 0.198 1.004 1.038 458
0.031 0.193 0.976 1.009 612
0.031 0.164 0.827 0.857 63
0.037 0.17 0.858 0.889 76
0.042 0.17 0.859 0.891 75
0.047 0.172 0.868 0.9 72
0.05 0.164 0.829 0.86 68
0.055 0.165 0.829 0.86 67
0.059 0.162 0.814 0.845 69
0.066 0.168 0.846 0.879 75
0.079 0.186 0.941 0.976 107
0.092 0.202 1.02 1.058 471
0.099 0.204 1.03 1.068 580
0.105 0.205 1.033 1.073 571
0.111 0.204 1.03 1.07 548
0.115 0.202 1.016 1.056 270
0.083 0.14 0.699 0.732 33
0.076 0.122 0.608 0.639 28
0.079 0.121 0.6 0.631 29
0.075 0.11 0.543 0.573 28
0.094 0.131 0.653 0.687 27
0.098 0.133 0.659 0.693 28
0.076 0.096 0.473 0.502 28
0.092 0.107 0.528 0.56 26
0.154 0.173 0.861 0.906 29
0.106 0.116 0.573 0.608 26
0.199 0.191 0.95 1.003 36
0.207 0.193 0.957 1.012 45
0.198 0.18 0.892 0.945 49
0.21 0.186 0.921 0.977 66
0.22 0.19 0.937 0.995 76
0.212 0.179 0.88 0.936 54
0.184 0.152 0.743 0.795 31
0.285 0.2 0.975 1.049 30
0.284 0.195 0.951 1.025 34
0.435 0.236 1.13 1.247 152
0.442 0.236 1.127 1.247 155
0.416 0.219 1.04 1.154 378
0.425 0.221 1.046 1.164 923
0.432 0.221 1.044 1.164 958
0.44 0.221 1.045 1.169 955
0.444 0.22 1.037 1.163 968
0.451 0.22 1.035 1.163 978
0.458 0.221 1.033 1.165 978
0.463 0.22 1.029 1.163 980
0.47 0.22 1.026 1.163 967
0.477 0.22 1.024 1.164 995
0.481 0.219 1.017 1.159 1002
0.486 0.219 1.012 1.157 1008
0.494 0.219 1.012 1.16 1011
0.501 0.22 1.011 1.162 1010
0.505 0.219 1.003 1.157 1026
0.511 0.218 0.998 1.155 1026
0.517 0.218 0.996 1.157 1038
0.524 0.218 0.994 1.157 1062
0.532 0.219 0.994 1.161 1059
0.535 0.218 0.985 1.155 1066
0.541 0.218 0.981 1.154 1065
0.547 0.218 0.977 1.154 1057
0.554 0.218 0.975 1.155 1062
0.563 0.219 0.976 1.16 1091
-1.581 0.637 2.807 3.295 49
-1.562 0.637 2.814 3.293 64
-1.201 0.586 2.69 3.016 63
-1.199 0.594 2.731 3.053 55
-1.329 0.708 3.3 3.639 36
-1.323 0.716 3.343 3.678 35
-1.27 0.71 3.327 3.644 32
-0.701 0.398 1.863 2.043 107
-0.693 0.4 1.874 2.05 180
-0.672 0.394 1.852 2.021 187
-0.655 0.391 1.84 2.005 196
-0.644 0.391 1.844 2.004 198
-0.624 0.386 1.823 1.977 204
-0.613 0.386 1.826 1.977 211
-0.591 0.379 1.797 1.942 216
-0.582 0.38 1.804 1.946 218
-0.568 0.378 1.798 1.936 221
-0.553 0.375 1.787 1.92 226
-0.543 0.376 1.792 1.922 226
-0.525 0.371 1.772 1.898 232
-0.512 0.369 1.765 1.887 240
-0.496 0.366 1.751 1.869 243
-0.486 0.366 1.754 1.87 249
-0.476 0.366 1.757 1.87 252
-0.458 0.36 1.733 1.842 259
-0.445 0.358 1.723 1.828 261
-0.432 0.356 1.717 1.819 259
-0.419 0.354 1.708 1.807 275
-0.41 0.354 1.713 1.81 275
-0.396 0.351 1.699 1.793 281
-0.382 0.348 1.685 1.776 283
-0.371 0.346 1.681 1.769 282
-0.361 0.347 1.684 1.77 252
-0.354 0.349 1.698 1.782 252
-0.347 0.353 1.717 1.8 237
-0.334 0.349 1.703 1.783 237
-0.331 0.357 1.742 1.822 232
-0.322 0.358 1.749 1.827 222
-0.309 0.356 1.739 1.815 214
-0.303 0.36 1.76 1.835 212
-0.296 0.365 1.786 1.86 208
-0.289 0.369 1.808 1.881 199
-0.277 0.367 1.801 1.872 188
-0.262 0.361 1.773 1.841 102
-0.054 0.077 0.361 0.387 25
-0.058 0.087 0.412 0.438 27
-0.056 0.088 0.416 0.442 27
-0.042 0.069 0.321 0.345 26
-0.047 0.084 0.4 0.425 27
-0.082 0.155 0.754 0.787 44
-0.065 0.13 0.627 0.657 34
-0.063 0.134 0.651 0.681 31
-0.152 0.346 1.711 1.766 52
-0.158 0.386 1.91 1.969 159
-0.149 0.39 1.929 1.987 171
-0.142 0.403 1.997 2.056 109
-0.136 0.418 2.072 2.132 114
-0.126 0.426 2.112 2.171 113
-0.114 0.429 2.127 2.186 108
-0.103 0.433 2.148 2.207 112
-0.092 0.439 2.178 2.237 118
-0.081 0.446 2.217 2.277 120
-0.068 0.449 2.233 2.292 135
-0.055 0.45 2.234 2.293 151
-0.043 0.451 2.24 2.298 167
-0.029 0.446 2.215 2.273 196
-0.016 0.444 2.206 2.264 188
-0.004 0.444 2.208 2.266 140
0.008 0.464 2.306 2.366 68
0.023 0.479 2.385 2.446 67
0.037 0.486 2.416 2.478 61
0.046 0.446 2.219 2.278 40
0.026 0.202 0.99 1.025 486
0.031 0.198 0.97 1.005 647
0.031 0.17 0.834 0.866 65
0.037 0.176 0.862 0.895 78
0.042 0.176 0.862 0.895 75
0.046 0.173 0.846 0.878 69
0.051 0.171 0.835 0.868 68
0.055 0.171 0.834 0.867 72
0.062 0.174 0.852 0.885 72
0.067 0.174 0.852 0.886 76
0.076 0.184 0.901 0.936 100
0.092 0.207 1.016 1.055 449
0.099 0.21 1.031 1.071 587
0.105 0.211 1.035 1.075 577
0.111 0.21 1.027 1.068 553
0.115 0.206 1.008 1.049 252
0.091 0.157 0.76 0.795 33
0.078 0.129 0.621 0.653 30
0.117 0.183 0.891 0.931 50
0.12 0.18 0.876 0.916 55
0.133 0.191 0.931 0.973 60
0.145 0.199 0.97 1.015 80
0.152 0.201 0.976 1.022 86
0.165 0.21 1.024 1.072 141
0.173 0.212 1.031 1.081 141
0.183 0.217 1.055 1.107 185
0.191 0.219 1.062 1.115 165
0.168 0.187 0.906 0.954 42
0.173 0.167 0.801 0.85 27
0.192 0.179 0.861 0.914 52
0.212 0.193 0.928 0.986 64
0.211 0.187 0.897 0.954 76
0.218 0.189 0.904 0.963 54
0.196 0.166 0.791 0.845 30
0.171 0.142 0.673 0.722 30
0.288 0.208 0.985 1.06 33
0.322 0.227 1.079 1.162 37
0.436 0.244 1.13 1.249 146
0.437 0.24 1.111 1.231 106
0.416 0.226 1.04 1.156 413
0.426 0.227 1.046 1.165 927
0.433 0.228 1.046 1.168 945
0.439 0.228 1.042 1.167 954
0.444 0.227 1.036 1.163 965
0.451 0.227 1.034 1.164 978
0.458 0.227 1.034 1.167 978
0.464 0.227 1.029 1.165 983
0.469 0.226 1.024 1.162 974
0.477 0.227 1.023 1.164 990
0.48 0.226 1.015 1.158 996
0.487 0.226 1.013 1.159 1003
0.494 0.226 1.01 1.16 1007
0.5 0.226 1.007 1.16 1024
0.505 0.225 1.002 1.158 1038
0.513 0.226 1.001 1.16 1040
0.52 0.226 1.001 1.164 1032
0.525 0.225 0.994 1.159 1051
0.53 0.225 0.99 1.158 1048
0.537 0.225 0.986 1.158 1055
0.544 0.225 0.985 1.16 1047
0.552 0.226 0.985 1.164 1055
0.555 0.225 0.976 1.158 1072
0.563 0.225 0.974 1.16 1080
-1.587 0.651 2.771 3.27 75
-1.537 0.638 2.725 3.204 105
-1.526 0.64 2.745 3.216 109
-1.542 0.655 2.815 3.287 75
-1.572 0.675 2.914 3.39 54
-1.531 0.666 2.881 3.341 58
-1.493 0.658 2.853 3.298 61
-1.42 0.633 2.755 3.175 86
-1.441 0.65 2.838 3.26 66
-1.386 0.642 2.815 3.214 47
-1.362 0.639 2.811 3.2 56
-1.251 0.628 2.798 3.14 51
-1.196 0.609 2.72 3.045 74
-1.321 0.724 3.277 3.619 37
-1.353 0.753 3.415 3.762 37
-0.686 0.401 1.821 2 96
-0.692 0.411 1.871 2.049 176
-0.677 0.409 1.864 2.037 185
-0.657 0.404 1.844 2.012 190
-0.645 0.403 1.845 2.008 196
-0.625 0.398 1.824 1.982 204
-0.615 0.398 1.829 1.982 208
-0.602 0.397 1.828 1.978 217
-0.585 0.394 1.813 1.958 218
-0.57 0.39 1.802 1.943 221
-0.555 0.388 1.791 1.928 231
-0.54 0.384 1.78 1.912 227
-0.528 0.383 1.778 1.907 236
-0.512 0.38 1.765 1.89 239
-0.498 0.377 1.755 1.875 245
-0.483 0.374 1.743 1.859 248
-0.475 0.376 1.753 1.868 254
-0.457 0.37 1.727 1.838 257
-0.447 0.37 1.732 1.84 259
-0.431 0.365 1.71 1.814 269
-0.419 0.364 1.705 1.806 271
-0.408 0.363 1.703 1.801 281
-0.395 0.36 1.693 1.788 281
-0.384 0.359 1.689 1.782 283
-0.372 0.358 1.686 1.776 285
-0.361 0.357 1.683 1.771 256
-0.353 0.359 1.694 1.78 249
-0.346 0.361 1.707 1.791 242
-0.335 0.36 1.706 1.788 236
-0.33 0.366 1.733 1.814 235
-0.32 0.366 1.736 1.816 221
-0.311 0.368 1.748 1.827 216
-0.304 0.372 1.767 1.845 208
-0.296 0.375 1.784 1.861 203
-0.286 0.375 1.786 1.86 197
-0.278 0.379 1.808 1.882 186
-0.263 0.373 1.778 1.849 113
-0.031 0.048 0.211 0.231 27
-0.043 0.072 0.327 0.351 26
-0.049 0.085 0.391 0.417 25
-0.067 0.124 0.582 0.612 28
-0.078 0.153 0.721 0.755 45
-0.063 0.131 0.613 0.643 34
-0.046 0.1 0.465 0.491 30
-0.149 0.348 1.67 1.726 53
-0.158 0.396 1.904 1.965 159
-0.149 0.4 1.924 1.984 175
-0.141 0.41 1.972 2.033 110
-0.136 0.431 2.074 2.136 114
-0.125 0.435 2.093 2.155 113
-0.113 0.437 2.105 2.166 105
-0.103 0.446 2.151 2.213 110
-0.093 0.455 2.192 2.254 115
-0.08 0.455 2.197 2.259 123
-0.068 0.462 2.228 2.289 132
-0.055 0.461 2.227 2.288 146
-0.043 0.463 2.233 2.295 166
-0.029 0.46 2.219 2.279 197
-0.017 0.457 2.204 2.265 187
-0.004 0.46 2.218 2.279 138
0.008 0.474 2.29 2.352 65
0.022 0.488 2.358 2.422 57
0.036 0.494 2.384 2.448 42
0.041 0.408 1.968 2.024 28
0.025 0.207 0.989 1.024 496
0.031 0.204 0.975 1.011 715
0.031 0.175 0.832 0.864 68
0.036 0.178 0.847 0.88 82
0.041 0.176 0.834 0.867 74
0.047 0.179 0.849 0.883 74
0.05 0.175 0.832 0.866 73
0.056 0.177 0.84 0.874 73
0.063 0.183 0.868 0.903 75
0.067 0.181 0.857 0.892 78
0.076 0.189 0.898 0.934 100
0.092 0.213 1.016 1.056 432
0.099 0.216 1.026 1.066 583
0.105 0.216 1.027 1.068 578
0.111 0.216 1.027 1.069 552
0.115 0.213 1.012 1.055 271
0.095 0.168 0.794 0.831 33
0.11 0.186 0.877 0.917 55
0.134 0.215 1.02 1.065 217
0.143 0.219 1.038 1.084 246
0.148 0.217 1.028 1.075 237
0.155 0.219 1.036 1.084 216
0.161 0.219 1.035 1.084 204
0.169 0.222 1.048 1.098 171
0.174 0.22 1.038 1.089 125
0.173 0.212 0.997 1.047 86
0.18 0.213 1.003 1.055 63
0.152 0.174 0.816 0.862 28
0.155 0.172 0.806 0.852 27
0.151 0.163 0.761 0.807 29
0.163 0.17 0.796 0.843 27
0.194 0.192 0.896 0.95 35
0.188 0.181 0.845 0.898 56
0.209 0.196 0.913 0.971 60
0.214 0.196 0.91 0.969 75
0.215 0.192 0.891 0.95 54
0.201 0.175 0.812 0.869 31
0.206 0.175 0.81 0.867 29
0.305 0.226 1.043 1.124 37
0.316 0.23 1.059 1.143 36
0.431 0.248 1.116 1.235 118
0.428 0.242 1.088 1.207 79
0.415 0.232 1.036 1.154 453
0.426 0.234 1.044 1.165 920
0.432 0.234 1.042 1.166 942
0.439 0.234 1.04 1.166 953
0.445 0.234 1.037 1.166 963
0.452 0.234 1.036 1.168 977
0.457 0.233 1.029 1.163 978
0.464 0.233 1.028 1.165 988
0.472 0.234 1.029 1.169 985
0.477 0.233 1.022 1.165 995
0.483 0.233 1.02 1.166 983
0.491 0.234 1.019 1.169 988
0.495 0.233 1.012 1.163 1000
0.503 0.233 1.011 1.166 1020
0.508 0.233 1.006 1.164 1036
0.513 0.232 1.001 1.161 1035
0.518 0.232 0.995 1.158 1043
0.526 0.232 0.995 1.162 1046
0.531 0.232 0.99 1.16 1049
0.539 0.232 0.988 1.162 1042
0.543 0.231 0.982 1.159 1054
0.551 0.232 0.981 1.161 1051
0.556 0.231 0.976 1.16 1070
0.563 0.232 0.974 1.162 1067
-1.549 0.653 2.702 3.194 125
-1.53 0.653 2.709 3.19 131
-1.521 0.656 2.733 3.207 135
-1.515 0.661 2.762 3.23 130
-1.492 0.659 2.761 3.218 122
-1.479 0.662 2.78 3.229 118
-1.469 0.665 2.802 3.244 114
-1.426 0.654 2.762 3.188 126
-1.421 0.66 2.795 3.216 100
-1.474 0.693 2.945 3.377 48
-1.399 0.666 2.84 3.247 52
-1.316 0.635 2.713 3.093 74
-1.331 0.65 2.787 3.168 57
-1.246 0.634 2.738 3.086 58
-1.23 0.635 2.748 3.089 57
-1.263 0.661 2.869 3.216 47
-0.704 0.423 1.865 2.05 80
-0.694 0.424 1.874 2.056 175
-0.676 0.42 1.859 2.035 185
-0.656 0.415 1.84 2.009 194
-0.643 0.413 1.836 2.001 198
-0.631 0.413 1.839 2 201
-0.61 0.406 1.813 1.968 208
-0.599 0.406 1.817 1.968 214
-0.586 0.405 1.813 1.961 217
-0.571 0.402 1.802 1.945 220
-0.556 0.399 1.794 1.933 232
-0.54 0.396 1.78 1.914 234
-0.526 0.393 1.772 1.903 240
-0.51 0.389 1.755 1.881 240
-0.499 0.388 1.755 1.878 242
-0.484 0.385 1.743 1.862 253
-0.474 0.385 1.745 1.862 250
-0.459 0.382 1.733 1.845 255
-0.449 0.382 1.735 1.845 262
-0.433 0.377 1.718 1.824 266
-0.421 0.375 1.71 1.814 268
-0.407 0.372 1.698 1.798 279
-0.397 0.372 1.698 1.795 282
-0.384 0.37 1.69 1.785 285
-0.371 0.366 1.677 1.769 281
-0.359 0.364 1.668 1.758 262
-0.351 0.366 1.681 1.769 249
-0.344 0.37 1.698 1.784 243
-0.337 0.373 1.716 1.802 236
-0.328 0.374 1.723 1.807 229
-0.321 0.378 1.742 1.824 224
-0.312 0.38 1.753 1.834 216
-0.304 0.382 1.765 1.844 211
-0.298 0.388 1.794 1.873 207
-0.287 0.387 1.792 1.869 198
-0.276 0.387 1.792 1.867 187
-0.263 0.382 1.773 1.846 124
-0.187 0.283 1.308 1.365 29
-0.044 0.069 0.306 0.33 26
-0.052 0.085 0.378 0.404 26
-0.053 0.092 0.412 0.438 27
-0.05 0.095 0.427 0.454 28
-0.076 0.152 0.695 0.729 41
-0.066 0.14 0.639 0.671 35
-0.053 0.119 0.54 0.569 28
-0.148 0.356 1.661 1.718 51
-0.159 0.409 1.91 1.974 161
-0.148 0.411 1.92 1.982 173
-0.141 0.421 1.969 2.032 110
-0.136 0.443 2.07 2.135 112
-0.124 0.445 2.083 2.147 109
-0.114 0.453 2.119 2.184 102
-0.103 0.456 2.136 2.2 104
-0.092 0.463 2.171 2.235 108
-0.08 0.47 2.203 2.268 114
-0.068 0.471 2.21 2.274 124
-0.055 0.476 2.232 2.296 143
-0.042 0.472 2.214 2.278 157
-0.03 0.474 2.222 2.286 183
-0.017 0.474 2.222 2.286 161
-0.004 0.474 2.224 2.288 104
0.008 0.464 2.178 2.24 41
0.018 0.421 1.973 2.032 33
0.025 0.352 1.647 1.698 37
0.027 0.283 1.317 1.361 53
0.026 0.214 0.993 1.03 497
0.031 0.209 0.968 1.005 730
0.032 0.185 0.856 0.89 68
0.036 0.182 0.839 0.873 81
0.042 0.185 0.854 0.888 79
0.046 0.184 0.848 0.882 76
0.051 0.184 0.847 0.882 74
0.057 0.185 0.854 0.889 78
0.061 0.183 0.845 0.88 78
0.066 0.182 0.841 0.876 78
0.075 0.193 0.891 0.928 94
0.092 0.219 1.014 1.056 383
0.098 0.221 1.023 1.065 588
0.105 0.223 1.029 1.071 577
0.111 0.223 1.029 1.073 556
0.115 0.219 1.01 1.054 290
0.089 0.163 0.746 0.782 34
0.099 0.171 0.786 0.824 28
0.102 0.169 0.773 0.812 36
0.111 0.176 0.804 0.844 36
0.113 0.171 0.784 0.824 33
0.115 0.168 0.766 0.806 30
0.126 0.177 0.809 0.851 28
0.121 0.164 0.75 0.791 28
0.115 0.15 0.682 0.722 28
0.138 0.174 0.795 0.839 32
0.13 0.159 0.724 0.767 29
0.136 0.161 0.729 0.772 27
0.15 0.172 0.779 0.825 32
0.163 0.181 0.822 0.871 30
0.163 0.176 0.797 0.846 32
0.192 0.2 0.91 0.965 34
0.235 0.238 1.084 1.148 97
0.213 0.21 0.953 1.013 64
0.206 0.198 0.898 0.956 61
0.21 0.197 0.891 0.95 71
0.218 0.2 0.902 0.963 50
0.187 0.164 0.734 0.789 28
0.289 0.221 0.987 1.066 34
0.27 0.202 0.901 0.976 34
0.421 0.241 1.05 1.17 501
0.427 0.241 1.047 1.169 928
0.436 0.242 1.049 1.175 931
0.44 0.241 1.042 1.17 942
0.447 0.241 1.04 1.171 957
0.452 0.241 1.034 1.168 964
0.46 0.241 1.034 1.17 973
0.465 0.24 1.028 1.167 981
0.471 0.24 1.025 1.166 979
0.477 0.24 1.022 1.166 982
0.483 0.24 1.017 1.164 988
0.489 0.24 1.014 1.164 1004
0.496 0.24 1.012 1.165 1002
0.5 0.239 1.005 1.161 1016
0.51 0.24 1.009 1.169 1019
0.513 0.239 1 1.162 1036
0.521 0.24 1 1.166 1040
0.527 0.239 0.995 1.164 1052
0.533 0.239 0.992 1.164 1056
0.535 0.237 0.981 1.156 1053
0.543 0.238 0.981 1.159 1057
0.552 0.239 0.982 1.164 1047
0.556 0.238 0.974 1.159 1065
0.562 0.238 0.97 1.159 1070
-1.546 0.67 2.693 3.188 129
-1.529 0.67 2.703 3.188 131
-1.532 0.679 2.749 3.231 136
-1.504 0.675 2.739 3.208 139
-1.491 0.677 2.755 3.216 139
-1.474 0.677 2.767 3.219 138
-1.482 0.689 2.824 3.275 95
-1.475 0.695 2.855 3.299 62
-1.487 0.709 2.921 3.365 57
-1.533 0.74 3.06 3.513 41
-1.408 0.689 2.853 3.267 59
-1.313 0.651 2.702 3.086 88
-1.336 0.671 2.794 3.18 61
-1.29 0.684 2.879 3.239 47
-1.167 0.628 2.648 2.973 54
-1.226 0.699 2.979 3.309 47
-1.213 0.702 2.999 3.322 47
-0.742 0.458 1.964 2.161 65
-0.691 0.433 1.862 2.045 165
-0.673 0.43 1.85 2.027 183
-0.658 0.427 1.843 2.016 192
-0.647 0.427 1.847 2.015 200
-0.631 0.424 1.835 1.999 209
-0.612 0.419 1.817 1.975 212
-0.603 0.42 1.825 1.98 212
-0.585 0.415 1.807 1.957 218
-0.569 0.412 1.796 1.941 228
-0.554 0.408 1.783 1.924 230
-0.543 0.409 1.788 1.926 229
-0.53 0.407 1.781 1.915 239
-0.512 0.401 1.761 1.89 244
-0.495 0.396 1.738 1.863 247
-0.491 0.401 1.765 1.888 251
-0.475 0.397 1.75 1.869 252
-0.458 0.391 1.727 1.841 257
-0.448 0.392 1.731 1.843 267
-0.434 0.388 1.718 1.827 270
-0.418 0.383 1.695 1.8 269
-0.411 0.386 1.71 1.813 275
-0.396 0.381 1.692 1.792 281
-0.384 0.379 1.687 1.785 285
-0.37 0.376 1.673 1.767 290
-0.361 0.376 1.678 1.77 262
-0.353 0.378 1.689 1.779 250
-0.344 0.379 1.693 1.782 243
-0.337 0.383 1.713 1.8 238
-0.328 0.384 1.721 1.807 230
-0.318 0.385 1.724 1.808 224
-0.313 0.391 1.756 1.839 217
-0.305 0.393 1.766 1.848 210
-0.296 0.396 1.782 1.862 204
-0.288 0.399 1.793 1.873 199
-0.278 0.4 1.801 1.879 188
-0.265 0.396 1.785 1.861 140
-0.213 0.332 1.495 1.56 46
-0.061 0.099 0.433 0.461 26
-0.021 0.035 0.139 0.158 27
-0.04 0.071 0.303 0.327 25
-0.051 0.094 0.409 0.436 26
-0.073 0.151 0.67 0.704 43
-0.065 0.142 0.631 0.664 34
-0.055 0.127 0.564 0.595 31
-0.143 0.354 1.605 1.664 51
-0.159 0.421 1.913 1.979 158
-0.148 0.422 1.916 1.981 172
-0.142 0.436 1.983 2.049 106
-0.136 0.457 2.079 2.147 114
-0.125 0.46 2.094 2.161 107
-0.114 0.462 2.105 2.172 105
-0.102 0.467 2.128 2.195 101
-0.092 0.479 2.182 2.249 104
-0.08 0.482 2.199 2.266 104
-0.068 0.487 2.22 2.287 110
-0.055 0.489 2.23 2.297 112
-0.042 0.485 2.213 2.279 110
-0.029 0.48 2.191 2.256 104
-0.015 0.45 2.052 2.115 74
-0.003 0.375 1.706 1.761 53
0.004 0.317 1.439 1.487 50
0.012 0.307 1.391 1.438 57
0.02 0.299 1.354 1.401 62
0.026 0.285 1.292 1.337 66
0.026 0.221 0.996 1.034 444
0.031 0.215 0.968 1.006 768
0.032 0.188 0.846 0.881 68
0.037 0.192 0.862 0.898 86
0.041 0.187 0.84 0.875 82
0.046 0.188 0.843 0.878 81
0.051 0.187 0.837 0.873 77
0.055 0.185 0.829 0.865 77
0.061 0.188 0.842 0.879 78
0.068 0.194 0.871 0.908 81
0.075 0.198 0.891 0.929 85
0.091 0.223 1.003 1.045 320
0.099 0.228 1.026 1.069 590
0.105 0.229 1.03 1.074 590
0.111 0.229 1.028 1.073 567
0.117 0.228 1.025 1.071 355
0.104 0.195 0.871 0.912 48
0.092 0.164 0.731 0.768 30
0.099 0.17 0.755 0.794 32
0.097 0.158 0.703 0.74 31
0.101 0.158 0.703 0.741 30
0.101 0.152 0.673 0.711 30
0.12 0.173 0.768 0.81 30
0.121 0.168 0.745 0.787 32
0.129 0.174 0.769 0.813 31
0.147 0.191 0.846 0.893 35
0.176 0.22 0.979 1.032 65
0.194 0.235 1.045 1.102 111
0.186 0.218 0.968 1.023 60
