# .PCD v0.7 - Point Cloud Data file format
VERSION 0.7
FIELDS x y z d a
SIZE 4 4 4 4 4
TYPE F F F F F
COUNT 1 1 1 1 1
WIDTH 1723
HEIGHT 1
VIEWPOINT 0 0 0 1 0 0 0
POINTS 1723
DATA ascii
-0.106 0.04 1.204 1.223 704
-0.099 0.04 1.202 1.22 707
-0.092 0.04 1.205 1.223 717
-0.085 0.04 1.2 1.217 719
-0.078 0.04 1.199 1.216 725
-0.071 0.04 1.196 1.213 742
-0.064 0.04 1.195 1.212 763
-0.057 0.04 1.201 1.217 758
-0.05 0.04 1.2 1.215 760
-0.044 0.04 1.198 1.214 760
-0.037 0.04 1.202 1.217 757
-0.03 0.04 1.201 1.216 774
-0.023 0.04 1.195 1.21 795
-0.016 0.04 1.191 1.206 810
-0.009 0.04 1.194 1.208 826
-0.002 0.04 1.194 1.209 828
0.003 0.04 1.192 1.207 834
0.01 0.04 1.191 1.206 912
0.017 0.04 1.19 1.205 952
0.024 0.04 1.192 1.207 923
0.03 0.04 1.189 1.205 940
0.037 0.039 1.185 1.2 908
0.044 0.04 1.191 1.206 950
0.051 0.039 1.185 1.201 1003
0.058 0.039 1.185 1.202 1036
0.064 0.039 1.185 1.202 1033
0.071 0.039 1.184 1.201 1052
0.077 0.039 1.178 1.196 1015
0.085 0.039 1.184 1.202 1041
0.092 0.039 1.186 1.204 1014
0.098 0.039 1.179 1.198 989
0.105 0.04 1.185 1.205 971
0.112 0.039 1.182 1.202 982
0.118 0.039 1.18 1.2 971
0.125 0.039 1.178 1.199 967
0.132 0.039 1.178 1.201 977
0.138 0.039 1.176 1.199 993
0.146 0.039 1.179 1.203 1007
0.152 0.039 1.175 1.2 972
0.159 0.039 1.176 1.201 952
0.166 0.039 1.175 1.202 940
0.173 0.04 1.179 1.207 947
0.179 0.039 1.175 1.204 951
0.187 0.04 1.18 1.21 921
0.193 0.04 1.175 1.206 904
0.2 0.039 1.172 1.204 892
0.207 0.039 1.173 1.206 871
0.213 0.039 1.171 1.205 847
0.221 0.04 1.172 1.207 820
0.228 0.04 1.173 1.21 816
0.235 0.04 1.173 1.211 808
0.242 0.04 1.172 1.212 792
0.249 0.04 1.172 1.213 783
0.257 0.04 1.175 1.218 777
0.263 0.04 1.173 1.217 770
0.27 0.04 1.171 1.217 757
0.277 0.04 1.17 1.217 745
0.284 0.04 1.171 1.22 749
0.292 0.04 1.171 1.222 741
0.299 0.04 1.173 1.226 741
0.306 0.04 1.172 1.226 736
0.314 0.04 1.174 1.231 737
0.321 0.04 1.171 1.228 740
0.328 0.04 1.171 1.231 724
0.335 0.04 1.169 1.231 709
0.342 0.04 1.167 1.23 702
0.35 0.04 1.171 1.237 674
0.356 0.04 1.165 1.233 662
0.365 0.04 1.17 1.24 662
0.376 0.041 1.181 1.254 576
0.391 0.042 1.205 1.281 501
0.4 0.042 1.208 1.288 490
0.41 0.042 1.213 1.295 474
0.42 0.043 1.22 1.305 441
0.446 0.044 1.269 1.36 332
0.606 0.059 1.697 1.817 232
0.673 0.064 1.851 1.985 287
0.681 0.064 1.838 1.975 292
0.697 0.064 1.847 1.989 290
0.706 0.064 1.838 1.984 291
0.721 0.064 1.846 1.997 277
0.729 0.064 1.832 1.986 281
0.746 0.065 1.842 2.002 284
0.756 0.065 1.838 2.002 287
0.767 0.064 1.831 2 279
0.783 0.065 1.839 2.014 280
0.796 0.065 1.838 2.017 283
0.808 0.065 1.835 2.02 263
0.837 0.066 1.873 2.066 85
0.861 0.067 1.894 2.096 46
0.775 0.06 1.677 1.862 37
0.9 0.069 1.919 2.135 37
0.907 0.068 1.903 2.123 35
0.887 0.066 1.833 2.051 35
0.915 0.067 1.86 2.088 36
0.974 0.07 1.952 2.196 40
0.915 0.065 1.805 2.038 53
0.865 0.061 1.68 1.904 83
0.847 0.059 1.619 1.842 97
0.95 0.066 1.791 2.042 204
0.905 0.062 1.681 1.924 314
0.841 0.057 1.539 1.768 448
0.848 0.057 1.528 1.762 452
0.855 0.056 1.518 1.757 465
-0.968 0.075 1.723 1.99 314
-0.971 0.076 1.754 2.018 266
-0.965 0.076 1.769 2.028 170
-0.978 0.078 1.82 2.079 164
-0.98 0.079 1.851 2.108 160
-0.967 0.079 1.853 2.104 154
-0.971 0.08 1.889 2.138 150
-0.96 0.08 1.896 2.139 147
-0.962 0.082 1.931 2.171 143
-0.975 0.084 1.987 2.227 139
-0.964 0.084 1.997 2.231 132
-0.955 0.084 2.009 2.239 128
-0.939 0.084 2.008 2.23 169
-0.935 0.085 2.03 2.249 205
-0.936 0.086 2.067 2.283 123
-0.935 0.087 2.097 2.31 94
-0.943 0.089 2.151 2.362 87
-0.937 0.09 2.172 2.38 78
-0.927 0.09 2.187 2.389 70
-0.873 0.086 2.094 2.283 93
-0.819 0.082 1.995 2.17 201
-0.424 0.044 1.043 1.139 442
-0.358 0.037 0.892 0.975 746
-0.363 0.039 0.923 1.005 86
-0.357 0.039 0.924 1.004 78
-0.35 0.038 0.922 1 107
-0.335 0.037 0.899 0.973 126
-0.332 0.038 0.906 0.979 111
-0.332 0.038 0.924 0.995 72
-0.319 0.037 0.904 0.972 64
-0.332 0.04 0.96 1.03 93
-0.333 0.04 0.982 1.05 521
-0.329 0.041 0.991 1.058 690
-0.325 0.041 0.998 1.063 677
-0.319 0.041 1.001 1.064 660
-0.315 0.041 1.008 1.07 638
-0.311 0.041 1.017 1.078 622
-0.306 0.041 1.02 1.079 604
-0.302 0.042 1.031 1.088 596
-0.3 0.042 1.045 1.101 579
-0.296 0.043 1.055 1.109 568
-0.291 0.043 1.063 1.116 562
-0.289 0.043 1.079 1.131 548
-0.282 0.043 1.08 1.131 535
-0.277 0.044 1.084 1.133 406
-0.263 0.042 1.056 1.102 72
-0.242 0.04 0.996 1.039 31
-0.255 0.043 1.079 1.124 32
-0.261 0.045 1.133 1.177 27
-0.262 0.046 1.168 1.212 28
-0.262 0.048 1.201 1.244 28
-0.248 0.047 1.173 1.213 110
-0.243 0.047 1.182 1.221 398
-0.24 0.047 1.2 1.239 431
-0.234 0.048 1.209 1.246 419
-0.23 0.048 1.226 1.262 409
-0.226 0.049 1.248 1.283 391
-0.222 0.05 1.264 1.298 373
-0.215 0.05 1.27 1.303 277
-0.194 0.047 1.182 1.212 79
-0.188 0.047 1.188 1.218 44
-0.183 0.047 1.206 1.235 29
-0.217 0.058 1.488 1.518 44
-0.265 0.074 1.9 1.933 174
-0.257 0.074 1.924 1.956 252
-0.245 0.074 1.921 1.951 251
-0.235 0.075 1.929 1.959 244
-0.222 0.074 1.912 1.94 243
-0.196 0.069 1.772 1.798 212
-0.136 0.051 1.295 1.317 316
-0.123 0.048 1.241 1.262 455
-0.116 0.048 1.238 1.258 515
-0.109 0.048 1.239 1.259 511
-0.102 0.048 1.238 1.257 509
-0.094 0.048 1.236 1.255 511
-0.087 0.048 1.237 1.255 509
-0.08 0.048 1.237 1.254 506
-0.073 0.048 1.226 1.243 570
-0.065 0.047 1.217 1.234 656
-0.058 0.047 1.218 1.235 654
-0.051 0.047 1.212 1.228 649
-0.044 0.047 1.211 1.227 648
-0.037 0.047 1.219 1.234 640
-0.03 0.047 1.213 1.228 650
-0.023 0.047 1.211 1.226 674
-0.016 0.047 1.214 1.229 674
-0.009 0.047 1.208 1.223 679
-0.002 0.047 1.21 1.225 696
0.003 0.047 1.209 1.224 682
0.01 0.047 1.206 1.221 727
0.017 0.047 1.208 1.223 753
0.024 0.047 1.215 1.23 723
0.031 0.047 1.208 1.223 743
0.038 0.047 1.211 1.226 746
0.045 0.047 1.208 1.224 747
0.052 0.047 1.212 1.229 767
0.058 0.047 1.203 1.219 786
0.066 0.047 1.208 1.225 788
0.072 0.047 1.205 1.222 796
0.079 0.047 1.206 1.224 792
0.086 0.047 1.209 1.227 812
0.093 0.047 1.205 1.223 818
0.1 0.047 1.211 1.23 826
0.107 0.047 1.209 1.229 826
0.114 0.047 1.212 1.232 835
0.121 0.047 1.211 1.233 837
0.128 0.047 1.21 1.232 839
0.135 0.047 1.211 1.234 852
0.143 0.047 1.212 1.236 858
0.15 0.047 1.212 1.236 848
0.157 0.048 1.217 1.242 825
0.164 0.048 1.211 1.237 807
0.171 0.048 1.211 1.238 784
0.177 0.047 1.207 1.236 772
0.185 0.048 1.212 1.241 761
0.192 0.048 1.212 1.242 735
0.199 0.048 1.211 1.242 713
0.207 0.048 1.212 1.245 713
0.215 0.048 1.218 1.252 700
0.222 0.048 1.218 1.253 689
0.229 0.048 1.217 1.254 677
0.237 0.048 1.218 1.256 679
0.244 0.048 1.217 1.257 686
0.25 0.048 1.213 1.254 682
0.258 0.048 1.214 1.256 688
0.266 0.048 1.219 1.263 697
0.273 0.048 1.218 1.263 704
0.279 0.048 1.209 1.256 711
0.286 0.048 1.209 1.258 711
0.294 0.048 1.212 1.263 714
0.303 0.049 1.216 1.268 722
0.31 0.049 1.215 1.269 723
0.318 0.049 1.215 1.271 730
0.324 0.049 1.211 1.269 735
0.333 0.049 1.216 1.276 732
0.339 0.049 1.211 1.273 715
0.347 0.049 1.213 1.277 693
0.354 0.049 1.21 1.276 671
0.362 0.049 1.211 1.279 647
0.371 0.049 1.214 1.284 622
0.377 0.049 1.208 1.281 610
0.405 0.052 1.272 1.35 343
0.528 0.066 1.629 1.728 139
0.545 0.066 1.646 1.749 135
0.561 0.067 1.662 1.77 132
0.583 0.069 1.695 1.808 134
0.614 0.071 1.751 1.871 137
0.661 0.075 1.852 1.982 181
0.679 0.076 1.866 2.001 212
0.688 0.076 1.856 1.994 216
0.698 0.076 1.851 1.994 213
0.718 0.076 1.87 2.018 211
0.737 0.077 1.886 2.04 203
0.747 0.077 1.878 2.036 201
0.761 0.077 1.881 2.044 202
0.771 0.077 1.873 2.04 202
0.785 0.077 1.874 2.047 197
0.8 0.078 1.88 2.058 199
0.805 0.077 1.86 2.043 201
0.812 0.077 1.845 2.03 170
0.863 0.08 1.931 2.13 40
0.658 0.056 1.315 1.485 36
0.812 0.068 1.6 1.809 52
0.801 0.067 1.555 1.764 81
0.84 0.069 1.606 1.827 76
0.952 0.077 1.795 2.047 131
0.874 0.07 1.622 1.858 298
0.843 0.067 1.541 1.771 456
0.848 0.067 1.528 1.763 463
0.861 0.067 1.528 1.768 464
-0.972 0.086 1.73 1.998 305
-0.966 0.087 1.744 2.007 259
-0.972 0.088 1.782 2.043 162
-0.973 0.089 1.81 2.068 156
-0.971 0.09 1.833 2.088 147
-0.968 0.091 1.856 2.107 139
-0.966 0.092 1.88 2.128 132
-0.968 0.093 1.913 2.158 127
-0.965 0.094 1.936 2.177 124
-0.964 0.095 1.964 2.202 107
-0.962 0.096 1.991 2.225 107
-0.956 0.097 2.011 2.241 145
-0.946 0.097 2.02 2.245 194
-0.931 0.097 2.021 2.239 203
-0.927 0.098 2.045 2.259 103
-0.937 0.1 2.102 2.316 42
-1.077 0.117 2.459 2.7 37
-1.148 0.126 2.665 2.917 41
-1.223 0.136 2.889 3.153 61
-1.037 0.117 2.488 2.71 54
-0.817 0.094 1.991 2.167 110
-0.381 0.045 0.936 1.024 662
-0.36 0.043 0.897 0.98 567
-0.361 0.044 0.918 1 61
-0.346 0.043 0.895 0.974 67
-0.345 0.043 0.907 0.984 72
-0.352 0.045 0.945 1.022 65
-0.341 0.044 0.932 1.006 60
-0.337 0.044 0.937 1.009 58
-0.335 0.045 0.951 1.022 61
-0.337 0.046 0.976 1.047 145
-0.333 0.046 0.984 1.053 602
-0.33 0.047 0.992 1.059 687
-0.325 0.047 0.997 1.062 663
-0.319 0.047 1.001 1.065 648
-0.315 0.047 1.008 1.07 633
-0.311 0.047 1.016 1.077 615
-0.308 0.048 1.029 1.089 600
-0.304 0.048 1.037 1.095 593
-0.3 0.048 1.045 1.101 584
-0.295 0.049 1.052 1.107 573
-0.29 0.049 1.06 1.113 558
-0.287 0.049 1.071 1.123 546
-0.282 0.05 1.077 1.128 525
-0.278 0.05 1.088 1.138 481
-0.267 0.049 1.071 1.118 140
-0.254 0.048 1.045 1.09 32
-0.241 0.047 1.016 1.058 29
-0.232 0.046 1.006 1.047 27
-0.24 0.049 1.072 1.113 28
-0.231 0.048 1.059 1.099 26
-0.25 0.054 1.178 1.219 57
-0.244 0.054 1.184 1.223 309
-0.24 0.055 1.202 1.24 422
-0.235 0.055 1.213 1.25 415
-0.231 0.056 1.234 1.27 403
-0.227 0.057 1.251 1.286 385
-0.222 0.057 1.265 1.299 355
-0.215 0.057 1.268 1.301 178
-0.194 0.054 1.186 1.216 56
-0.196 0.056 1.24 1.271 35
-0.187 0.055 1.232 1.261 28
-0.227 0.07 1.559 1.59 44
-0.27 0.086 1.94 1.975 146
-0.26 0.086 1.944 1.977 180
-0.248 0.086 1.94 1.972 181
-0.236 0.086 1.935 1.965 177
-0.227 0.087 1.957 1.986 187
-0.216 0.087 1.956 1.983 193
-0.2 0.085 1.915 1.941 166
-0.183 0.082 1.854 1.879 159
-0.172 0.082 1.846 1.87 161
-0.162 0.082 1.854 1.877 160
-0.153 0.083 1.878 1.9 164
-0.143 0.083 1.881 1.902 168
-0.127 0.08 1.813 1.834 142
-0.115 0.079 1.779 1.798 138
-0.08 0.06 1.347 1.365 306
-0.067 0.056 1.256 1.273 614
-0.06 0.056 1.259 1.276 603
-0.053 0.056 1.255 1.271 599
-0.045 0.056 1.25 1.266 605
-0.038 0.056 1.255 1.271 604
-0.031 0.056 1.256 1.272 606
-0.024 0.056 1.252 1.267 602
-0.017 0.056 1.255 1.27 604
-0.01 0.056 1.254 1.27 601
-0.003 0.056 1.251 1.267 607
0.004 0.056 1.247 1.262 612
0.011 0.056 1.253 1.269 622
0.018 0.056 1.251 1.267 636
0.025 0.056 1.248 1.264 645
0.032 0.056 1.245 1.261 654
0.039 0.056 1.248 1.264 663
0.046 0.056 1.247 1.263 677
0.053 0.056 1.247 1.264 684
0.061 0.056 1.251 1.268 681
0.068 0.056 1.244 1.261 689
0.075 0.056 1.246 1.264 695
0.082 0.056 1.247 1.266 703
0.089 0.056 1.244 1.263 710
0.096 0.056 1.241 1.26 723
0.103 0.056 1.246 1.266 747
0.11 0.056 1.242 1.262 741
0.117 0.056 1.24 1.261 748
0.125 0.056 1.242 1.264 763
0.131 0.055 1.236 1.259 764
0.139 0.056 1.238 1.261 767
0.145 0.055 1.233 1.257 780
0.153 0.056 1.236 1.261 775
0.16 0.056 1.235 1.261 781
0.167 0.056 1.238 1.265 774
0.174 0.056 1.235 1.263 756
0.182 0.056 1.239 1.267 748
0.188 0.055 1.229 1.259 732
0.196 0.056 1.237 1.268 710
0.204 0.056 1.237 1.269 700
0.21 0.056 1.23 1.264 689
0.217 0.056 1.232 1.266 692
0.226 0.056 1.237 1.273 684
0.232 0.056 1.23 1.267 683
0.238 0.056 1.228 1.266 692
0.246 0.056 1.23 1.27 685
0.254 0.056 1.23 1.271 689
0.261 0.056 1.229 1.271 691
0.268 0.056 1.229 1.274 706
0.275 0.056 1.225 1.271 717
0.283 0.056 1.225 1.273 718
0.29 0.056 1.225 1.274 722
0.297 0.056 1.224 1.275 729
0.304 0.056 1.22 1.273 731
0.312 0.056 1.222 1.276 723
0.318 0.056 1.218 1.275 729
0.327 0.056 1.22 1.279 735
0.334 0.056 1.219 1.28 732
0.341 0.056 1.218 1.28 712
0.349 0.056 1.219 1.283 683
0.356 0.056 1.215 1.281 658
0.364 0.056 1.215 1.284 615
0.372 0.057 1.217 1.288 585
0.379 0.056 1.213 1.286 569
0.409 0.06 1.285 1.364 288
0.598 0.085 1.845 1.956 40
0.62 0.087 1.873 1.989 32
0.622 0.085 1.844 1.962 32
0.666 0.09 1.937 2.065 44
0.696 0.092 1.986 2.12 55
0.715 0.093 2.002 2.142 73
0.717 0.092 1.971 2.114 67
0.737 0.093 1.99 2.138 66
0.75 0.093 1.987 2.14 70
0.778 0.095 2.027 2.187 76
0.808 0.097 2.067 2.235 92
0.822 0.097 2.067 2.24 95
0.838 0.098 2.071 2.251 93
0.847 0.097 2.057 2.24 91
0.86 0.097 2.054 2.242 86
0.877 0.098 2.059 2.254 85
0.885 0.097 2.045 2.244 87
0.904 0.098 2.056 2.262 67
0.654 0.067 1.369 1.532 38
0.659 0.066 1.358 1.524 38
0.668 0.066 1.356 1.527 41
0.689 0.068 1.377 1.554 44
0.839 0.081 1.652 1.868 39
0.879 0.084 1.706 1.935 50
0.972 0.091 1.859 2.113 37
1.004 0.093 1.893 2.159 52
0.85 0.078 1.576 1.806 261
0.832 0.076 1.52 1.748 453
0.851 0.077 1.533 1.769 459
0.853 0.076 1.513 1.752 463
-0.975 0.098 1.734 2.003 297
-0.965 0.098 1.741 2.005 255
-0.982 0.101 1.8 2.065 136
-1.013 0.105 1.884 2.153 92
-1.005 0.105 1.896 2.161 84
-0.987 0.105 1.891 2.148 94
-0.986 0.106 1.918 2.171 72
-1.007 0.109 1.989 2.244 48
-1.061 0.117 2.131 2.396 39
-1.05 0.117 2.142 2.4 36
-0.994 0.112 2.057 2.299 64
-0.96 0.11 2.019 2.25 182
-0.947 0.11 2.023 2.249 276
-0.933 0.11 2.025 2.245 210
-0.936 0.111 2.064 2.282 100
-0.977 0.118 2.191 2.414 33
-1.208 0.148 2.758 3.027 37
-1.189 0.147 2.761 3.022 41
-1.193 0.15 2.816 3.074 40
-1.158 0.148 2.78 3.028 35
-0.481 0.063 1.164 1.274 80
-0.368 0.049 0.901 0.987 845
-0.361 0.049 0.9 0.983 395
-0.361 0.05 0.918 1 61
-0.344 0.048 0.888 0.966 61
-0.355 0.05 0.934 1.013 65
-0.346 0.05 0.928 1.005 62
-0.345 0.05 0.941 1.016 57
-0.343 0.051 0.955 1.029 58
-0.328 0.05 0.93 1.001 57
-0.339 0.052 0.981 1.053 224
-0.334 0.052 0.986 1.056 662
-0.33 0.053 0.994 1.062 670
-0.325 0.053 0.997 1.063 670
-0.321 0.053 1.005 1.069 641
-0.315 0.053 1.009 1.071 625
-0.312 0.054 1.018 1.079 608
-0.309 0.054 1.03 1.09 595
-0.303 0.054 1.033 1.091 597
-0.299 0.055 1.043 1.099 582
-0.296 0.055 1.055 1.11 562
-0.29 0.055 1.058 1.111 555
-0.287 0.056 1.07 1.123 545
-0.282 0.056 1.08 1.131 528
-0.278 0.057 1.089 1.138 516
-0.27 0.056 1.084 1.132 249
-0.257 0.055 1.06 1.106 40
-0.248 0.054 1.048 1.092 31
-0.246 0.055 1.066 1.109 26
-0.246 0.057 1.099 1.141 26
-0.26 0.061 1.192 1.235 26
-0.247 0.06 1.166 1.207 31
-0.246 0.061 1.198 1.238 190
-0.24 0.062 1.202 1.241 409
-0.237 0.063 1.222 1.26 424
-0.232 0.063 1.238 1.275 401
-0.228 0.064 1.254 1.29 376
-0.222 0.064 1.264 1.298 297
-0.204 0.061 1.203 1.235 89
-0.192 0.06 1.172 1.203 46
-0.193 0.062 1.223 1.253 27
-0.202 0.068 1.331 1.361 31
-0.224 0.078 1.538 1.57 32
-0.29 0.105 2.084 2.121 48
-0.277 0.104 2.077 2.112 68
-0.266 0.104 2.082 2.115 71
-0.254 0.105 2.089 2.121 65
-0.245 0.106 2.113 2.144 123
-0.235 0.106 2.13 2.159 238
-0.222 0.106 2.122 2.15 245
-0.207 0.105 2.099 2.126 250
-0.194 0.104 2.089 2.115 247
-0.183 0.105 2.102 2.126 251
-0.173 0.106 2.121 2.145 243
-0.16 0.105 2.116 2.138 245
-0.148 0.105 2.116 2.138 132
-0.134 0.104 2.08 2.101 134
-0.083 0.07 1.399 1.417 269
-0.067 0.063 1.259 1.277 599
-0.06 0.063 1.256 1.273 590
-0.053 0.063 1.258 1.275 588
-0.046 0.064 1.266 1.283 595
-0.038 0.063 1.256 1.272 599
-0.031 0.063 1.254 1.27 598
-0.024 0.063 1.253 1.269 588
-0.017 0.063 1.255 1.271 584
-0.01 0.063 1.254 1.27 584
-0.003 0.063 1.257 1.272 586
0.004 0.063 1.249 1.265 597
0.011 0.063 1.252 1.267 603
0.018 0.063 1.251 1.267 609
0.025 0.063 1.256 1.271 617
0.032 0.063 1.249 1.265 628
0.039 0.063 1.246 1.262 638
0.046 0.063 1.243 1.26 641
0.054 0.063 1.248 1.265 655
0.061 0.063 1.25 1.267 644
0.068 0.063 1.243 1.261 644
0.075 0.063 1.244 1.262 644
0.082 0.063 1.244 1.262 642
0.089 0.063 1.241 1.26 645
0.096 0.063 1.247 1.266 636
0.103 0.063 1.245 1.265 640
0.11 0.063 1.242 1.263 644
0.117 0.063 1.241 1.262 643
0.124 0.063 1.238 1.26 656
0.131 0.062 1.234 1.257 663
0.138 0.063 1.235 1.258 666
0.146 0.063 1.24 1.264 682
0.153 0.063 1.241 1.266 690
0.16 0.063 1.237 1.263 700
0.167 0.063 1.238 1.265 707
0.175 0.063 1.24 1.268 694
0.182 0.063 1.24 1.269 684
0.189 0.063 1.24 1.27 664
0.196 0.063 1.236 1.268 655
0.204 0.063 1.238 1.27 655
0.211 0.063 1.238 1.272 651
0.218 0.063 1.237 1.272 648
0.225 0.063 1.232 1.268 654
0.232 0.063 1.232 1.269 655
0.24 0.063 1.233 1.272 658
0.246 0.063 1.23 1.27 665
0.253 0.063 1.228 1.27 670
0.262 0.063 1.233 1.276 674
0.269 0.063 1.231 1.276 685
0.275 0.063 1.225 1.271 699
0.282 0.063 1.225 1.272 698
0.29 0.063 1.225 1.275 693
0.298 0.063 1.228 1.279 697
0.304 0.063 1.22 1.273 700
0.312 0.063 1.224 1.279 703
0.319 0.063 1.221 1.277 698
0.327 0.063 1.22 1.279 701
0.335 0.064 1.221 1.282 698
0.341 0.063 1.218 1.281 684
0.347 0.063 1.212 1.277 657
0.357 0.064 1.219 1.285 628
0.365 0.064 1.219 1.288 588
0.373 0.064 1.221 1.292 555
0.379 0.064 1.213 1.287 536
0.411 0.068 1.291 1.37 254
0.706 0.106 2.015 2.152 45
0.739 0.109 2.07 2.215 58
0.743 0.107 2.042 2.19 50
0.755 0.107 2.038 2.19 50
0.784 0.11 2.078 2.238 57
0.814 0.112 2.118 2.286 65
0.843 0.114 2.158 2.333 77
0.838 0.112 2.106 2.283 75
0.859 0.113 2.122 2.306 83
0.882 0.114 2.144 2.335 73
0.888 0.113 2.121 2.316 67
0.914 0.115 2.147 2.35 70
0.922 0.114 2.13 2.337 63
0.933 0.114 2.12 2.333 52
0.929 0.112 2.077 2.291 36
0.94 0.112 2.068 2.289 37
0.964 0.113 2.086 2.314 32
0.881 0.102 1.876 2.088 35
0.609 0.07 1.274 1.428 40
0.661 0.075 1.363 1.53 52
0.657 0.074 1.333 1.502 47
0.763 0.084 1.526 1.722 45
1.068 0.113 2.044 2.323 37
1.065 0.112 2.008 2.289 38
0.84 0.087 1.558 1.785 294
0.832 0.086 1.52 1.748 458
0.847 0.086 1.524 1.759 466
0.856 0.086 1.52 1.76 480
-0.972 0.108 1.728 1.997 298
-0.961 0.108 1.733 1.996 249
-1.019 0.116 1.866 2.141 114
-1.161 0.134 2.161 2.468 67
-1.144 0.134 2.162 2.462 55
-1.157 0.137 2.22 2.519 54
-1.14 0.136 2.22 2.511 63
-1.144 0.139 2.262 2.55 67
-1.14 0.14 2.29 2.574 70
-1.112 0.138 2.268 2.541 74
-1.029 0.13 2.131 2.382 92
-0.963 0.123 2.024 2.257 217
-0.946 0.122 2.02 2.246 419
-0.934 0.122 2.027 2.247 280
-0.938 0.125 2.067 2.286 114
-1.009 0.136 2.263 2.494 54
-0.985 0.134 2.245 2.467 64
-0.963 0.133 2.232 2.447 59
-0.969 0.136 2.284 2.497 77
-0.928 0.132 2.223 2.425 66
-0.404 0.059 0.976 1.07 213
-0.368 0.055 0.901 0.987 898
-0.367 0.055 0.915 1 251
-0.351 0.054 0.891 0.971 66
-0.356 0.055 0.919 1 62
-0.349 0.055 0.919 0.997 59
-0.339 0.054 0.908 0.984 57
-0.35 0.057 0.956 1.032 56
-0.338 0.056 0.939 1.012 57
-0.34 0.057 0.966 1.038 61
-0.339 0.058 0.979 1.051 327
-0.335 0.058 0.987 1.057 686
-0.33 0.059 0.993 1.061 670
-0.325 0.059 0.997 1.064 660
-0.322 0.059 1.007 1.072 649
-0.317 0.06 1.015 1.078 628
-0.313 0.06 1.024 1.086 610
-0.308 0.06 1.029 1.089 596
-0.304 0.061 1.035 1.094 587
-0.3 0.061 1.045 1.102 578
-0.295 0.061 1.052 1.108 558
-0.292 0.062 1.065 1.119 546
-0.289 0.063 1.079 1.132 533
-0.283 0.063 1.084 1.135 519
-0.277 0.063 1.087 1.137 516
-0.273 0.063 1.097 1.146 367
-0.254 0.061 1.047 1.093 60
-0.247 0.06 1.041 1.085 31
-0.241 0.06 1.046 1.089 28
-0.252 0.066 1.154 1.197 28
-0.263 0.071 1.243 1.286 26
-0.248 0.069 1.205 1.246 79
-0.242 0.069 1.211 1.25 353
-0.236 0.069 1.218 1.257 413
-0.232 0.07 1.235 1.273 391
-0.228 0.071 1.254 1.29 360
-0.222 0.072 1.263 1.298 195
-0.196 0.065 1.15 1.182 59
-0.189 0.066 1.153 1.184 37
-0.193 0.069 1.222 1.252 26
-0.191 0.071 1.253 1.283 28
-0.242 0.093 1.661 1.695 28
-0.293 0.118 2.104 2.141 46
-0.281 0.118 2.106 2.141 50
-0.266 0.116 2.083 2.117 54
-0.259 0.119 2.127 2.16 49
-0.247 0.119 2.127 2.158 117
-0.235 0.119 2.136 2.166 228
-0.223 0.119 2.136 2.165 233
-0.209 0.118 2.113 2.14 233
-0.197 0.118 2.118 2.144 238
-0.186 0.118 2.129 2.154 244
-0.174 0.119 2.139 2.163 237
-0.162 0.119 2.142 2.165 243
-0.15 0.119 2.143 2.165 123
-0.137 0.118 2.133 2.155 110
-0.084 0.08 1.423 1.441 240
-0.067 0.07 1.255 1.273 571
-0.06 0.071 1.259 1.276 575
-0.053 0.071 1.26 1.277 571
-0.046 0.071 1.257 1.274 579
-0.038 0.071 1.259 1.275 583
-0.031 0.07 1.253 1.27 584
-0.024 0.07 1.255 1.271 568
-0.017 0.07 1.255 1.271 557
-0.01 0.07 1.25 1.266 575
-0.003 0.07 1.257 1.273 574
0.004 0.07 1.257 1.273 573
0.011 0.07 1.248 1.264 582
0.018 0.07 1.251 1.267 590
0.025 0.07 1.249 1.265 592
0.032 0.07 1.249 1.266 610
0.039 0.07 1.249 1.266 618
0.046 0.07 1.242 1.259 630
0.054 0.07 1.251 1.268 635
0.061 0.07 1.255 1.272 627
0.068 0.07 1.246 1.264 620
0.075 0.07 1.247 1.266 603
0.082 0.07 1.245 1.264 596
0.089 0.07 1.246 1.265 595
0.096 0.07 1.241 1.261 588
0.103 0.07 1.243 1.264 591
0.11 0.07 1.243 1.264 585
0.117 0.07 1.241 1.263 589
0.124 0.07 1.24 1.263 603
0.132 0.07 1.241 1.264 615
0.139 0.07 1.24 1.263 634
0.146 0.07 1.239 1.263 646
0.153 0.07 1.239 1.265 651
0.16 0.07 1.238 1.264 667
0.168 0.07 1.239 1.267 667
0.175 0.07 1.24 1.268 659
0.182 0.07 1.236 1.265 643
0.189 0.07 1.236 1.266 624
0.197 0.07 1.242 1.273 621
0.204 0.07 1.24 1.273 612
0.21 0.07 1.234 1.268 616
0.218 0.07 1.234 1.27 613
0.225 0.07 1.235 1.271 625
0.232 0.07 1.232 1.27 630
0.24 0.071 1.236 1.276 641
0.247 0.07 1.231 1.271 643
0.254 0.07 1.229 1.271 655
0.261 0.07 1.227 1.271 664
0.269 0.07 1.23 1.275 675
0.275 0.07 1.227 1.273 683
0.283 0.07 1.226 1.274 677
0.29 0.07 1.225 1.275 677
0.297 0.07 1.224 1.276 679
0.306 0.071 1.229 1.282 681
0.312 0.071 1.223 1.279 673
0.32 0.071 1.222 1.279 668
0.327 0.071 1.22 1.28 665
0.335 0.071 1.221 1.283 671
0.343 0.071 1.222 1.285 657
0.348 0.071 1.215 1.28 632
0.356 0.071 1.215 1.283 603
0.364 0.071 1.215 1.284 555
0.372 0.071 1.216 1.288 538
0.38 0.071 1.218 1.292 512
0.413 0.076 1.295 1.376 246
0.691 0.124 2.131 2.258 44
0.738 0.129 2.23 2.366 58
0.761 0.131 2.257 2.399 65
0.765 0.13 2.225 2.37 75
0.754 0.126 2.151 2.297 74
0.751 0.123 2.104 2.251 83
0.777 0.125 2.135 2.289 86
0.812 0.129 2.192 2.355 94
0.832 0.13 2.206 2.375 95
0.867 0.133 2.257 2.435 95
0.885 0.134 2.263 2.447 95
0.858 0.128 2.156 2.338 50
0.846 0.124 2.089 2.271 52
0.88 0.127 2.136 2.327 43
0.883 0.126 2.108 2.302 50
0.892 0.125 2.094 2.294 49
0.911 0.126 2.103 2.309 46
0.874 0.119 1.986 2.187 44
0.915 0.123 2.044 2.256 37
0.923 0.123 2.03 2.247 34
0.9 0.118 1.947 2.162 34
0.654 0.084 1.368 1.532 44
0.661 0.084 1.361 1.529 74
0.66 0.082 1.337 1.507 70
0.783 0.096 1.566 1.767 48
1.026 0.124 2.022 2.285 42
1.104 0.132 2.144 2.429 40
1.093 0.129 2.091 2.376 41
1.104 0.129 2.081 2.372 42
0.84 0.097 1.557 1.785 333
0.834 0.096 1.523 1.752 466
0.85 0.096 1.53 1.766 480
0.859 0.096 1.524 1.765 495
-0.979 0.121 1.74 2.012 368
-0.967 0.12 1.745 2.01 236
-1.007 0.127 1.844 2.117 107
-1.157 0.147 2.154 2.461 60
-1.15 0.148 2.172 2.473 57
-1.129 0.147 2.165 2.458 65
-1.09 0.144 2.121 2.401 65
-1.091 0.146 2.156 2.433 73
-1.096 0.148 2.199 2.474 65
-1.053 0.144 2.145 2.405 73
-1.009 0.14 2.088 2.336 99
-0.969 0.136 2.036 2.271 232
-0.951 0.136 2.03 2.258 331
-0.934 0.135 2.027 2.248 250
-0.944 0.138 2.081 2.301 134
-0.986 0.146 2.21 2.437 92
-0.974 0.147 2.219 2.44 95
-0.977 0.149 2.264 2.483 97
-0.967 0.15 2.277 2.491 88
-0.953 0.15 2.284 2.492 73
-0.403 0.065 0.972 1.067 313
-0.367 0.06 0.901 0.987 886
-0.365 0.061 0.911 0.996 136
-0.372 0.063 0.944 1.029 62
-0.362 0.062 0.936 1.019 65
-0.356 0.062 0.938 1.018 59
-0.347 0.061 0.929 1.006 57
-0.33 0.059 0.9 0.973 55
-0.332 0.061 0.923 0.996 59
-0.348 0.065 0.986 1.061 69
-0.34 0.064 0.983 1.055 445
-0.333 0.064 0.982 1.051 688
-0.33 0.065 0.993 1.062 680
-0.326 0.065 1 1.067 655
-0.323 0.066 1.01 1.076 651
-0.318 0.066 1.016 1.079 617
-0.313 0.066 1.022 1.085 598
-0.308 0.066 1.026 1.087 592
-0.304 0.067 1.036 1.095 586
-0.3 0.067 1.045 1.103 578
-0.294 0.067 1.049 1.105 567
-0.291 0.068 1.061 1.116 542
-0.289 0.069 1.079 1.132 528
-0.283 0.069 1.081 1.133 513
-0.278 0.07 1.091 1.141 509
-0.273 0.07 1.095 1.144 443
-0.266 0.07 1.095 1.143 120
-0.243 0.065 1.026 1.069 32
-0.238 0.066 1.032 1.075 26
-0.266 0.075 1.188 1.233 30
-0.258 0.075 1.183 1.227 26
-0.254 0.076 1.2 1.242 26
-0.232 0.071 1.124 1.163 37
-0.242 0.076 1.21 1.25 235
-0.236 0.077 1.22 1.259 397
-0.233 0.078 1.242 1.279 384
-0.228 0.079 1.256 1.293 299
-0.214 0.076 1.214 1.249 94
-0.196 0.072 1.153 1.186 48
-0.193 0.074 1.175 1.207 28
-0.199 0.079 1.257 1.289 25
-0.191 0.078 1.253 1.284 31
-0.279 0.129 2.09 2.127 24
-0.273 0.132 2.141 2.176 23
-0.259 0.131 2.125 2.158 25
-0.251 0.133 2.167 2.2 47
-0.234 0.131 2.126 2.156 89
-0.223 0.131 2.134 2.163 93
-0.209 0.13 2.12 2.148 81
-0.197 0.13 2.122 2.149 140
-0.188 0.132 2.16 2.186 91
-0.197 0.148 2.417 2.443 56
-0.204 0.165 2.698 2.725 55
-0.228 0.199 3.27 3.298 46
-0.212 0.202 3.309 3.336 39
-0.078 0.082 1.324 1.343 162
-0.067 0.078 1.26 1.278 558
-0.06 0.078 1.258 1.276 570
-0.053 0.078 1.254 1.271 571
-0.046 0.078 1.258 1.275 576
-0.038 0.078 1.256 1.273 578
-0.031 0.078 1.262 1.279 569
-0.024 0.078 1.254 1.271 560
-0.017 0.077 1.25 1.267 550
-0.01 0.078 1.258 1.274 561
-0.003 0.078 1.255 1.271 559
0.004 0.078 1.253 1.27 561
0.011 0.077 1.248 1.264 570
0.018 0.077 1.253 1.269 579
0.025 0.077 1.253 1.269 585
0.032 0.077 1.253 1.269 598
0.039 0.077 1.25 1.267 604
0.047 0.078 1.253 1.27 619
0.054 0.077 1.252 1.27 617
0.061 0.077 1.251 1.269 600
0.068 0.077 1.246 1.265 588
0.075 0.077 1.242 1.26 580
0.082 0.077 1.249 1.268 577
0.089 0.077 1.248 1.268 563
0.096 0.077 1.243 1.264 558
0.104 0.077 1.246 1.267 556
0.111 0.077 1.246 1.267 554
0.117 0.077 1.24 1.262 560
0.125 0.077 1.243 1.265 581
0.132 0.077 1.239 1.262 590
0.139 0.077 1.241 1.266 601
0.146 0.077 1.239 1.264 616
0.154 0.077 1.244 1.27 628
0.16 0.077 1.237 1.263 636
0.167 0.077 1.236 1.263 640
0.174 0.077 1.236 1.265 634
0.182 0.077 1.239 1.269 618
0.188 0.077 1.232 1.263 603
0.196 0.077 1.237 1.269 589
0.204 0.078 1.239 1.272 587
0.211 0.077 1.234 1.269 584
0.218 0.078 1.237 1.272 587
0.225 0.077 1.234 1.271 597
0.233 0.078 1.236 1.275 603
0.239 0.077 1.229 1.268 624
0.247 0.077 1.23 1.271 634
0.254 0.078 1.231 1.273 648
0.261 0.077 1.227 1.271 665
0.268 0.077 1.226 1.272 663
0.277 0.078 1.234 1.281 659
0.283 0.078 1.228 1.277 663
0.29 0.078 1.223 1.274 663
0.298 0.078 1.227 1.279 661
0.305 0.078 1.223 1.277 660
0.313 0.078 1.225 1.281 658
0.318 0.077 1.215 1.273 653
0.327 0.078 1.221 1.281 652
0.333 0.078 1.216 1.277 654
0.341 0.078 1.217 1.28 641
0.35 0.078 1.221 1.287 620
0.357 0.078 1.219 1.287 582
0.364 0.078 1.217 1.287 549
0.372 0.078 1.217 1.289 533
0.381 0.079 1.22 1.295 507
0.422 0.085 1.325 1.407 250
0.726 0.143 2.237 2.37 110
0.757 0.146 2.288 2.428 120
0.768 0.146 2.278 2.422 124
0.786 0.147 2.286 2.436 124
0.8 0.147 2.282 2.436 123
0.813 0.147 2.277 2.436 139
0.838 0.149 2.303 2.469 156
0.867 0.151 2.34 2.514 171
0.892 0.153 2.364 2.545 183
0.907 0.153 2.36 2.547 185
0.922 0.154 2.358 2.551 146
0.902 0.148 2.266 2.457 32
0.664 0.096 1.433 1.595 35
0.686 0.098 1.459 1.629 41
0.68 0.096 1.423 1.594 45
0.648 0.09 1.333 1.498 77
0.662 0.091 1.341 1.512 73
0.797 0.108 1.593 1.798 49
1.191 0.157 2.314 2.62 38
1.081 0.139 2.037 2.324 38
0.829 0.106 1.536 1.762 362
0.834 0.105 1.522 1.752 482
0.843 0.105 1.517 1.752 493
0.852 0.105 1.511 1.751 499
-0.968 0.13 1.719 1.988 757
-0.966 0.132 1.742 2.008 260
-0.991 0.136 1.814 2.083 114
-1.073 0.149 1.995 2.283 77
-1.054 0.149 1.989 2.268 85
-1.042 0.149 1.995 2.268 96
-1.032 0.149 2.007 2.273 107
-1.026 0.15 2.025 2.287 125
-1.023 0.152 2.052 2.31 128
-1.01 0.151 2.056 2.307 140
-0.987 0.15 2.042 2.285 153
-0.962 0.148 2.021 2.256 256
-0.95 0.148 2.026 2.255 286
-0.936 0.148 2.03 2.253 242
-0.939 0.15 2.069 2.289 143
-0.987 0.16 2.211 2.439 112
-0.986 0.162 2.247 2.471 106
-0.978 0.163 2.264 2.484 104
-0.978 0.166 2.303 2.519 90
-0.943 0.162 2.258 2.465 66
-0.389 0.068 0.936 1.029 489
-0.367 0.066 0.899 0.986 736
-0.373 0.068 0.93 1.017 73
-0.36 0.066 0.915 0.998 60
-0.343 0.064 0.884 0.963 65
-0.345 0.066 0.906 0.985 59
-0.343 0.066 0.92 0.997 58
-0.353 0.069 0.965 1.043 56
-0.341 0.068 0.949 1.024 56
-0.341 0.069 0.967 1.04 93
-0.339 0.07 0.98 1.052 535
-0.336 0.071 0.989 1.06 684
-0.332 0.071 0.999 1.068 665
-0.328 0.071 1.006 1.073 656
-0.322 0.072 1.008 1.074 632
-0.319 0.072 1.019 1.083 622
-0.312 0.072 1.019 1.082 601
-0.308 0.072 1.028 1.088 587
-0.305 0.073 1.038 1.097 584
-0.3 0.073 1.046 1.104 568
-0.298 0.074 1.061 1.117 555
-0.292 0.075 1.066 1.121 541
-0.288 0.075 1.076 1.129 527
-0.284 0.076 1.085 1.138 511
-0.278 0.076 1.09 1.141 501
-0.274 0.077 1.101 1.151 478
-0.266 0.076 1.094 1.142 223
-0.246 0.072 1.039 1.083 38
-0.252 0.076 1.095 1.139 29
-0.233 0.072 1.035 1.077 28
-0.272 0.086 1.247 1.293 25
-0.261 0.085 1.231 1.274 25
-0.242 0.081 1.174 1.215 26
-0.246 0.085 1.233 1.274 104
-0.238 0.084 1.23 1.269 356
-0.234 0.086 1.248 1.286 358
-0.226 0.085 1.242 1.279 172
-0.199 0.077 1.128 1.161 64
-0.2 0.08 1.173 1.206 37
-0.213 0.089 1.297 1.331 25
-0.196 0.085 1.24 1.271 28
-0.196 0.088 1.287 1.319 30
-0.469 0.236 3.524 3.577 29
-0.444 0.234 3.491 3.54 37
-0.429 0.237 3.535 3.582 32
-0.388 0.225 3.358 3.401 26
-0.198 0.143 2.127 2.155 47
-0.188 0.145 2.156 2.183 70
-0.178 0.146 2.184 2.21 81
-0.18 0.159 2.378 2.404 67
-0.179 0.171 2.555 2.581 51
-0.172 0.179 2.675 2.7 43
-0.081 0.093 1.379 1.398 156
-0.067 0.085 1.26 1.279 567
-0.06 0.085 1.255 1.273 588
-0.053 0.085 1.261 1.279 586
-0.046 0.085 1.257 1.275 586
-0.039 0.085 1.258 1.276 576
-0.031 0.085 1.256 1.273 574
-0.024 0.085 1.253 1.27 564
-0.017 0.085 1.255 1.272 559
-0.01 0.085 1.254 1.27 561
-0.003 0.085 1.256 1.273 568
0.004 0.085 1.256 1.273 567
0.011 0.085 1.252 1.269 572
0.018 0.085 1.251 1.268 578
0.025 0.085 1.255 1.272 584
0.032 0.085 1.255 1.272 589
0.039 0.085 1.251 1.268 597
0.046 0.084 1.248 1.266 603
0.054 0.085 1.253 1.271 597
0.061 0.085 1.256 1.274 584
0.068 0.084 1.248 1.267 578
0.075 0.084 1.244 1.263 565
0.082 0.084 1.243 1.262 559
0.089 0.085 1.248 1.268 545
0.096 0.084 1.241 1.262 541
0.103 0.084 1.245 1.267 542
0.11 0.084 1.243 1.265 548
0.117 0.084 1.24 1.263 553
0.126 0.085 1.251 1.274 569
0.133 0.085 1.249 1.273 580
0.139 0.084 1.243 1.268 583
0.147 0.085 1.243 1.269 578
0.153 0.084 1.241 1.268 596
0.16 0.084 1.238 1.265 617
0.168 0.085 1.244 1.273 614
0.175 0.085 1.24 1.269 607
0.181 0.084 1.234 1.265 597
0.188 0.084 1.228 1.26 589
0.196 0.084 1.235 1.267 572
0.203 0.084 1.234 1.268 559
0.21 0.084 1.233 1.268 549
0.218 0.085 1.237 1.273 561
0.225 0.085 1.233 1.27 564
0.233 0.085 1.237 1.275 561
0.239 0.085 1.231 1.271 583
0.246 0.084 1.227 1.269 608
0.254 0.085 1.231 1.274 629
0.261 0.085 1.229 1.274 632
0.268 0.085 1.226 1.272 623
0.276 0.085 1.227 1.275 616
0.284 0.085 1.23 1.279 620
0.292 0.085 1.232 1.283 628
0.297 0.085 1.223 1.276 636
0.307 0.085 1.23 1.284 647
0.313 0.085 1.226 1.282 654
0.322 0.086 1.229 1.287 653
0.328 0.085 1.225 1.285 649
0.334 0.085 1.216 1.278 656
0.343 0.085 1.221 1.285 638
0.35 0.085 1.22 1.286 604
0.357 0.085 1.217 1.286 573
0.366 0.086 1.223 1.294 545
0.376 0.086 1.227 1.301 521
0.384 0.087 1.228 1.304 514
0.435 0.096 1.364 1.449 258
0.746 0.161 2.298 2.436 146
0.773 0.164 2.337 2.481 161
0.798 0.166 2.366 2.517 173
0.813 0.166 2.362 2.518 182
0.831 0.167 2.37 2.531 192
0.85 0.168 2.379 2.545 195
0.864 0.168 2.375 2.547 197
0.883 0.168 2.382 2.56 203
0.896 0.168 2.373 2.556 208
0.911 0.168 2.372 2.56 203
0.926 0.169 2.368 2.562 154
1.799 0.312 4.375 4.754 33
1.854 0.312 4.361 4.763 36
1.879 0.312 4.346 4.759 39
1.886 0.309 4.292 4.712 36
1.919 0.31 4.297 4.729 35
1.891 0.301 4.166 4.599 40
0.651 0.103 1.406 1.566 33
0.694 0.109 1.475 1.647 41
0.67 0.104 1.402 1.571 43
0.662 0.101 1.363 1.532 75
0.683 0.103 1.384 1.56 69
0.78 0.116 1.559 1.76 52
1.088 0.153 2.049 2.338 54
0.826 0.115 1.53 1.756 411
0.836 0.115 1.526 1.757 502
0.841 0.115 1.513 1.748 504
0.853 0.115 1.511 1.752 510
-0.974 0.142 1.73 2.002 511
-0.968 0.143 1.744 2.011 267
-0.996 0.149 1.821 2.093 162
-1.033 0.156 1.919 2.197 165
-1.028 0.157 1.938 2.211 176
-1.026 0.159 1.964 2.233 181
-1.025 0.161 1.991 2.257 186
-1.012 0.161 1.997 2.256 186
-1.003 0.161 2.009 2.264 187
-1.004 0.163 2.043 2.294 184
-0.996 0.164 2.059 2.305 182
-0.968 0.162 2.033 2.27 258
-0.949 0.161 2.024 2.253 283
-0.937 0.161 2.031 2.254 245
-0.941 0.164 2.074 2.295 143
-0.976 0.172 2.186 2.413 110
-0.979 0.175 2.23 2.454 108
-0.976 0.177 2.259 2.479 104
-0.981 0.18 2.31 2.529 90
-0.865 0.162 2.07 2.262 59
-0.379 0.072 0.913 1.004 697
-0.369 0.071 0.902 0.99 541
-0.364 0.072 0.906 0.992 60
-0.363 0.072 0.92 1.004 62
-0.349 0.071 0.901 0.982 62
-0.354 0.073 0.93 1.011 59
-0.351 0.073 0.939 1.017 52
-0.33 0.07 0.9 0.974 56
-0.344 0.074 0.956 1.031 53
-0.345 0.076 0.977 1.052 150
-0.342 0.077 0.987 1.06 605
-0.336 0.077 0.991 1.062 684
-0.334 0.078 1.004 1.074 658
-0.327 0.077 1.001 1.069 652
-0.324 0.078 1.014 1.08 638
-0.318 0.078 1.016 1.08 619
-0.314 0.078 1.023 1.086 616
-0.311 0.079 1.035 1.097 592
-0.306 0.08 1.042 1.102 577
-0.301 0.08 1.047 1.105 567
-0.298 0.081 1.061 1.119 544
-0.293 0.081 1.066 1.122 540
-0.288 0.082 1.074 1.129 524
-0.283 0.082 1.08 1.133 505
-0.278 0.082 1.088 1.139 497
-0.275 0.083 1.102 1.152 489
-0.269 0.083 1.107 1.156 337
-0.257 0.082 1.084 1.13 55
-0.238 0.078 1.029 1.073 29
-0.244 0.084 1.119 1.161 26
-0.241 0.088 1.17 1.211 25
-0.24 0.09 1.201 1.242 40
-0.241 0.093 1.242 1.282 211
-0.232 0.092 1.234 1.273 233
-0.21 0.086 1.153 1.189 87
-0.199 0.084 1.127 1.161 50
-0.209 0.091 1.229 1.263 28
-0.2 0.091 1.222 1.255 27
-0.224 0.105 1.42 1.455 27
-0.196 0.096 1.291 1.323 27
-0.476 0.261 3.581 3.636 32
-0.454 0.26 3.571 3.623 52
-0.438 0.262 3.605 3.654 55
-0.414 0.26 3.579 3.626 54
-0.395 0.261 3.598 3.643 50
-0.371 0.259 3.564 3.606 40
-0.356 0.263 3.623 3.663 29
-0.327 0.256 3.537 3.576 36
-0.305 0.255 3.514 3.551 46
-0.261 0.233 3.219 3.252 23
-0.173 0.166 2.279 2.306 34
-0.149 0.154 2.121 2.146 55
-0.136 0.154 2.116 2.14 56
-0.084 0.104 1.415 1.435 154
-0.068 0.093 1.261 1.28 543
-0.06 0.092 1.26 1.279 571
-0.053 0.092 1.259 1.277 571
-0.046 0.092 1.258 1.276 573
-0.038 0.092 1.255 1.273 577
-0.031 0.092 1.254 1.272 566
-0.024 0.092 1.255 1.273 554
-0.017 0.092 1.255 1.272 541
-0.01 0.092 1.257 1.274 537
-0.003 0.092 1.253 1.27 539
0.004 0.092 1.254 1.271 521
0.011 0.092 1.254 1.272 519
0.018 0.092 1.253 1.27 519
0.025 0.092 1.251 1.269 520
0.032 0.092 1.252 1.27 528
0.04 0.092 1.257 1.275 532
0.047 0.092 1.257 1.275 531
0.054 0.092 1.25 1.269 525
0.061 0.092 1.252 1.27 508
0.068 0.092 1.255 1.274 496
0.075 0.092 1.255 1.274 485
0.082 0.092 1.252 1.272 471
0.09 0.092 1.252 1.273 460
0.097 0.092 1.252 1.273 457
0.104 0.092 1.251 1.273 457
0.11 0.091 1.241 1.263 467
0.118 0.092 1.251 1.274 462
0.126 0.092 1.251 1.275 462
0.133 0.092 1.255 1.279 471
0.14 0.092 1.252 1.278 463
0.147 0.092 1.248 1.274 466
0.155 0.093 1.255 1.282 471
0.162 0.092 1.248 1.276 493
0.17 0.093 1.253 1.282 480
0.176 0.092 1.25 1.28 453
0.185 0.093 1.255 1.286 435
0.192 0.093 1.254 1.286 434
0.199 0.093 1.251 1.284 412
0.207 0.093 1.254 1.288 392
0.215 0.094 1.261 1.297 378
0.222 0.093 1.255 1.292 374
0.23 0.094 1.259 1.297 363
0.237 0.094 1.256 1.296 347
0.246 0.094 1.262 1.304 351
0.253 0.094 1.262 1.305 357
0.26 0.094 1.258 1.303 354
0.267 0.094 1.256 1.302 349
0.276 0.094 1.262 1.31 342
0.288 0.096 1.28 1.329 349
0.307 0.1 1.33 1.383 374
0.313 0.099 1.323 1.377 373
0.318 0.098 1.308 1.364 393
0.331 0.1 1.327 1.385 439
0.341 0.101 1.336 1.396 470
0.351 0.101 1.341 1.404 451
0.355 0.1 1.327 1.391 408
0.361 0.1 1.316 1.382 349
0.378 0.102 1.349 1.419 300
0.392 0.104 1.368 1.441 272
0.401 0.104 1.37 1.445 260
0.437 0.111 1.459 1.541 273
0.459 0.114 1.502 1.589 282
0.47 0.115 1.505 1.595 259
0.565 0.135 1.774 1.881 157
0.765 0.179 2.357 2.498 184
0.788 0.181 2.38 2.527 206
0.803 0.181 2.378 2.53 207
0.821 0.182 2.386 2.544 207
0.837 0.182 2.385 2.548 204
0.853 0.183 2.387 2.555 206
0.869 0.183 2.387 2.561 204
0.882 0.183 2.378 2.556 206
0.896 0.183 2.373 2.557 205
0.914 0.183 2.379 2.569 202
0.928 0.183 2.373 2.568 150
1.788 0.331 4.274 4.659 32
1.791 0.327 4.21 4.6 34
1.838 0.331 4.249 4.655 34
1.859 0.33 4.228 4.644 43
1.854 0.325 4.148 4.569 47
1.861 0.322 4.098 4.525 44
0.622 0.104 1.299 1.458 44
0.664 0.11 1.367 1.537 74
0.71 0.116 1.439 1.622 67
0.781 0.126 1.56 1.763 59
0.98 0.15 1.843 2.106 88
0.827 0.125 1.532 1.758 460
0.827 0.124 1.509 1.739 525
0.841 0.125 1.513 1.749 528
0.855 0.125 1.515 1.758 530
-0.977 0.154 1.734 2.008 359
-0.964 0.154 1.736 2.003 268
-0.992 0.16 1.814 2.085 171
-1.028 0.168 1.908 2.186 187
-1.022 0.169 1.926 2.198 185
-1.02 0.17 1.951 2.22 189
-1.018 0.172 1.977 2.242 192
-1.018 0.174 2.008 2.27 196
-1.007 0.175 2.018 2.274 198
-1.003 0.176 2.041 2.293 195
-0.99 0.176 2.045 2.291 188
-0.966 0.174 2.027 2.264 260
-0.951 0.174 2.027 2.257 283
-0.939 0.174 2.035 2.26 248
-0.943 0.177 2.075 2.298 147
-0.98 0.186 2.193 2.422 111
-0.98 0.189 2.23 2.456 109
-0.973 0.19 2.251 2.472 100
-0.97 0.192 2.283 2.5 83
-0.601 0.121 1.431 1.569 77
-0.376 0.077 0.904 0.994 854
-0.367 0.077 0.899 0.986 366
-0.383 0.081 0.955 1.045 60
-0.354 0.076 0.898 0.981 63
-0.36 0.079 0.93 1.013 62
-0.352 0.078 0.925 1.006 57
-0.357 0.081 0.956 1.036 53
-0.345 0.079 0.941 1.018 56
-0.339 0.079 0.943 1.018 55
-0.344 0.082 0.973 1.048 219
-0.34 0.082 0.981 1.055 657
-0.338 0.083 0.995 1.067 672
-0.331 0.083 0.994 1.064 670
-0.329 0.084 1.008 1.076 654
-0.323 0.084 1.012 1.078 637
-0.318 0.084 1.016 1.081 615
-0.314 0.085 1.025 1.088 603
-0.311 0.085 1.036 1.098 582
-0.306 0.086 1.043 1.103 569
-0.301 0.086 1.049 1.107 564
-0.298 0.087 1.059 1.117 549
-0.294 0.088 1.071 1.128 526
-0.289 0.088 1.078 1.132 517
-0.283 0.088 1.08 1.133 500
-0.28 0.089 1.094 1.146 492
-0.276 0.09 1.105 1.156 482
-0.27 0.09 1.109 1.158 420
-0.264 0.091 1.114 1.162 105
-0.235 0.083 1.016 1.06 31
-0.25 0.09 1.114 1.159 26
-0.221 0.082 1.008 1.049 26
-0.244 0.093 1.15 1.193 26
-0.239 0.094 1.161 1.202 26
-0.223 0.09 1.112 1.151 26
-0.233 0.097 1.201 1.241 53
-0.217 0.093 1.155 1.193 100
-0.202 0.089 1.11 1.146 70
-0.206 0.094 1.167 1.202 33
-0.222 0.105 1.309 1.345 27
-0.203 0.099 1.236 1.27 25
-0.202 0.102 1.276 1.309 30
-0.197 0.103 1.295 1.327 25
-0.461 0.284 3.624 3.678 40
-0.438 0.283 3.609 3.66 45
-0.416 0.282 3.6 3.649 59
-0.396 0.282 3.604 3.65 61
-0.377 0.283 3.62 3.664 55
-0.35 0.279 3.562 3.604 31
-0.337 0.285 3.638 3.679 62
-0.314 0.283 3.621 3.66 70
-0.295 0.284 3.631 3.667 65
-0.275 0.284 3.641 3.676 51
-0.248 0.278 3.561 3.594 36
-0.227 0.276 3.542 3.574 31
-0.079 0.106 1.34 1.361 71
-0.068 0.101 1.277 1.297 174
-0.061 0.101 1.278 1.297 188
-0.054 0.101 1.282 1.301 188
-0.049 0.106 1.345 1.364 190
-0.039 0.101 1.28 1.298 171
-0.032 0.1 1.266 1.284 157
-0.024 0.101 1.273 1.291 139
-0.017 0.102 1.287 1.305 173
-0.01 0.101 1.283 1.301 145
-0.003 0.106 1.341 1.359 160
0.004 0.108 1.364 1.382 167
0.012 0.108 1.37 1.388 159
0.02 0.11 1.392 1.411 160
0.028 0.111 1.406 1.425 157
0.037 0.112 1.421 1.44 157
0.044 0.11 1.393 1.412 151
0.053 0.111 1.406 1.426 153
0.061 0.112 1.416 1.436 147
0.068 0.111 1.401 1.421 142
0.078 0.113 1.433 1.454 136
0.089 0.116 1.469 1.491 130
0.097 0.116 1.464 1.486 126
0.105 0.116 1.464 1.486 125
0.114 0.116 1.472 1.495 123
0.123 0.117 1.481 1.505 122
0.134 0.119 1.507 1.532 119
0.143 0.119 1.509 1.535 119
0.152 0.119 1.507 1.533 117
0.161 0.12 1.512 1.539 116
0.173 0.122 1.541 1.569 114
0.18 0.121 1.522 1.552 116
0.193 0.124 1.558 1.589 112
0.199 0.122 1.532 1.564 112
0.21 0.123 1.552 1.585 110
0.219 0.123 1.548 1.583 109
0.236 0.128 1.606 1.643 105
0.246 0.128 1.606 1.643 102
0.257 0.129 1.617 1.657 99
0.265 0.128 1.61 1.65 102
0.278 0.13 1.63 1.672 99
0.293 0.132 1.661 1.706 99
0.295 0.129 1.618 1.664 97
0.309 0.131 1.637 1.686 96
0.32 0.132 1.648 1.698 96
0.329 0.131 1.639 1.691 96
0.344 0.133 1.665 1.719 96
0.35 0.132 1.647 1.703 98
0.369 0.135 1.686 1.746 99
0.379 0.135 1.686 1.747 104
0.404 0.141 1.75 1.816 144
0.427 0.145 1.803 1.873 192
0.396 0.132 1.63 1.696 250
0.397 0.129 1.595 1.662 375
0.402 0.127 1.574 1.644 419
0.412 0.128 1.576 1.648 396
0.423 0.128 1.58 1.655 341
0.447 0.132 1.63 1.709 209
0.575 0.166 2.052 2.152 139
0.604 0.171 2.11 2.215 162
0.578 0.161 1.975 2.078 154
0.578 0.158 1.933 2.038 237
0.589 0.157 1.929 2.037 269
0.602 0.158 1.929 2.04 234
0.651 0.167 2.046 2.168 152
0.768 0.194 2.365 2.508 196
0.789 0.195 2.384 2.533 209
0.806 0.196 2.388 2.542 205
0.824 0.197 2.393 2.552 201
0.839 0.197 2.391 2.555 205
0.851 0.197 2.381 2.55 208
0.866 0.197 2.378 2.552 204
0.883 0.197 2.381 2.561 206
0.899 0.198 2.38 2.566 207
0.915 0.198 2.378 2.57 207
0.932 0.199 2.381 2.578 139
1.773 0.355 4.236 4.62 31
1.744 0.339 4.03 4.418 44
1.751 0.336 3.98 4.374 53
1.782 0.337 3.985 4.392 60
1.802 0.336 3.966 4.383 57
0.65 0.117 1.357 1.523 45
0.667 0.119 1.371 1.542 72
0.68 0.12 1.377 1.554 64
0.777 0.135 1.55 1.753 56
0.867 0.143 1.63 1.865 149
0.826 0.135 1.528 1.755 501
0.835 0.135 1.522 1.754 556
0.844 0.135 1.516 1.754 553
0.856 0.135 1.516 1.76 549
-0.972 0.164 1.724 1.998 363
-0.968 0.166 1.743 2.012 268
-0.991 0.171 1.811 2.083 179
-1.022 0.179 1.896 2.173 188
-1.019 0.18 1.919 2.191 181
-1.031 0.185 1.972 2.244 185
-1.014 0.184 1.969 2.234 197
-1.01 0.186 1.991 2.252 197
-1.015 0.189 2.032 2.291 196
-1.004 0.189 2.04 2.294 199
-0.991 0.189 2.046 2.293 193
-0.971 0.188 2.037 2.276 260
-0.95 0.186 2.025 2.256 287
-0.938 0.186 2.031 2.257 249
-0.939 0.189 2.067 2.29 147
-0.988 0.202 2.211 2.442 107
-0.981 0.203 2.232 2.459 107
-0.969 0.203 2.24 2.462 99
-0.952 0.203 2.239 2.454 79
-0.455 0.099 1.078 1.187 169
-0.375 0.083 0.902 0.993 888
-0.37 0.083 0.907 0.995 241
-0.367 0.084 0.915 1.002 61
-0.355 0.082 0.9 0.983 62
-0.358 0.084 0.924 1.007 59
-0.359 0.086 0.943 1.025 55
-0.349 0.084 0.933 1.012 56
-0.35 0.086 0.953 1.032 54
-0.339 0.085 0.942 1.018 58
-0.352 0.09 0.997 1.074 322
-0.344 0.089 0.993 1.068 675
-0.337 0.089 0.992 1.065 677
-0.335 0.09 1.006 1.077 658
-0.33 0.09 1.01 1.079 641
-0.325 0.09 1.015 1.083 636
-0.319 0.09 1.019 1.084 617
-0.316 0.091 1.03 1.094 597
-0.31 0.091 1.032 1.094 591
-0.304 0.092 1.036 1.097 565
-0.302 0.093 1.05 1.109 561
-0.296 0.093 1.055 1.113 541
-0.293 0.094 1.067 1.123 530
-0.289 0.095 1.077 1.133 520
-0.284 0.095 1.085 1.139 496
-0.281 0.096 1.098 1.15 495
-0.276 0.097 1.108 1.16 481
-0.272 0.097 1.117 1.167 460
-0.262 0.097 1.107 1.155 211
-0.245 0.092 1.059 1.104 38
-0.24 0.093 1.069 1.113 26
-0.239 0.095 1.091 1.134 27
-0.218 0.092 1.057 1.097 28
-0.224 0.097 1.116 1.156 25
-0.249 0.111 1.283 1.326 27
-0.236 0.108 1.258 1.298 32
-0.205 0.097 1.127 1.163 38
-0.199 0.104 1.209 1.243 25
-0.195 0.106 1.234 1.268 27
-0.437 0.289 3.432 3.486 27
-0.428 0.297 3.526 3.578 33
-0.411 0.299 3.555 3.605 36
-0.39 0.299 3.551 3.599 39
-0.373 0.301 3.577 3.623 37
-0.344 0.293 3.492 3.535 28
-0.328 0.298 3.545 3.586 34
-0.306 0.295 3.517 3.556 40
-0.287 0.297 3.539 3.577 41
-0.266 0.296 3.525 3.561 39
-0.247 0.297 3.538 3.573 36
-0.225 0.295 3.52 3.553 29
-0.022 0.14 1.663 1.683 28
-0.012 0.139 1.652 1.672 63
-0.003 0.143 1.693 1.713 89
0.006 0.142 1.68 1.7 91
0.015 0.143 1.7 1.72 97
0.025 0.141 1.673 1.693 97
0.034 0.142 1.679 1.699 99
0.044 0.143 1.696 1.717 97
0.053 0.141 1.67 1.691 104
0.064 0.144 1.709 1.731 102
0.073 0.142 1.686 1.708 101
0.082 0.142 1.676 1.698 107
0.092 0.142 1.684 1.707 105
0.102 0.143 1.688 1.712 106
0.112 0.144 1.698 1.722 105
0.122 0.143 1.69 1.715 105
0.131 0.143 1.691 1.716 107
0.142 0.144 1.7 1.726 108
0.151 0.143 1.692 1.719 110
0.162 0.145 1.706 1.734 108
0.17 0.143 1.691 1.72 110
0.183 0.146 1.718 1.748 111
0.189 0.143 1.684 1.715 113
0.2 0.144 1.69 1.722 115
0.207 0.142 1.675 1.708 115
0.217 0.143 1.677 1.711 112
0.225 0.141 1.663 1.698 114
0.233 0.14 1.649 1.686 113
0.242 0.14 1.646 1.684 114
0.253 0.141 1.65 1.689 114
0.262 0.141 1.649 1.69 116
0.274 0.142 1.664 1.706 114
0.284 0.142 1.664 1.708 115
0.296 0.143 1.675 1.721 118
0.304 0.143 1.664 1.712 117
0.311 0.142 1.651 1.701 117
0.318 0.14 1.635 1.686 117
0.331 0.142 1.652 1.705 116
0.334 0.139 1.616 1.671 115
0.351 0.142 1.652 1.709 119
0.354 0.14 1.62 1.678 119
0.366 0.14 1.628 1.689 125
0.382 0.143 1.656 1.72 130
0.405 0.148 1.709 1.777 150
0.396 0.141 1.629 1.696 250
0.399 0.139 1.603 1.672 395
0.405 0.138 1.586 1.657 442
0.414 0.138 1.583 1.656 425
0.424 0.138 1.584 1.66 377
0.461 0.147 1.682 1.764 222
0.591 0.183 2.11 2.213 210
0.609 0.185 2.124 2.232 229
0.583 0.174 1.99 2.094 198
0.584 0.171 1.951 2.058 295
0.592 0.17 1.937 2.047 333
0.61 0.171 1.954 2.068 276
0.66 0.182 2.074 2.198 162
0.77 0.208 2.372 2.517 197
0.792 0.21 2.39 2.54 207
0.804 0.21 2.381 2.535 202
0.823 0.211 2.391 2.551 205
0.836 0.211 2.381 2.546 207
0.852 0.211 2.381 2.551 206
0.866 0.211 2.375 2.551 208
0.884 0.212 2.381 2.562 204
0.898 0.212 2.375 2.562 204
0.915 0.213 2.379 2.572 203
0.93 0.213 2.376 2.574 138
1.657 0.351 3.891 4.258 31
1.731 0.361 3.998 4.385 44
1.762 0.362 4.003 4.402 59
1.762 0.357 3.938 4.342 64
1.811 0.362 3.983 4.404 60
0.646 0.125 1.348 1.514 42
0.657 0.126 1.349 1.519 74
0.695 0.131 1.407 1.588 64
0.798 0.149 1.592 1.8 57
0.823 0.146 1.546 1.771 241
0.823 0.144 1.523 1.75 554
0.832 0.144 1.516 1.748 586
0.841 0.144 1.511 1.748 579
0.856 0.145 1.516 1.76 576
-0.974 0.176 1.727 2.002 364
-0.966 0.176 1.739 2.008 277
-0.996 0.184 1.819 2.094 184
-1.026 0.192 1.902 2.181 188
-1.018 0.193 1.916 2.19 187
-1.02 0.195 1.949 2.22 186
-1.024 0.198 1.988 2.257 191
-1.014 0.199 1.997 2.26 197
-1.008 0.2 2.017 2.276 198
-0.997 0.201 2.026 2.279 203
-0.999 0.204 2.062 2.312 197
-0.966 0.199 2.025 2.264 257
-0.949 0.199 2.022 2.254 290
-0.94 0.199 2.034 2.262 249
-0.938 0.202 2.063 2.288 148
-0.98 0.214 2.192 2.423 104
-0.985 0.218 2.241 2.47 107
-0.978 0.219 2.26 2.485 101
-0.97 0.22 2.28 2.5 78
-0.413 0.096 0.978 1.078 329
-0.375 0.088 0.902 0.994 884
-0.369 0.088 0.903 0.993 131
-0.363 0.088 0.904 0.991 57
-0.353 0.087 0.893 0.976 62
-0.352 0.088 0.909 0.991 57
-0.361 0.092 0.949 1.032 54
-0.352 0.091 0.942 1.022 53
-0.342 0.09 0.931 1.008 53
-0.341 0.091 0.947 1.024 64
-0.348 0.094 0.984 1.061 436
-0.344 0.095 0.992 1.067 671
-0.338 0.095 0.995 1.068 674
-0.334 0.096 1.003 1.075 644
-0.331 0.096 1.012 1.082 644
-0.324 0.096 1.013 1.081 624
-0.32 0.097 1.021 1.088 615
-0.316 0.098 1.031 1.096 598
-0.312 0.098 1.04 1.104 578
-0.307 0.099 1.044 1.106 571
-0.303 0.099 1.055 1.115 560
-0.297 0.099 1.055 1.114 542
-0.293 0.1 1.067 1.124 528
-0.289 0.101 1.075 1.131 517
-0.285 0.102 1.088 1.143 502
-0.279 0.102 1.092 1.145 491
-0.276 0.103 1.108 1.16 477
-0.272 0.104 1.118 1.168 469
-0.268 0.105 1.13 1.179 322
-0.251 0.101 1.084 1.131 53
-0.253 0.113 1.227 1.272 25
-0.22 0.104 1.131 1.171 25
-0.206 0.119 1.299 1.334 27
-0.433 0.293 3.247 3.303 26
-0.415 0.293 3.253 3.307 32
-0.402 0.298 3.308 3.359 31
-0.383 0.298 3.309 3.358 35
-0.36 0.295 3.276 3.323 32
-0.346 0.298 3.319 3.364 32
-0.321 0.293 3.257 3.3 30
-0.281 0.272 3.026 3.065 24
-0.287 0.296 3.297 3.337 32
-0.269 0.297 3.309 3.347 32
-0.251 0.299 3.33 3.367 32
-0.234 0.3 3.349 3.385 33
-0.211 0.295 3.292 3.326 32
-0.196 0.3 3.35 3.383 28
-0.173 0.294 3.284 3.316 32
-0.152 0.289 3.225 3.256 29
-0.132 0.287 3.206 3.236 26
-0.066 0.197 2.193 2.216 35
-0.053 0.193 2.152 2.176 55
-0.032 0.155 1.72 1.741 37
-0.021 0.144 1.593 1.614 64
-0.012 0.144 1.594 1.614 105
-0.003 0.144 1.592 1.613 109
0.005 0.144 1.594 1.615 111
0.014 0.146 1.613 1.633 112
0.024 0.145 1.612 1.633 114
0.033 0.145 1.611 1.631 115
0.042 0.145 1.605 1.627 114
0.051 0.146 1.619 1.64 114
0.061 0.146 1.623 1.644 119
0.069 0.145 1.603 1.625 121
0.079 0.146 1.614 1.637 119
0.088 0.146 1.614 1.637 121
0.097 0.145 1.605 1.628 118
0.107 0.146 1.614 1.638 121
0.116 0.145 1.608 1.632 121
0.125 0.146 1.615 1.641 122
0.135 0.146 1.615 1.641 122
0.145 0.147 1.626 1.653 123
0.153 0.146 1.613 1.641 121
0.16 0.144 1.589 1.618 125
0.173 0.147 1.621 1.651 123
0.18 0.146 1.606 1.637 126
0.19 0.146 1.61 1.641 122
0.201 0.147 1.619 1.652 124
0.207 0.145 1.595 1.629 124
0.217 0.145 1.599 1.635 121
0.225 0.145 1.593 1.63 126
0.232 0.144 1.576 1.613 125
0.242 0.144 1.578 1.617 128
0.251 0.144 1.576 1.616 123
0.259 0.143 1.569 1.611 128
0.271 0.145 1.586 1.629 129
0.28 0.145 1.582 1.627 128
0.288 0.144 1.577 1.624 127
0.3 0.146 1.588 1.637 127
0.307 0.145 1.575 1.625 126
0.313 0.143 1.562 1.614 130
0.324 0.144 1.568 1.621 127
0.337 0.146 1.585 1.641 132
0.343 0.145 1.568 1.626 130
0.348 0.143 1.546 1.606 134
0.362 0.145 1.566 1.628 137
0.373 0.145 1.574 1.638 135
0.382 0.145 1.57 1.637 171
0.395 0.147 1.583 1.652 287
0.406 0.147 1.588 1.659 401
0.415 0.147 1.586 1.66 423
0.427 0.148 1.592 1.669 369
0.46 0.156 1.678 1.761 225
0.595 0.197 2.124 2.229 217
0.609 0.198 2.125 2.233 225
