# .PCD v0.7 - Point Cloud Data file format
VERSION 0.7
FIELDS x y z
SIZE 4 4 4
TYPE F F F
COUNT 1 1 1
WIDTH 1824
HEIGHT 1
VIEWPOINT 0 0 0 1 0 0 0
POINTS 1824
DATA ascii
0.52100003 0.064000003 4.2179999
0.546 0.064999998 4.2179999
0.56900001 0.064999998 4.2129998
0.59500003 0.064999998 4.2179999
0.61900002 0.064999998 4.217
0.64200002 0.064999998 4.2080002
0.66799998 0.064999998 4.2179999
0.69199997 0.064999998 4.211
0.71499997 0.064999998 4.2059999
0.74000001 0.064999998 4.2030001
0.764 0.064999998 4.2030001
0.79000002 0.064999998 4.2059999
0.81400001 0.064999998 4.2010002
0.838 0.064999998 4.197
0.86400002 0.064999998 4.2010002
0.88700002 0.064999998 4.1939998
0.91299999 0.064999998 4.1950002
0.93800002 0.064999998 4.1939998
0.96200001 0.064999998 4.191
0.98699999 0.064999998 4.1880002
1.011 0.064999998 4.1810002
1.0369999 0.064999998 4.184
1.063 0.064999998 4.1830001
1.0880001 0.064999998 4.1810002
1.113 0.066 4.178
1.1390001 0.066 4.1799998
1.164 0.066 4.1750002
1.189 0.066 4.1690001
1.214 0.066 4.165
1.2410001 0.066 4.1680002
1.266 0.066 4.165
1.291 0.066 4.158
1.318 0.066 4.1609998
1.344 0.066 4.1560001
1.368 0.066 4.1479998
1.396 0.066 4.152
1.423 0.066 4.1529999
1.449 0.066 4.1490002
1.477 0.067000002 4.1490002
1.5039999 0.067000002 4.1469998
1.529 0.067000002 4.1399999
1.557 0.067000002 4.1409998
1.584 0.067000002 4.138
1.61 0.067000002 4.132
1.6390001 0.067000002 4.1350002
1.665 0.067000002 4.1269999
1.696 0.068000004 4.1339998
1.726 0.068000004 4.1360002
1.751 0.068000004 4.125
1.777 0.068000004 4.119
1.809 0.068000004 4.1240001
1.839 0.068000004 4.125
1.8660001 0.068000004 4.1199999
1.892 0.068000004 4.1110001
1.925 0.068999998 4.1170001
1.951 0.068999998 4.1069999
1.982 0.068999998 4.1079998
2.013 0.068999998 4.1090002
2.043 0.068999998 4.1059999
2.0680001 0.068999998 4.0939999
2.1010001 0.068999998 4.0970001
2.131 0.07 4.0939999
2.1670001 0.07 4.1020002
2.2 0.07 4.1030002
2.2260001 0.07 4.0890002
2.2590001 0.07 4.0900002
2.29 0.07 4.086
-0.026000001 0.0020000001 0.028999999
-0.013 0.0020000001 0.0070000002
-0.001 0.001 -0.013
-2.3770001 0.103 4.4489999
-2.3469999 0.103 4.4580002
-2.3099999 0.103 4.4530001
-2.277 0.103 4.4569998
-2.2390001 0.102 4.4499998
-2.204 0.102 4.448
-2.168 0.102 4.4419999
-2.1359999 0.101 4.4450002
-2.098 0.101 4.4349999
-2.0639999 0.101 4.434
-2.0280001 0.1 4.427
-1.995 0.1 4.4239998
-1.9630001 0.1 4.4250002
-1.928 0.098999999 4.4159999
-1.897 0.098999999 4.4169998
-1.864 0.098999999 4.415
-1.83 0.097999997 4.4089999
-1.8 0.097999997 4.4099998
-1.768 0.097999997 4.4060001
-1.735 0.097999997 4.4000001
-1.681 0.096000001 4.3369999
-1.646 0.096000001 4.3249998
-1.613 0.094999999 4.3150001
-1.5880001 0.094999999 4.3249998
-1.5599999 0.094999999 4.329
-1.534 0.094999999 4.3379998
-1.505 0.094999999 4.336
-1.479 0.094999999 4.3429999
-1.452 0.094999999 4.349
-1.421 0.093999997 4.3410001
-1.391 0.093999997 4.3340001
-1.367 0.093999997 4.3449998
-1.346 0.094999999 4.369
-1.313 0.093999997 4.3509998
-1.286 0.093999997 4.3540001
-1.258 0.093999997 4.3509998
-1.2309999 0.093999997 4.3530002
-1.202 0.093000002 4.3470001
-1.174 0.093000002 4.3449998
-1.146 0.093000002 4.3429999
-1.119 0.093000002 4.3400002
-1.092 0.093000002 4.3390002
-1.064 0.093000002 4.336
-1.038 0.093000002 4.3369999
-1.01 0.092 4.3319998
-1.021 0.096000001 4.493
-0.99599999 0.096000001 4.5029998
-0.97500002 0.096000001 4.5349998
-0.93099999 0.093999997 4.4510002
-0.917 0.096000001 4.5170002
-0.88300002 0.094999999 4.4790001
-0.85699999 0.094999999 4.4860001
-0.83600003 0.094999999 4.5159998
-0.80199999 0.093999997 4.474
-0.76899999 0.093000002 4.4330001
-0.755 0.094999999 4.5050001
-0.72799999 0.094999999 4.5019999
-0.69400001 0.093999997 4.4530001
-0.66399997 0.093000002 4.428
-0.64399999 0.093999997 4.4679999
-0.61000001 0.093000002 4.4060001
-0.57099998 0.090000004 4.3109999
-0.54500002 0.090000004 4.303
-0.51999998 0.090000004 4.2989998
-0.49599999 0.090000004 4.302
-0.47 0.090000004 4.296
-0.44499999 0.090000004 4.2950001
-0.421 0.090000004 4.2950001
-0.396 0.090000004 4.2909999
-0.37099999 0.090000004 4.2870002
-0.347 0.090000004 4.2880001
-0.32100001 0.089000002 4.2789998
-0.29699999 0.089000002 4.283
-0.273 0.089000002 4.283
-0.248 0.089000002 4.2740002
-0.223 0.089000002 4.2690001
-0.199 0.089000002 4.2729998
-0.175 0.089000002 4.27
-0.15099999 0.089000002 4.2649999
-0.127 0.089000002 4.2680001
-0.102 0.089000002 4.2600002
-0.078000002 0.089000002 4.2639999
-0.054000001 0.089000002 4.257
-0.029999999 0.089000002 4.2529998
-0.0060000001 0.089000002 4.2459998
0.017000001 0.089000002 4.25
0.041000001 0.089000002 4.25
0.064999998 0.088 4.2379999
0.089000002 0.089000002 4.2459998
0.113 0.088 4.243
0.13699999 0.089000002 4.243
0.161 0.089000002 4.243
0.185 0.089000002 4.2410002
0.20900001 0.089000002 4.2399998
0.233 0.088 4.2319999
0.257 0.088 4.2319999
0.28099999 0.088 4.2340002
0.30500001 0.088 4.2329998
0.329 0.088 4.2290001
0.35299999 0.089000002 4.2309999
0.377 0.089000002 4.2329998
0.40099999 0.089000002 4.23
0.42500001 0.089000002 4.2290001
0.44999999 0.089000002 4.2309999
0.47299999 0.089000002 4.2189999
0.498 0.089000002 4.2259998
0.52200001 0.089000002 4.2270002
0.546 0.089000002 4.223
0.56999999 0.089000002 4.2189999
0.59399998 0.089000002 4.217
0.61799997 0.089000002 4.2140002
0.64200002 0.089000002 4.21
0.667 0.089000002 4.211
0.69300002 0.089000002 4.217
0.71600002 0.089000002 4.211
0.74199998 0.089000002 4.2150002
0.76499999 0.089000002 4.2049999
0.78899997 0.089000002 4.204
0.81400001 0.089000002 4.2020001
0.83899999 0.089000002 4.2049999
0.86400002 0.089000002 4.2020001
0.889 0.089000002 4.2010002
0.91299999 0.089000002 4.1950002
0.93800002 0.090000004 4.1950002
0.96200001 0.090000004 4.191
0.98799998 0.090000004 4.1890001
1.012 0.090000004 4.1859999
1.038 0.090000004 4.1869998
1.063 0.090000004 4.1830001
1.0880001 0.090000004 4.1810002
1.113 0.090000004 4.178
1.1390001 0.090000004 4.1799998
1.165 0.090000004 4.177
1.1900001 0.090000004 4.1729999
1.215 0.090000004 4.1700001
1.2410001 0.090000004 4.1700001
1.268 0.090999998 4.1700001
1.293 0.090999998 4.164
1.318 0.090999998 4.1609998
1.344 0.090999998 4.1560001
1.3710001 0.090999998 4.1560001
1.397 0.090999998 4.1539998
1.4220001 0.090999998 4.1479998
1.451 0.090999998 4.1539998
1.478 0.092 4.1500001
1.505 0.092 4.1490002
1.531 0.092 4.145
1.557 0.092 4.1399999
1.587 0.092 4.1459999
1.612 0.092 4.138
1.642 0.092 4.1399999
1.669 0.093000002 4.138
1.697 0.093000002 4.1350002
1.726 0.093000002 4.1350002
1.753 0.093000002 4.131
1.78 0.093000002 4.1259999
1.8099999 0.093000002 4.1259999
1.839 0.093999997 4.125
1.867 0.093999997 4.1199999
1.896 0.093999997 4.118
1.924 0.093999997 4.1139998
1.954 0.093999997 4.1139998
1.983 0.093999997 4.1090002
2.0120001 0.094999999 4.105
2.043 0.094999999 4.1059999
2.0739999 0.094999999 4.1059999
2.105 0.094999999 4.1040001
2.131 0.094999999 4.0929999
2.1670001 0.096000001 4.0999999
2.198 0.096000001 4.0970001
2.23 0.096000001 4.0960002
2.2609999 0.097000003 4.0939999
2.293 0.097000003 4.0910001
-0.026000001 0.0020000001 0.029999999
-0.013 0.0020000001 0.0070000002
-0.003 0.001 -0.0099999998
-2.3800001 0.132 4.4530001
-2.345 0.131 4.454
-2.3069999 0.131 4.448
-2.273 0.131 4.4499998
-2.2390001 0.13 4.4489999
-2.204 0.13 4.448
-2.1689999 0.12899999 4.4450002
-2.135 0.12899999 4.4429998
-2.099 0.12899999 4.4369998
-2.0680001 0.12800001 4.441
-2.0280001 0.12800001 4.4250002
-1.997 0.127 4.4289999
-1.9630001 0.127 4.4229999
-1.932 0.127 4.4250002
-1.898 0.126 4.421
-1.8660001 0.126 4.4190001
-1.831 0.125 4.4099998
-1.799 0.125 4.4070001
-1.7690001 0.125 4.408
-1.7309999 0.124 4.388
-1.627 0.118 4.1989999
-1.576 0.117 4.1399999
-1.551 0.116 4.1459999
-1.525 0.116 4.1529999
-1.499 0.116 4.158
-1.467 0.116 4.1459999
-1.4400001 0.116 4.1459999
-1.413 0.115 4.1479998
-1.401 0.116 4.1939998
-1.403 0.119 4.2849998
-1.383 0.119 4.3080001
-1.365 0.12 4.3390002
-1.34 0.12 4.349
-1.317 0.12 4.3660002
-1.288 0.12 4.3590002
-1.257 0.119 4.3499999
-1.2309999 0.119 4.3540001
-1.2029999 0.119 4.3520002
-1.176 0.119 4.3509998
-1.147 0.119 4.3449998
-1.119 0.118 4.3410001
-1.092 0.118 4.3390002
-1.064 0.118 4.335
-1.0369999 0.118 4.3330002
-1.012 0.118 4.3369999
-1.023 0.122 4.5029998
-0.99800003 0.122 4.5139999
-0.97000003 0.122 4.5079999
-0.94300002 0.122 4.5110002
-0.90799999 0.121 4.4699998
-0.89499998 0.122 4.5419998
-0.847 0.119 4.4320002
-0.83999997 0.122 4.533
-0.81400001 0.122 4.5419998
-0.77600002 0.12 4.4770002
-0.75400001 0.121 4.5019999
-0.727 0.12 4.494
-0.69800001 0.12 4.4809999
-0.66500002 0.119 4.4320002
-0.64099997 0.119 4.4499998
-0.616 0.119 4.454
-0.57300001 0.116 4.3239999
-0.546 0.115 4.3049998
-0.51999998 0.115 4.2979999
-0.49599999 0.115 4.303
-0.47099999 0.115 4.2989998
-0.44600001 0.115 4.303
-0.421 0.114 4.2979999
-0.396 0.114 4.2940001
-0.37099999 0.114 4.289
-0.347 0.114 4.2919998
-0.322 0.114 4.29
-0.29699999 0.114 4.2810001
-0.27200001 0.114 4.2750001
-0.248 0.114 4.2740002
-0.22400001 0.114 4.2750001
-0.2 0.114 4.276
-0.175 0.113 4.27
-0.15099999 0.113 4.2690001
-0.126 0.113 4.2589998
-0.102 0.113 4.2680001
-0.078000002 0.113 4.2659998
-0.054000001 0.113 4.2600002
-0.029999999 0.113 4.2529998
-0.0060000001 0.113 4.2490001
0.017000001 0.113 4.2550001
0.041000001 0.113 4.2449999
0.064999998 0.113 4.2490001
0.089000002 0.113 4.2449999
0.113 0.113 4.2480001
0.13699999 0.113 4.243
0.161 0.112 4.2319999
0.185 0.113 4.2399998
0.20900001 0.113 4.243
0.233 0.113 4.2379999
0.257 0.113 4.2379999
0.28099999 0.113 4.2350001
0.30500001 0.113 4.23
0.329 0.113 4.2309999
0.35299999 0.113 4.2350001
0.377 0.113 4.23
0.40200001 0.113 4.2329998
0.426 0.113 4.2329998
0.44999999 0.113 4.23
0.47400001 0.113 4.2290001
0.498 0.113 4.224
0.52200001 0.113 4.2259998
0.54699999 0.113 4.2270002
0.56999999 0.113 4.2160001
0.59500003 0.113 4.2179999
0.62 0.113 4.2270002
0.64300001 0.113 4.2119999
0.66799998 0.113 4.2189999
0.69199997 0.113 4.2140002
0.71600002 0.113 4.21
0.741 0.113 4.2119999
0.76499999 0.113 4.2080002
0.79100001 0.114 4.21
0.815 0.114 4.2069998
0.83999997 0.114 4.2049999
0.86400002 0.114 4.2010002
0.889 0.114 4.2030001
0.91399997 0.114 4.198
0.93900001 0.114 4.197
0.963 0.114 4.191
0.99000001 0.114 4.1999998
1.013 0.114 4.1880002
1.039 0.114 4.1900001
1.0650001 0.114 4.1919999
1.089 0.114 4.1859999
1.1160001 0.115 4.1880002
1.1390001 0.115 4.178
1.165 0.115 4.177
1.189 0.115 4.1690001
1.214 0.115 4.1669998
1.242 0.115 4.1729999
1.268 0.115 4.1690001
1.294 0.115 4.1669998
1.319 0.115 4.1620002
1.347 0.116 4.1659999
1.3710001 0.116 4.158
1.398 0.116 4.1560001
1.426 0.116 4.1589999
1.451 0.116 4.1529999
1.48 0.117 4.1550002
1.505 0.117 4.1500001
1.531 0.117 4.1440001
1.559 0.117 4.1459999
1.585 0.117 4.1399999
1.6160001 0.117 4.1459999
1.642 0.118 4.1399999
1.67 0.118 4.1389999
1.697 0.118 4.1339998
1.727 0.118 4.1370001
1.755 0.118 4.1350002
1.781 0.118 4.1259999
1.808 0.119 4.1220002
1.839 0.119 4.1240001
1.8710001 0.119 4.1290002
1.896 0.119 4.118
1.926 0.12 4.118
1.957 0.12 4.119
1.985 0.12 4.1129999
2.0179999 0.121 4.1170001
2.046 0.121 4.1100001
2.079 0.121 4.1129999
2.1040001 0.121 4.1009998
2.1340001 0.121 4.099
2.171 0.122 4.1069999
2.1989999 0.122 4.099
2.2290001 0.122 4.0949998
2.266 0.123 4.1030002
2.2950001 0.123 4.0939999
-0.018999999 0.0020000001 0.017999999
-0.015 0.0020000001 0.0099999998
-2.414 0.161 4.4499998
-2.3770001 0.16 4.447
-2.346 0.16 4.4549999
-2.309 0.15899999 4.4499998
-2.2739999 0.15899999 4.4510002
-2.24 0.15800001 4.4499998
-2.2030001 0.15800001 4.4450002
-2.165 0.15700001 4.4349999
-2.135 0.15700001 4.4429998
-2.0999999 0.156 4.4380002
-2.0669999 0.156 4.4380002
-2.029 0.155 4.427
-1.998 0.155 4.4310002
-1.964 0.154 4.4260001
-1.929 0.154 4.4180002
-1.896 0.153 4.415
-1.863 0.153 4.4120002
-1.835 0.153 4.4169998
-1.801 0.152 4.4099998
-1.7690001 0.152 4.4070001
-1.73 0.15099999 4.3870001
-1.626 0.14399999 4.1960001
-1.573 0.141 4.1300001
-1.541 0.141 4.119
-1.536 0.142 4.1830001
-1.51 0.142 4.1880002
-1.464 0.14 4.138
-1.4299999 0.139 4.1160002
-1.403 0.139 4.118
-1.388 0.14 4.1539998
-1.399 0.14399999 4.2709999
-1.382 0.145 4.3049998
-1.362 0.145 4.3280001
-1.3430001 0.146 4.3579998
-1.317 0.146 4.3639998
-1.288 0.146 4.3590002
-1.261 0.145 4.362
-1.234 0.145 4.362
-1.202 0.145 4.3460002
-1.175 0.14399999 4.3460002
-1.147 0.14399999 4.342
-1.1210001 0.14399999 4.349
-1.0930001 0.14399999 4.3439999
-1.064 0.14300001 4.3309999
-1.039 0.14300001 4.3410001
-1.012 0.14300001 4.336
-1.005 0.146 4.4229999
-1.0039999 0.149 4.5380001
-0.97500002 0.149 4.533
-0.94499999 0.148 4.52
-0.91399997 0.147 4.4980001
-0.89600003 0.149 4.5430002
-0.85600001 0.146 4.4770002
-0.824 0.145 4.448
-0.801 0.146 4.4660001
-0.78100002 0.147 4.5029998
-0.75800002 0.147 4.5240002
-0.72399998 0.146 4.4759998
-0.69599998 0.145 4.4660001
-0.66799998 0.145 4.4520001
-0.64200002 0.145 4.4520001
-0.61000001 0.14300001 4.4060001
-0.57300001 0.14 4.3200002
-0.546 0.14 4.3060002
-0.52100003 0.14 4.3060002
-0.495 0.139 4.2969999
-0.47099999 0.139 4.3060002
-0.44600001 0.139 4.2969999
-0.421 0.139 4.2979999
-0.396 0.139 4.2969999
-0.37200001 0.139 4.2969999
-0.347 0.139 4.2909999
-0.322 0.138 4.2859998
-0.29699999 0.138 4.2849998
-0.273 0.138 4.2810001
-0.248 0.138 4.2800002
-0.22400001 0.138 4.2789998
-0.2 0.138 4.2750001
-0.175 0.138 4.27
-0.15099999 0.138 4.2690001
-0.127 0.138 4.2690001
-0.102 0.13699999 4.2680001
-0.078000002 0.13699999 4.2670002
-0.054000001 0.13699999 4.2600002
-0.029999999 0.13699999 4.2579999
-0.0060000001 0.13699999 4.2579999
0.017000001 0.13699999 4.256
0.041000001 0.13699999 4.257
0.064999998 0.13699999 4.2490001
0.089000002 0.13699999 4.2449999
0.113 0.13699999 4.2410002
0.13699999 0.13699999 4.2449999
0.161 0.13699999 4.2449999
0.185 0.13699999 4.2449999
0.20900001 0.13699999 4.2399998
0.233 0.13699999 4.2379999
0.25799999 0.13699999 4.244
0.28099999 0.13699999 4.2360001
0.30500001 0.13699999 4.237
0.33000001 0.13699999 4.2360001
0.354 0.13699999 4.2350001
0.37799999 0.13699999 4.2340002
0.40200001 0.13699999 4.2319999
0.426 0.13699999 4.2340002
0.44999999 0.13699999 4.2340002
0.47499999 0.13699999 4.2329998
0.498 0.13699999 4.2290001
0.52200001 0.13699999 4.224
0.54699999 0.13699999 4.2290001
0.57200003 0.13699999 4.2319999
0.59399998 0.13699999 4.2129998
0.62 0.13699999 4.2270002
0.64399999 0.13699999 4.2210002
0.66900003 0.13699999 4.2199998
0.69300002 0.138 4.217
0.71700001 0.13699999 4.211
0.74199998 0.138 4.2179999
0.76599997 0.138 4.2119999
0.79100001 0.138 4.2090001
0.81599998 0.138 4.2119999
0.83999997 0.138 4.2080002
0.866 0.138 4.2080002
0.88999999 0.138 4.2030001
0.91600001 0.139 4.2090001
0.94 0.138 4.2030001
0.96399999 0.138 4.197
0.99000001 0.139 4.1989999
1.015 0.139 4.1960001
1.039 0.139 4.1900001
1.066 0.139 4.1939998
1.09 0.139 4.1890001
1.115 0.139 4.1830001
1.141 0.139 4.1849999
1.165 0.139 4.178
1.192 0.14 4.1789999
1.2180001 0.14 4.1789999
1.244 0.14 4.177
1.27 0.14 4.1750002
1.296 0.14 4.1750002
1.3200001 0.14 4.1659999
1.347 0.14 4.165
1.372 0.141 4.1599998
1.399 0.141 4.158
1.426 0.141 4.1599998
1.451 0.141 4.152
1.479 0.141 4.1539998
1.507 0.142 4.1539998
1.534 0.142 4.1529999
1.561 0.142 4.1490002
1.586 0.142 4.1409998
1.615 0.142 4.1440001
1.648 0.14300001 4.1539998
1.671 0.14300001 4.1420002
1.699 0.14300001 4.1389999
1.727 0.14300001 4.1370001
1.7539999 0.14399999 4.1329999
1.785 0.14399999 4.1350002
1.813 0.14399999 4.131
1.84 0.14399999 4.1259999
1.8710001 0.145 4.1279998
1.899 0.145 4.1230001
1.9299999 0.146 4.125
1.9579999 0.146 4.1199999
1.989 0.146 4.1209998
2.0179999 0.146 4.1170001
2.0480001 0.147 4.1139998
2.0780001 0.147 4.112
2.1059999 0.147 4.1040001
2.1389999 0.148 4.1069999
2.171 0.148 4.1059999
2.201 0.148 4.1030002
2.2349999 0.149 4.1059999
2.266 0.149 4.1009998
2.299 0.15000001 4.1009998
-0.024 0.003 0.027000001
-0.013 0.0020000001 0.0070000002
-0.0020000001 0.001 -0.012
-2.378 0.18799999 4.447
-2.346 0.18799999 4.4549999
-2.3099999 0.18700001 4.4520001
-2.2720001 0.18700001 4.4439998
-2.24 0.186 4.4489999
-2.2019999 0.186 4.4419999
-2.168 0.185 4.4400001
-2.1370001 0.185 4.4450002
-2.099 0.184 4.4359999
-2.0669999 0.183 4.4369998
-2.03 0.183 4.4289999
-1.999 0.182 4.4320002
-1.966 0.182 4.428
-1.933 0.18099999 4.4260001
-1.898 0.18000001 4.4190001
-1.8660001 0.18000001 4.4180002
-1.834 0.18000001 4.4159999
-1.801 0.17900001 4.4099998
-1.772 0.17900001 4.414
-1.733 0.177 4.3930001
-1.6289999 0.169 4.2010002
-1.574 0.16599999 4.132
-1.539 0.16500001 4.1129999
-1.516 0.16500001 4.1259999
-1.484 0.16500001 4.1139998
-1.459 0.16500001 4.1209998
-1.429 0.164 4.1139998
-1.401 0.164 4.1129999
-1.386 0.16500001 4.1469998
-1.401 0.169 4.277
-1.3839999 0.17 4.309
-1.369 0.17200001 4.3509998
-1.345 0.17200001 4.3649998
-1.316 0.17200001 4.3590002
-1.289 0.171 4.3629999
-1.262 0.171 4.3639998
-1.234 0.171 4.3639998
-1.205 0.171 4.3569999
-1.177 0.17 4.3530002
-1.149 0.17 4.3509998
-1.1210001 0.169 4.3470001
-1.094 0.169 4.3460002
-1.068 0.169 4.349
-1.04 0.169 4.342
-1.013 0.168 4.3400002
-1.0089999 0.17200001 4.441
-0.991 0.17299999 4.4790001
-0.97000003 0.17399999 4.5079999
-0.93099999 0.17200001 4.4530001
-0.90499997 0.17200001 4.4549999
-0.88200003 0.17200001 4.474
-0.87900001 0.177 4.5939999
-0.83999997 0.17399999 4.533
-0.79699999 0.171 4.4450002
-0.77200001 0.171 4.448
-0.76499999 0.175 4.566
-0.72100002 0.171 4.4590001
-0.69400001 0.17 4.4499998
-0.66100001 0.169 4.4070001
-0.63800001 0.169 4.4219999
-0.611 0.169 4.4130001
-0.574 0.16500001 4.329
-0.54699999 0.164 4.3119998
-0.52100003 0.164 4.3070002
-0.49599999 0.164 4.3060002
-0.47099999 0.164 4.3039999
-0.447 0.164 4.3070002
-0.42199999 0.164 4.3060002
-0.39700001 0.164 4.3010001
-0.37200001 0.163 4.3010001
-0.347 0.163 4.2930002
-0.32300001 0.163 4.2979999
-0.29800001 0.163 4.2930002
-0.273 0.163 4.283
-0.249 0.163 4.2859998
-0.22400001 0.162 4.2789998
-0.2 0.162 4.283
-0.175 0.162 4.2719998
-0.15099999 0.162 4.2680001
-0.127 0.162 4.2620001
-0.103 0.162 4.27
-0.078000002 0.162 4.263
-0.054000001 0.161 4.2610002
-0.029999999 0.162 4.263
-0.0060000001 0.162 4.263
0.017000001 0.161 4.256
0.041000001 0.161 4.2550001
0.064999998 0.161 4.256
0.089000002 0.161 4.2540002
0.113 0.161 4.2490001
0.13699999 0.161 4.2470002
0.161 0.161 4.2459998
0.185 0.161 4.2420001
0.20900001 0.161 4.2389998
0.234 0.161 4.244
0.25799999 0.161 4.244
0.28099999 0.161 4.2389998
0.30599999 0.161 4.2379999
0.33000001 0.161 4.2399998
0.354 0.161 4.2360001
0.37799999 0.161 4.2389998
0.403 0.161 4.2410002
0.426 0.161 4.237
0.44999999 0.161 4.2319999
0.47499999 0.161 4.2340002
0.49900001 0.162 4.2360001
0.523 0.161 4.2309999
0.546 0.161 4.2210002
0.57200003 0.162 4.2309999
0.59500003 0.161 4.223
0.62 0.162 4.2249999
0.64499998 0.162 4.223
0.67000002 0.162 4.2249999
0.69499999 0.162 4.2280002
0.71799999 0.162 4.2199998
0.74199998 0.162 4.211
0.76700002 0.162 4.2140002
0.79100001 0.162 4.211
0.81699997 0.162 4.2160001
0.84100002 0.162 4.211
0.86500001 0.162 4.2059999
0.889 0.162 4.2010002
0.91500002 0.163 4.2020001
0.94099998 0.163 4.2049999
0.96600002 0.163 4.2030001
0.99000001 0.163 4.1989999
1.015 0.163 4.1960001
1.04 0.163 4.1939998
1.0650001 0.163 4.191
1.091 0.164 4.191
1.115 0.164 4.1820002
1.14 0.164 4.1820002
1.1670001 0.164 4.1830001
1.191 0.164 4.1760001
1.219 0.164 4.1799998
1.244 0.164 4.1750002
1.272 0.16500001 4.1810002
1.296 0.16500001 4.1739998
1.325 0.16500001 4.1799998
1.347 0.16500001 4.165
1.373 0.16500001 4.1599998
1.401 0.16599999 4.1659999
1.429 0.16599999 4.1669998
1.4529999 0.16599999 4.158
1.482 0.167 4.1609998
1.508 0.167 4.1560001
1.536 0.167 4.1560001
1.562 0.167 4.151
1.589 0.167 4.1490002
1.617 0.168 4.1469998
1.646 0.168 4.1490002
1.675 0.169 4.151
1.701 0.169 4.1440001
1.727 0.169 4.1370001
1.756 0.169 4.1350002
1.785 0.169 4.1350002
1.813 0.17 4.131
1.8430001 0.17 4.132
1.87 0.17 4.1269999
1.9 0.171 4.125
1.9299999 0.171 4.125
1.959 0.171 4.1220002
1.9910001 0.17200001 4.1240001
2.017 0.17200001 4.1139998
2.0510001 0.17299999 4.1199999
2.0769999 0.17299999 4.1090002
2.1110001 0.17299999 4.1129999
2.141 0.17399999 4.1100001
2.171 0.17399999 4.105
2.2030001 0.175 4.105
2.234 0.175 4.1030002
2.2690001 0.176 4.105
2.302 0.176 4.105
-0.014 0.0020000001 0.0089999996
-2.4400001 0.21699999 4.4310002
-2.4089999 0.21699999 4.4390001
-2.3729999 0.21600001 4.4380002
-2.3429999 0.21600001 4.447
-2.3080001 0.215 4.4460001
-2.2750001 0.215 4.4499998
-2.237 0.214 4.4429998
-2.207 0.214 4.4499998
-2.1719999 0.213 4.4489999
-2.1359999 0.212 4.4419999
-2.098 0.211 4.4330001
-2.066 0.211 4.4349999
-2.0320001 0.20999999 4.4320002
-1.999 0.20999999 4.4299998
-1.967 0.20900001 4.4299998
-1.932 0.208 4.4229999
-1.899 0.208 4.4190001
-1.869 0.207 4.4229999
-1.832 0.206 4.4099998
-1.801 0.206 4.408
-1.77 0.205 4.408
-1.734 0.204 4.3940001
-1.637 0.19599999 4.2210002
-1.573 0.191 4.1290002
-1.533 0.189 4.098
-1.507 0.189 4.1009998
-1.479 0.189 4.0999999
-1.461 0.19 4.1269999
-1.427 0.18799999 4.1079998
-1.402 0.18799999 4.1139998
-1.3839999 0.189 4.1409998
-1.397 0.19400001 4.2620001
-1.383 0.19599999 4.3070002
-1.376 0.199 4.3720002
-1.346 0.198 4.3649998
-1.303 0.19599999 4.3169999
-1.271 0.19400001 4.2989998
-1.242 0.19400001 4.296
-1.215 0.19400001 4.296
-1.1900001 0.19400001 4.303
-1.1670001 0.19400001 4.316
-1.1390001 0.193 4.3099999
-1.115 0.19400001 4.3210001
-1.09 0.19400001 4.329
-1.076 0.19599999 4.382
-1.048 0.19499999 4.375
-1.017 0.19400001 4.3579998
-0.99800003 0.19599999 4.3899999
-0.99800003 0.20100001 4.5110002
-0.94599998 0.19499999 4.3940001
-0.93400002 0.198 4.4650002
-0.90700001 0.198 4.4619999
-0.88599998 0.199 4.494
-0.85100001 0.197 4.4460001
-0.83600003 0.199 4.513
-0.81599998 0.20100001 4.5489998
-0.77899998 0.198 4.4889998
-0.72100002 0.19 4.3000002
-0.71700001 0.19499999 4.4310002
-0.69800001 0.197 4.4759998
-0.66100001 0.19400001 4.402
-0.63999999 0.19499999 4.434
-0.61199999 0.19400001 4.4190001
-0.574 0.19 4.329
-0.546 0.189 4.3060002
-0.52200001 0.189 4.309
-0.49700001 0.189 4.3070002
-0.47099999 0.18799999 4.3000002
-0.44600001 0.18799999 4.3010001
-0.42199999 0.18799999 4.3070002
-0.39700001 0.18799999 4.3000002
-0.37200001 0.18799999 4.2979999
-0.347 0.18799999 4.2940001
-0.322 0.18700001 4.2909999
-0.29800001 0.18700001 4.289
-0.273 0.18700001 4.2880001
-0.249 0.18700001 4.283
-0.22400001 0.18700001 4.2810001
-0.2 0.18700001 4.2779999
-0.175 0.186 4.2750001
-0.15099999 0.18700001 4.2800002
-0.127 0.186 4.2729998
-0.103 0.186 4.27
-0.078000002 0.186 4.2649999
-0.054000001 0.186 4.2690001
-0.029999999 0.186 4.2620001
-0.0060000001 0.186 4.263
0.017000001 0.186 4.2610002
0.041000001 0.186 4.2589998
0.064999998 0.186 4.257
0.090000004 0.186 4.2589998
0.114 0.185 4.2540002
0.138 0.185 4.2490001
0.161 0.185 4.244
0.186 0.185 4.2459998
0.20999999 0.185 4.244
0.233 0.185 4.2350001
0.25799999 0.185 4.243
0.28200001 0.185 4.2459998
0.30599999 0.185 4.2399998
0.33000001 0.185 4.2420001
0.354 0.185 4.2389998
0.37799999 0.185 4.2379999
0.40200001 0.186 4.2389998
0.42699999 0.186 4.2379999
0.44999999 0.185 4.2329998
0.47600001 0.186 4.2399998
0.5 0.186 4.237
0.523 0.186 4.2319999
0.54699999 0.186 4.2280002
0.57200003 0.186 4.2290001
0.59600002 0.186 4.2259998
0.62099999 0.186 4.2290001
0.64499998 0.186 4.224
0.66900003 0.186 4.2210002
0.69300002 0.186 4.2179999
0.71799999 0.186 4.217
0.74299997 0.186 4.2189999
0.76800001 0.18700001 4.2179999
0.792 0.18700001 4.2140002
0.81800002 0.18700001 4.2179999
0.84200001 0.18700001 4.2129998
0.866 0.18700001 4.2090001
0.89099997 0.18700001 4.2059999
0.91600001 0.18700001 4.2080002
0.94099998 0.18700001 4.2059999
0.96499997 0.18700001 4.1999998
0.991 0.18799999 4.1999998
1.015 0.18799999 4.1950002
1.041 0.18799999 4.1960001
1.066 0.18799999 4.1929998
1.091 0.18799999 4.1900001
1.117 0.18799999 4.1900001
1.142 0.18799999 4.1849999
1.168 0.189 4.1859999
1.193 0.189 4.1830001
1.2180001 0.189 4.177
1.244 0.189 4.177
1.27 0.189 4.1719999
1.298 0.19 4.1799998
1.322 0.19 4.1690001
1.349 0.19 4.1690001
1.375 0.19 4.1680002
1.402 0.191 4.165
1.428 0.191 4.164
1.4529999 0.191 4.1550002
1.4809999 0.191 4.1570001
1.511 0.192 4.1620002
1.536 0.192 4.1550002
1.564 0.192 4.1550002
1.592 0.193 4.1539998
1.618 0.193 4.1490002
1.648 0.193 4.152
1.674 0.19400001 4.1459999
1.7 0.19400001 4.1399999
1.728 0.19400001 4.138
1.76 0.19499999 4.1430001
1.786 0.19499999 4.1350002
1.814 0.19499999 4.1339998
1.8430001 0.19599999 4.1300001
1.874 0.19599999 4.1329999
1.902 0.19599999 4.1279998
1.932 0.197 4.1279998
1.962 0.197 4.1259999
1.992 0.198 4.125
2.0179999 0.198 4.1160002
2.049 0.198 4.1149998
2.079 0.199 4.1110001
2.1140001 0.2 4.119
2.1429999 0.2 4.1129999
2.174 0.2 4.1100001
2.2060001 0.20100001 4.1090002
2.2360001 0.20100001 4.105
2.267 0.20200001 4.1009998
2.302 0.20299999 4.1040001
-2.457 0.244 4.395
-2.424 0.244 4.4000001
-2.3929999 0.244 4.4070001
-2.3540001 0.243 4.401
-2.3239999 0.242 4.4109998
-2.2920001 0.242 4.414
-2.257 0.241 4.4130001
-2.2260001 0.241 4.4190001
-2.1949999 0.23999999 4.4250002
-2.165 0.23999999 4.4320002
-2.1289999 0.23899999 4.4260001
-2.0969999 0.23899999 4.4299998
-2.066 0.23800001 4.434
-2.027 0.237 4.4200001
-1.994 0.236 4.4180002
-1.967 0.236 4.428
-1.9349999 0.236 4.428
-1.901 0.235 4.4229999
-1.8660001 0.234 4.4159999
-1.835 0.233 4.415
-1.804 0.233 4.4159999
-1.771 0.23199999 4.4109998
-1.732 0.23100001 4.3870001
-1.635 0.221 4.2140002
-1.575 0.21600001 4.132
-1.526 0.213 4.0780001
-1.4960001 0.212 4.0710001
-1.471 0.212 4.0770001
-1.465 0.215 4.1370001
-1.428 0.213 4.1100001
-1.404 0.213 4.118
-1.3839999 0.214 4.1389999
-1.39 0.219 4.2420001
-1.383 0.222 4.3039999
-1.372 0.22400001 4.3569999
-1.35 0.22499999 4.3769999
-1.285 0.21799999 4.2529998
-1.245 0.215 4.21
-1.22 0.215 4.2179999
-1.194 0.215 4.2199998
-1.1670001 0.215 4.2160001
-1.141 0.214 4.2179999
-1.11 0.213 4.1999998
-1.085 0.213 4.204
-1.0599999 0.213 4.2090001
-1.077 0.222 4.382
-1.044 0.22 4.3590002
-1.013 0.219 4.3410001
-0.99800003 0.221 4.3870001
-1.0089999 0.229 4.5609999
-0.977 0.228 4.5380001
-0.949 0.228 4.5359998
-0.90700001 0.22400001 4.4619999
-0.89300001 0.227 4.526
-0.83700001 0.219 4.3720002
-0.824 0.222 4.4450002
-0.81300002 0.226 4.5320001
-0.778 0.22400001 4.4829998
-0.73500001 0.21799999 4.3800001
-0.71700001 0.221 4.4310002
-0.69199997 0.221 4.4380002
-0.65799999 0.21799999 4.382
-0.63599998 0.219 4.4070001
-0.602 0.21600001 4.348
-0.574 0.215 4.329
-0.546 0.214 4.3070002
-0.52200001 0.214 4.309
-0.49700001 0.214 4.3080001
-0.472 0.213 4.3080001
-0.44800001 0.214 4.3140001
-0.42199999 0.213 4.303
-0.39700001 0.213 4.2969999
-0.373 0.213 4.3049998
-0.34799999 0.212 4.2989998
-0.32300001 0.212 4.296
-0.29800001 0.212 4.2940001
-0.273 0.211 4.2779999
-0.249 0.211 4.2789998
-0.22400001 0.211 4.277
-0.2 0.211 4.2750001
-0.175 0.20999999 4.2659998
-0.15099999 0.211 4.2740002
-0.127 0.20999999 4.2670002
-0.102 0.20999999 4.2620001
-0.078000002 0.20999999 4.263
-0.054000001 0.20999999 4.2659998
-0.029999999 0.20999999 4.257
-0.0060000001 0.20999999 4.2610002
0.017000001 0.20999999 4.2579999
0.041000001 0.20999999 4.2529998
0.064999998 0.20999999 4.2529998
0.089000002 0.20900001 4.25
0.113 0.20900001 4.25
0.138 0.20900001 4.2480001
0.161 0.20900001 4.244
0.185 0.20900001 4.2420001
0.20999999 0.20900001 4.2470002
0.234 0.20900001 4.244
0.257 0.20900001 4.2360001
0.28099999 0.20900001 4.237
0.30599999 0.20900001 4.2389998
0.33000001 0.20999999 4.2410002
0.354 0.20900001 4.2340002
0.37799999 0.20900001 4.2329998
0.40200001 0.20900001 4.2290001
0.426 0.20999999 4.2340002
0.45199999 0.20999999 4.243
0.47499999 0.20999999 4.2340002
0.5 0.20999999 4.2379999
0.52399999 0.20999999 4.2379999
0.54799998 0.20999999 4.2309999
0.57200003 0.20999999 4.2270002
0.59600002 0.20999999 4.2280002
0.62199998 0.211 4.2319999
0.64600003 0.211 4.2290001
0.67000002 0.211 4.2259998
0.69400001 0.211 4.2220001
0.71799999 0.211 4.2179999
0.745 0.211 4.2270002
0.76800001 0.211 4.217
0.79400003 0.211 4.224
0.81800002 0.211 4.217
0.84100002 0.211 4.2090001
0.86799997 0.212 4.2160001
0.89099997 0.211 4.2059999
0.91600001 0.212 4.204
0.94 0.212 4.198
0.96600002 0.212 4.2020001
0.99000001 0.212 4.1960001
1.018 0.213 4.204
1.043 0.213 4.2020001
1.067 0.213 4.197
1.0930001 0.213 4.1950002
1.118 0.213 4.1929998
1.143 0.213 4.1890001
1.168 0.213 4.1849999
1.194 0.214 4.184
1.219 0.214 4.1799998
1.244 0.214 4.1739998
1.27 0.214 4.1739998
1.2970001 0.215 4.1750002
1.323 0.215 4.1729999
1.348 0.215 4.165
1.374 0.215 4.164
1.402 0.215 4.164
1.429 0.21600001 4.165
1.455 0.21600001 4.1609998
1.4809999 0.21600001 4.1550002
1.5089999 0.21699999 4.1570001
1.536 0.21699999 4.1539998
1.564 0.21699999 4.1539998
1.592 0.21799999 4.1529999
1.619 0.21799999 4.1500001
1.647 0.21799999 4.1479998
1.677 0.219 4.1529999
1.704 0.219 4.1490002
1.73 0.22 4.1420002
1.758 0.22 4.1370001
1.785 0.22 4.1329999
1.814 0.221 4.132
1.845 0.221 4.1339998
1.873 0.222 4.1300001
1.9 0.222 4.1240001
1.9299999 0.222 4.1230001
1.961 0.223 4.1240001
1.9910001 0.223 4.1230001
2.0220001 0.22400001 4.1220002
2.052 0.22499999 4.1199999
2.0799999 0.22499999 4.112
2.1140001 0.226 4.1170001
2.1440001 0.226 4.1129999
2.175 0.227 4.1110001
2.2090001 0.227 4.1149998
2.2360001 0.228 4.1040001
2.2709999 0.228 4.1069999
2.3010001 0.229 4.1020002
-2.4360001 0.27000001 4.355
-2.3929999 0.26899999 4.3410001
-2.3629999 0.26800001 4.3499999
-2.336 0.26800001 4.3649998
-2.299 0.26699999 4.3600001
-2.27 0.26699999 4.3709998
-2.2390001 0.26699999 4.3759999
-2.211 0.26699999 4.3870001
-2.177 0.266 4.388
-2.141 0.26499999 4.381
-2.109 0.264 4.3839998
-2.0769999 0.264 4.3860002
-2.049 0.264 4.3959999
-2.0120001 0.26300001 4.3850002
-1.983 0.26199999 4.3909998
-1.95 0.26199999 4.3899999
-1.916 0.25999999 4.3829999
-1.8839999 0.25999999 4.381
-1.849 0.259 4.3740001
-1.821 0.25799999 4.3790002
-1.786 0.257 4.3699999
-1.756 0.257 4.3720002
-1.728 0.257 4.375
-1.665 0.25099999 4.2919998
-1.6 0.245 4.197
-1.551 0.241 4.1420002
-1.512 0.23899999 4.1110001
-1.48 0.23800001 4.1009998
-1.472 0.241 4.1550002
-1.436 0.23899999 4.132
-1.411 0.23899999 4.1370001
-1.385 0.23899999 4.1420002
-1.3940001 0.245 4.2509999
-1.38 0.24699999 4.2930002
-1.36 0.248 4.3189998
-1.332 0.24699999 4.3179998
-1.286 0.243 4.257
-1.252 0.242 4.2340002
-1.223 0.241 4.2270002
-1.187 0.23899999 4.1929998
-1.1670001 0.23899999 4.2150002
-1.136 0.23800001 4.198
-1.114 0.23899999 4.2129998
-1.082 0.237 4.1900001
-1.059 0.237 4.2020001
-1.073 0.24600001 4.3639998
-1.053 0.248 4.3940001
-1.024 0.24699999 4.3829999
-1.003 0.248 4.4099998
-0.98699999 0.25 4.4569998
-0.97500002 0.25400001 4.526
-0.96600002 0.25799999 4.6139998
-0.89999998 0.248 4.4260001
-0.86900002 0.24600001 4.401
-0.85100001 0.248 4.447
-0.82499999 0.248 4.4460001
-0.80299997 0.249 4.473
-0.76800001 0.24600001 4.421
-0.745 0.24699999 4.4400001
-0.72100002 0.24699999 4.4530001
-0.69 0.24600001 4.4260001
-0.63099998 0.233 4.204
-0.61900002 0.23800001 4.2880001
-0.60699999 0.243 4.3860002
-0.574 0.23899999 4.3239999
-0.546 0.23800001 4.302
-0.52200001 0.23800001 4.3070002
-0.49700001 0.23800001 4.3049998
-0.47099999 0.23800001 4.3000002
-0.447 0.23800001 4.3070002
-0.42199999 0.23800001 4.3049998
-0.398 0.23800001 4.3060002
-0.373 0.237 4.3010001
-0.34799999 0.237 4.2979999
-0.32300001 0.237 4.296
-0.29800001 0.236 4.2930002
-0.273 0.236 4.2839999
-0.248 0.235 4.276
-0.22499999 0.236 4.2849998
-0.2 0.235 4.2729998
-0.176 0.235 4.2789998
-0.15099999 0.235 4.2680001
-0.127 0.235 4.2670002
-0.102 0.234 4.2639999
-0.078000002 0.234 4.2600002
-0.054000001 0.234 4.2610002
-0.029999999 0.234 4.2589998
-0.0060000001 0.234 4.2579999
0.017000001 0.234 4.2550001
0.041000001 0.234 4.2529998
0.064999998 0.234 4.2509999
0.089000002 0.234 4.2480001
0.113 0.233 4.244
0.13699999 0.234 4.2459998
0.161 0.233 4.243
0.186 0.234 4.2459998
0.20999999 0.234 4.244
0.234 0.234 4.2420001
0.257 0.233 4.237
0.28200001 0.233 4.2360001
0.30599999 0.233 4.2350001
0.329 0.233 4.2270002
0.354 0.233 4.2329998
0.37799999 0.233 4.23
0.40200001 0.234 4.2319999
0.42699999 0.234 4.2340002
0.45100001 0.234 4.2340002
0.47499999 0.234 4.2360001
0.49900001 0.234 4.2280002
0.52399999 0.235 4.237
0.54900002 0.235 4.2350001
0.57200003 0.234 4.23
0.597 0.235 4.2309999
0.62099999 0.235 4.2280002
0.64600003 0.235 4.23
0.67000002 0.235 4.223
0.69400001 0.235 4.2199998
0.72000003 0.235 4.2259998
0.74299997 0.235 4.2150002
0.76800001 0.235 4.2189999
0.792 0.235 4.21
0.81800002 0.236 4.2179999
0.84200001 0.236 4.211
0.86699998 0.236 4.2129998
0.89200002 0.236 4.2119999
0.91600001 0.236 4.2049999
0.94 0.236 4.198
0.96700001 0.237 4.2059999
0.99299997 0.237 4.2059999
1.017 0.237 4.1999998
1.043 0.237 4.1999998
1.068 0.237 4.1989999
1.091 0.237 4.1890001
1.1160001 0.237 4.1859999
1.142 0.23800001 4.1849999
1.168 0.23800001 4.184
1.194 0.23800001 4.1820002
1.2180001 0.23800001 4.1760001
1.2460001 0.23899999 4.1799998
1.271 0.23899999 4.1750002
1.2970001 0.23899999 4.1719999
1.323 0.23899999 4.1719999
1.349 0.23999999 4.1690001
1.375 0.23999999 4.1659999
1.401 0.23999999 4.1609998
1.431 0.241 4.1690001
1.454 0.241 4.158
1.484 0.242 4.1620002
1.51 0.242 4.1599998
1.538 0.242 4.1570001
1.564 0.243 4.1539998
1.592 0.243 4.1539998
1.62 0.243 4.152
1.648 0.244 4.151
1.677 0.244 4.151
1.704 0.245 4.1459999
1.73 0.245 4.1399999
1.761 0.24600001 4.145
1.791 0.24600001 4.145
1.816 0.24600001 4.1350002
1.847 0.24699999 4.1370001
1.873 0.24699999 4.1290002
1.904 0.248 4.131
1.931 0.248 4.1240001
1.961 0.249 4.1220002
1.993 0.249 4.125
2.0250001 0.25 4.1259999
2.052 0.25 4.118
2.0840001 0.25099999 4.1199999
2.112 0.25099999 4.112
2.142 0.252 4.1090002
2.178 0.25299999 4.1149998
2.207 0.25299999 4.1079998
2.24 0.25400001 4.1090002
2.2720001 0.255 4.1079998
2.306 0.25600001 4.1079998
-2.4089999 0.29499999 4.3060002
-2.375 0.294 4.3080001
-2.339 0.29300001 4.3060002
-2.313 0.29300001 4.3200002
-2.289 0.294 4.3400002
-2.2520001 0.29300001 4.335
-2.2190001 0.292 4.336
-2.191 0.292 4.3470001
-2.1600001 0.29100001 4.3509998
-2.1270001 0.29100001 4.3520002
-2.0929999 0.28999999 4.349
-2.0569999 0.28799999 4.3410001
-2.027 0.28799999 4.3470001
-1.999 0.28799999 4.3540001
-1.957 0.28600001 4.3330002
-1.934 0.28600001 4.3520002
-1.903 0.285 4.3520002
-1.872 0.285 4.3520002
-1.84 0.28400001 4.3509998
-1.809 0.28299999 4.349
-1.775 0.28200001 4.3410001
-1.7460001 0.28200001 4.3439999
-1.71 0.28 4.3280001
-1.671 0.278 4.3049998
-1.619 0.27399999 4.2449999
-1.567 0.26899999 4.184
-1.5369999 0.26800001 4.178
-1.505 0.26699999 4.1690001
-1.487 0.26800001 4.197
-1.45 0.266 4.1700001
-1.424 0.266 4.1760001
-1.41 0.26800001 4.2160001
-1.396 0.27000001 4.256
-1.3789999 0.27200001 4.2880001
-1.351 0.271 4.2880001
-1.327 0.27200001 4.3000002
-1.295 0.27000001 4.2859998
-1.258 0.26800001 4.2519999
-1.238 0.26899999 4.277
-1.206 0.26699999 4.2579999
-1.178 0.26699999 4.2529998
-1.154 0.26699999 4.2639999
-1.119 0.26499999 4.2319999
-1.099 0.266 4.2550001
-1.081 0.26800001 4.2909999
-1.073 0.27200001 4.3670001
-1.048 0.27200001 4.3699999
-1.018 0.271 4.3590002
-0.99900001 0.27200001 4.3889999
-0.99199998 0.27700001 4.4790001
-0.95700002 0.27500001 4.4400001
-0.93199998 0.27500001 4.4499998
-0.89300001 0.271 4.3909998
-0.88999999 0.278 4.506
-0.85100001 0.27399999 4.447
-0.81400001 0.27000001 4.3860002
-0.81 0.27700001 4.5100002
-0.77399999 0.27399999 4.4559999
-0.73900002 0.271 4.4060001
-0.71399999 0.271 4.4099998
-0.68400002 0.26899999 4.3860002
-0.65799999 0.26899999 4.3839998
-0.63599998 0.27000001 4.4029999
-0.61500001 0.271 4.4369998
-0.57800001 0.266 4.3530002
-0.54699999 0.26300001 4.3099999
-0.52200001 0.26300001 4.309
-0.49599999 0.26199999 4.302
-0.47 0.26199999 4.2919998
-0.44600001 0.26199999 4.2950001
-0.42199999 0.26199999 4.302
-0.398 0.26199999 4.3060002
-0.37200001 0.26100001 4.296
-0.347 0.26100001 4.2919998
-0.32300001 0.26100001 4.2880001
-0.29899999 0.26100001 4.2950001
-0.27399999 0.26100001 4.2930002
-0.25 0.26100001 4.302
-0.22499999 0.26100001 4.2989998
-0.20100001 0.26100001 4.2969999
-0.176 0.25999999 4.2870002
-0.152 0.25999999 4.283
-0.127 0.25999999 4.2779999
-0.103 0.259 4.2740002
-0.078000002 0.259 4.2729998
-0.054000001 0.259 4.2670002
-0.029999999 0.259 4.2659998
-0.0060000001 0.259 4.2620001
0.017000001 0.25799999 4.256
0.041000001 0.25799999 4.2550001
0.064999998 0.25799999 4.2519999
0.089000002 0.25799999 4.2519999
0.114 0.25799999 4.2509999
0.138 0.25799999 4.25
0.162 0.25799999 4.2480001
0.186 0.25799999 4.243
0.20900001 0.257 4.2379999
0.234 0.25799999 4.2399998
0.25799999 0.25799999 4.237
0.28099999 0.257 4.2340002
0.30599999 0.25799999 4.2399998
0.33000001 0.257 4.2319999
0.354 0.25799999 4.2379999
0.37799999 0.25799999 4.2329998
0.40200001 0.25799999 4.23
0.42699999 0.25799999 4.2360001
0.45199999 0.259 4.244
0.47600001 0.259 4.2389998
0.5 0.259 4.2360001
0.52399999 0.259 4.2340002
0.54799998 0.259 4.2319999
0.57300001 0.259 4.2360001
0.597 0.259 4.2290001
0.62199998 0.259 4.2340002
0.64499998 0.259 4.2179999
0.67000002 0.259 4.223
0.69499999 0.259 4.2249999
0.72000003 0.25999999 4.2280002
0.74400002 0.25999999 4.2210002
0.76700002 0.259 4.2129998
0.792 0.259 4.2090001
0.81699997 0.25999999 4.2119999
0.84399998 0.26100001 4.2210002
0.86699998 0.25999999 4.2090001
0.89200002 0.26100001 4.21
0.917 0.26100001 4.2080002
0.94300002 0.26100001 4.2090001
0.96700001 0.26100001 4.2030001
0.99199998 0.26100001 4.2010002
1.017 0.26100001 4.1989999
1.0420001 0.26199999 4.197
1.068 0.26199999 4.198
1.0930001 0.26199999 4.1919999
1.117 0.26199999 4.1869998
1.1440001 0.26300001 4.1890001
1.168 0.26300001 4.184
1.1950001 0.26300001 4.184
1.219 0.26300001 4.178
1.244 0.26300001 4.1719999
1.272 0.264 4.177
1.298 0.264 4.1760001
1.323 0.264 4.1680002
1.351 0.26499999 4.171
1.377 0.26499999 4.1680002
1.401 0.26499999 4.1589999
1.427 0.26499999 4.1570001
1.455 0.266 4.1570001
1.484 0.26699999 4.1630001
1.508 0.266 4.152
1.538 0.26699999 4.1570001
1.5650001 0.26800001 4.1550002
1.595 0.26800001 4.158
1.62 0.26800001 4.1500001
1.648 0.26899999 4.1490002
1.675 0.26899999 4.145
1.7029999 0.27000001 4.1430001
1.732 0.27000001 4.1430001
1.762 0.271 4.145
1.789 0.271 4.1399999
1.816 0.27200001 4.1329999
1.844 0.27200001 4.1300001
1.874 0.273 4.1290002
1.903 0.273 4.1259999
1.936 0.27399999 4.132
1.964 0.27500001 4.1269999
1.994 0.27500001 4.1259999
2.0239999 0.27599999 4.1240001
2.053 0.27599999 4.119
2.0840001 0.27700001 4.118
2.1170001 0.278 4.1199999
2.1470001 0.27900001 4.1160002
2.177 0.27900001 4.1110001
2.2090001 0.28 4.1110001
2.243 0.28099999 4.1129999
2.2720001 0.28099999 4.105
2.306 0.28200001 4.1079998
-2.3870001 0.31999999 4.2639999
-2.3640001 0.31999999 4.2849998
-2.3239999 0.31900001 4.276
-2.2950001 0.31799999 4.2849998
-2.2639999 0.31799999 4.29
-2.2320001 0.317 4.2940001
-2.201 0.317 4.2979999
-2.1700001 0.31600001 4.303
-2.138 0.315 4.3049998
-2.1070001 0.315 4.3080001
-2.0780001 0.31400001 4.3150001
-2.0369999 0.31200001 4.2969999
-2.0009999 0.31099999 4.289
-1.984 0.31200001 4.3200002
-1.949 0.31099999 4.3119998
-1.923 0.31099999 4.3260002
-1.893 0.31099999 4.3270001
-1.86 0.31 4.3239999
-1.834 0.31 4.335
-1.804 0.30899999 4.336
-1.765 0.30700001 4.316
-1.733 0.30599999 4.309
-1.7 0.30500001 4.302
-1.659 0.30199999 4.2740002
-1.6160001 0.29899999 4.237
-1.579 0.29699999 4.2160001
-1.543 0.29499999 4.1950002
-1.512 0.294 4.1849999
-1.4859999 0.29300001 4.1919999
-1.46 0.29300001 4.197
-1.439 0.294 4.217
-1.4170001 0.29499999 4.2329998
-1.39 0.294 4.2360001
-1.37 0.296 4.2610002
-1.3430001 0.29499999 4.2620001
-1.322 0.296 4.2839999
-1.2970001 0.296 4.2909999
-1.272 0.296 4.2989998
-1.243 0.29499999 4.2919998
-1.217 0.29499999 4.2950001
-1.188 0.294 4.29
-1.16 0.29300001 4.2839999
-1.1390001 0.29499999 4.3070002
-1.113 0.294 4.3099999
-1.0829999 0.29300001 4.2969999
-1.057 0.29300001 4.2989998
-1.034 0.29300001 4.3099999
-1.006 0.29300001 4.3070002
-0.98000002 0.292 4.3070002
-0.95300001 0.292 4.302
-0.94 0.29499999 4.362
-0.90899998 0.294 4.3400002
-0.88499999 0.294 4.3520002
-0.847 0.28999999 4.289
-0.84899998 0.29899999 4.4320002
-0.82800001 0.30000001 4.461
-0.76899999 0.28799999 4.2800002
-0.764 0.296 4.4000001
-0.74299997 0.29699999 4.428
-0.71700001 0.29699999 4.427
-0.68400002 0.294 4.381
-0.64899999 0.289 4.3189998
-0.63499999 0.29499999 4.3990002
-0.616 0.29699999 4.4429998
-0.57599998 0.28999999 4.336
-0.54799998 0.289 4.3179998
-0.523 0.28799999 4.316
-0.49599999 0.287 4.3010001
-0.47 0.28600001 4.283
-0.44 0.28299999 4.2379999
-0.419 0.285 4.2719998
-0.39899999 0.28799999 4.3150001
-0.373 0.28600001 4.3000002
-0.34799999 0.28600001 4.2930002
-0.32300001 0.285 4.29
-0.29800001 0.285 4.2909999
-0.27200001 0.28299999 4.263
-0.248 0.28400001 4.2659998
-0.22400001 0.28400001 4.276
-0.2 0.285 4.2870002
-0.175 0.28400001 4.2719998
-0.15099999 0.28400001 4.2709999
-0.127 0.28400001 4.2729998
-0.103 0.28299999 4.2680001
-0.079000004 0.28400001 4.2800002
-0.054000001 0.28400001 4.2800002
-0.029999999 0.28400001 4.2750001
-0.0060000001 0.28400001 4.2810001
0.017000001 0.28400001 4.2719998
0.041000001 0.28299999 4.263
0.066 0.28299999 4.2690001
0.090000004 0.28299999 4.2639999
0.114 0.28299999 4.2589998
0.138 0.28299999 4.2540002
0.162 0.28299999 4.2649999
0.18700001 0.28400001 4.2680001
0.211 0.28299999 4.2620001
0.235 0.28400001 4.2670002
0.259 0.28299999 4.257
0.28299999 0.28299999 4.2610002
0.30700001 0.28299999 4.2519999
0.331 0.28299999 4.2550001
0.35600001 0.28299999 4.2529998
0.38 0.28299999 4.2509999
0.40400001 0.28299999 4.2490001
0.42699999 0.28200001 4.2340002
0.45100001 0.28299999 4.2340002
0.47499999 0.28299999 4.2340002
0.5 0.28299999 4.2340002
0.52399999 0.28299999 4.2329998
0.54900002 0.28299999 4.2350001
0.574 0.28400001 4.2389998
0.59799999 0.28400001 4.2350001
0.62300003 0.28400001 4.2360001
0.64600003 0.28299999 4.2249999
0.671 0.28400001 4.2259998
0.69499999 0.28400001 4.2220001
0.72000003 0.28400001 4.224
0.74400002 0.28400001 4.2179999
0.76800001 0.28400001 4.217
0.79299998 0.28400001 4.2160001
0.81800002 0.28400001 4.2129998
0.84200001 0.28400001 4.2090001
0.86799997 0.285 4.2129998
0.89200002 0.285 4.2059999
0.91600001 0.285 4.2030001
0.94099998 0.285 4.2020001
0.96700001 0.285 4.2010002
0.99199998 0.28600001 4.2010002
1.018 0.28600001 4.204
1.0420001 0.28600001 4.1950002
1.067 0.28600001 4.1919999
1.092 0.28600001 4.1890001
1.1160001 0.28600001 4.1830001
1.143 0.287 4.1859999
1.168 0.287 4.1810002
1.194 0.28799999 4.1810002
1.221 0.28799999 4.1830001
1.245 0.28799999 4.1750002
1.273 0.289 4.178
1.296 0.28799999 4.1669998
1.323 0.289 4.1680002
1.35 0.289 4.1690001
1.373 0.289 4.1550002
1.401 0.28999999 4.1589999
1.4299999 0.29100001 4.1630001
1.454 0.29100001 4.1539998
1.4809999 0.29100001 4.1529999
1.508 0.29100001 4.151
1.5369999 0.292 4.1529999
1.564 0.29300001 4.152
1.589 0.29300001 4.1420002
1.618 0.29300001 4.145
1.646 0.294 4.1430001
1.676 0.29499999 4.1459999
1.7029999 0.29499999 4.1409998
1.732 0.296 4.1409998
1.762 0.29699999 4.1440001
1.786 0.296 4.1300001
1.817 0.29699999 4.1350002
1.845 0.29800001 4.1290002
1.874 0.29800001 4.1279998
1.905 0.29899999 4.1300001
1.933 0.30000001 4.125
1.9630001 0.30000001 4.1240001
1.993 0.301 4.1209998
2.0220001 0.301 4.118
2.0539999 0.30199999 4.118
2.0829999 0.303 4.1139998
2.1129999 0.303 4.1110001
2.145 0.30399999 4.1100001
2.178 0.30500001 4.112
2.2079999 0.30599999 4.1079998
2.243 0.30700001 4.1129999
2.2720001 0.30700001 4.1040001
2.3080001 0.30899999 4.1090002
-2.3710001 0.345 4.2340002
-2.345 0.345 4.25
-2.3110001 0.34400001 4.25
-2.277 0.34299999 4.2490001
-2.2490001 0.34299999 4.2600002
-2.217 0.34200001 4.263
-2.1800001 0.34099999 4.2550001
-2.148 0.34 4.257
-2.1159999 0.33899999 4.2600002
-2.0710001 0.336 4.2319999
-2.0480001 0.33700001 4.2519999
-2.0239999 0.33700001 4.2670002
-1.9910001 0.336 4.2649999
-1.969 0.33700001 4.2870002
-1.938 0.336 4.2870002
-1.904 0.33500001 4.2789998
-1.878 0.33500001 4.2909999
-1.84 0.333 4.2750001
-1.811 0.33199999 4.277
-1.781 0.331 4.2789998
-1.75 0.33000001 4.277
-1.724 0.33000001 4.2849998
-1.683 0.32800001 4.257
-1.649 0.32600001 4.2459998
-1.617 0.32499999 4.2389998
-1.585 0.32300001 4.2280002
-1.554 0.322 4.223
-1.523 0.32100001 4.2150002
-1.4960001 0.32100001 4.2189999
-1.471 0.32100001 4.2290001
-1.442 0.31999999 4.2249999
-1.411 0.31900001 4.2150002
-1.392 0.31999999 4.2420001
-1.363 0.31900001 4.2360001
-1.3380001 0.31900001 4.2449999
-1.316 0.31999999 4.263
-1.2920001 0.31999999 4.2740002
-1.262 0.31900001 4.2620001
-1.234 0.31799999 4.2610002
-1.209 0.31799999 4.2649999
-1.1799999 0.317 4.257
-1.154 0.317 4.2600002
-1.1289999 0.317 4.2670002
-1.103 0.317 4.2690001
-1.075 0.31600001 4.263
-1.051 0.31600001 4.2709999
-1.021 0.31400001 4.2550001
-0.99400002 0.31400001 4.25
-0.95999998 0.31099999 4.2150002
-0.91000003 0.30199999 4.1030002
-0.87800002 0.30000001 4.0710001
-0.85900003 0.301 4.099
-0.833 0.30000001 4.0890002
-0.80599999 0.29899999 4.0799999
-0.78600001 0.30000001 4.099
-0.755 0.29800001 4.0640001
-0.72500002 0.29499999 4.0300002
-0.70700002 0.29699999 4.0679998
-0.69099998 0.30000001 4.112
-0.671 0.30199999 4.1370001
-0.64499998 0.301 4.1259999
-0.62599999 0.303 4.1630001
-0.611 0.308 4.2290001
-0.59100002 0.31 4.2649999
-0.56099999 0.30700001 4.2210002
-0.54100001 0.30899999 4.2579999
-0.51499999 0.308 4.2480001
-0.49000001 0.308 4.2410002
-0.465 0.30700001 4.2379999
-0.43599999 0.30399999 4.191
-0.41100001 0.303 4.1810002
-0.39399999 0.308 4.2600002
-0.37 0.308 4.2620001
-0.34599999 0.30899999 4.276
-0.322 0.30899999 4.276
-0.29699999 0.30899999 4.2719998
-0.271 0.30700001 4.244
-0.24600001 0.30599999 4.2329998
-0.221 0.30399999 4.2059999
-0.19400001 0.30000001 4.152
-0.171 0.29899999 4.1490002
-0.148 0.301 4.1669998
-0.124 0.301 4.1750002
-0.101 0.30199999 4.191
-0.077 0.301 4.1799998
-0.052999999 0.30199999 4.1939998
-0.029999999 0.303 4.2069998
-0.0060000001 0.30399999 4.217
0.017000001 0.30399999 4.2199998
0.041000001 0.30500001 4.2340002
0.064999998 0.30599999 4.2480001
0.089000002 0.30599999 4.2490001
0.114 0.30700001 4.2579999
0.138 0.30700001 4.2550001
0.162 0.30700001 4.2579999
0.18700001 0.308 4.2639999
0.211 0.308 4.2649999
0.235 0.308 4.2600002
0.259 0.308 4.2620001
0.28299999 0.308 4.2610002
0.308 0.308 4.2649999
0.33199999 0.308 4.2620001
0.35699999 0.308 4.2659998
0.38100001 0.30899999 4.2649999
0.405 0.308 4.2620001
0.428 0.30700001 4.2410002
0.45199999 0.30700001 4.2379999
0.47600001 0.30700001 4.2350001
0.50099999 0.308 4.2420001
0.52399999 0.30700001 4.2319999
0.54900002 0.308 4.2360001
0.574 0.308 4.2350001
0.59799999 0.308 4.2360001
0.62300003 0.308 4.2360001
0.64600003 0.308 4.2270002
0.67199999 0.308 4.2309999
0.69700003 0.30899999 4.2350001
0.72000003 0.30899999 4.2259998
0.745 0.30899999 4.2259998
0.76999998 0.30899999 4.2220001
0.79400003 0.30899999 4.2199998
0.81999999 0.31 4.223
0.84299999 0.30899999 4.2150002
0.86900002 0.31 4.2160001
0.89300001 0.30899999 4.2090001
0.91900003 0.31 4.2140002
0.94300002 0.31 4.2090001
0.96700001 0.31 4.2030001
0.99299997 0.31 4.2030001
1.018 0.31099999 4.1989999
1.045 0.31099999 4.2049999
1.068 0.31099999 4.1950002
1.092 0.31099999 4.1890001
1.118 0.31099999 4.1869998
1.143 0.31099999 4.1830001
1.17 0.31200001 4.1869998
1.1950001 0.31200001 4.1810002
1.22 0.31299999 4.1789999
1.2460001 0.31299999 4.1750002
1.273 0.31299999 4.1760001
1.299 0.31400001 4.1739998
1.324 0.31400001 4.1680002
1.35 0.31400001 4.165
1.376 0.31400001 4.1620002
1.403 0.315 4.164
1.429 0.315 4.1589999
1.459 0.31600001 4.1659999
1.482 0.31600001 4.1539998
1.511 0.317 4.1570001
1.536 0.317 4.1500001
1.566 0.31799999 4.1539998
1.594 0.31900001 4.1529999
1.6210001 0.31900001 4.1490002
1.648 0.31900001 4.1459999
1.677 0.31999999 4.1469998
1.704 0.31999999 4.1409998
1.7359999 0.322 4.1500001
1.761 0.322 4.138
1.7869999 0.322 4.132
1.8150001 0.322 4.1279998
1.848 0.324 4.1350002
1.875 0.324 4.1279998
1.9069999 0.32499999 4.1329999
1.936 0.32600001 4.1300001
1.965 0.32600001 4.1259999
1.995 0.32699999 4.125
2.027 0.32800001 4.1259999
2.056 0.329 4.1209998
2.085 0.329 4.1160002
2.119 0.33000001 4.1199999
2.1489999 0.331 4.118
2.1789999 0.33199999 4.112
2.2090001 0.33199999 4.1079998
