# .PCD v0.7 - Point Cloud Data file format
VERSION 0.7
FIELDS x y z
SIZE 4 4 4
TYPE F F F
COUNT 1 1 1
WIDTH 1667
HEIGHT 1
VIEWPOINT 0 0 0 1 0 0 0
POINTS 1667
DATA ascii
1.4220001 -0.83399999 3.993
1.448 -0.83499998 3.9920001
1.476 -0.83700001 3.9920001
1.5 -0.83700001 3.984
1.524 -0.83700001 3.9760001
1.554 -0.83899999 3.9809999
1.584 -0.84299999 3.987
1.61 -0.84299999 3.9820001
1.632 -0.84200001 3.9660001
1.663 -0.84600002 3.9749999
1.691 -0.847 3.974
1.719 -0.84899998 3.9719999
1.745 -0.84899998 3.9649999
1.775 -0.852 3.967
1.806 -0.85500002 3.97
1.8279999 -0.85299999 3.954
1.86 -0.85699999 3.96
1.885 -0.85699999 3.95
1.919 -0.861 3.9579999
1.946 -0.86199999 3.951
1.975 -0.86400002 3.9489999
2 -0.86400002 3.937
2.039 -0.87 3.954
2.072 -0.87300003 3.9579999
2.0940001 -0.87099999 3.9389999
2.1159999 -0.87 3.921
2.151 -0.87400001 3.927
2.187 -0.87800002 3.9349999
2.2160001 -0.88 3.928
2.253 -0.884 3.9360001
-2.4549999 -0.94 4.309
-2.4119999 -0.935 4.2969999
-2.3710001 -0.92900002 4.2859998
-2.3329999 -0.92500001 4.2800002
-2.303 -0.92400002 4.29
-2.27 -0.92199999 4.2919998
-2.233 -0.91799998 4.2870002
-2.2 -0.91600001 4.2880001
-2.158 -0.91000003 4.2719998
-2.1300001 -0.91000003 4.2820001
-2.096 -0.90700001 4.2800002
-2.0599999 -0.903 4.2729998
-2.026 -0.89999998 4.27
-1.993 -0.89700001 4.2670002
-1.962 -0.89499998 4.2690001
-1.927 -0.89099997 4.2620001
-1.896 -0.889 4.263
-1.8660001 -0.88700002 4.2649999
-1.832 -0.884 4.257
-1.804 -0.88300002 4.2639999
-1.77 -0.87900001 4.256
-1.74 -0.87699997 4.256
-1.709 -0.875 4.2540002
-1.677 -0.87199998 4.2490001
-1.646 -0.87 4.2470002
-1.617 -0.86799997 4.2470002
-1.59 -0.86699998 4.2529998
-1.5549999 -0.86199999 4.237
-1.527 -0.861 4.2399998
-1.5 -0.861 4.2449999
-1.469 -0.85699999 4.237
-1.439 -0.85500002 4.2319999
-1.408 -0.852 4.2249999
-1.383 -0.852 4.2329998
-1.358 -0.852 4.2410002
-1.327 -0.84899998 4.2319999
-1.298 -0.84600002 4.2249999
-1.271 -0.84500003 4.2280002
-1.242 -0.84200001 4.2210002
-1.214 -0.84100002 4.2189999
-1.187 -0.83899999 4.2179999
-1.161 -0.838 4.2210002
-1.133 -0.83700001 4.2189999
-1.104 -0.83399999 4.21
-1.0779999 -0.833 4.2119999
-1.051 -0.83099997 4.2080002
-1.024 -0.829 4.204
-0.99699998 -0.82800001 4.2030001
-0.972 -0.82700002 4.204
-0.94700003 -0.82700002 4.2080002
-0.92000002 -0.82499999 4.2020001
-0.89200002 -0.82200003 4.1950002
-0.866 -0.82099998 4.1929998
-0.84200001 -0.82099998 4.197
-0.81400001 -0.81800002 4.1859999
-0.78799999 -0.81699997 4.184
-0.76200002 -0.815 4.1789999
-0.73900002 -0.81599998 4.1869998
-0.71200001 -0.81400001 4.1799998
-0.68900001 -0.815 4.1890001
-0.66000003 -0.80900002 4.1669998
-0.63700002 -0.81099999 4.177
-0.61199999 -0.80900002 4.1729999
-0.58700001 -0.80900002 4.1729999
-0.56199998 -0.80800003 4.1700001
-0.53600001 -0.80500001 4.1589999
-0.51200002 -0.80500001 4.1630001
-0.486 -0.80199999 4.1490002
-0.463 -0.80400002 4.1630001
-0.43900001 -0.80299997 4.1589999
-0.414 -0.801 4.152
-0.38999999 -0.801 4.152
-0.366 -0.801 4.1539998
-0.34 -0.79799998 4.1420002
-0.317 -0.80000001 4.1529999
-0.29300001 -0.79799998 4.145
-0.26800001 -0.79500002 4.1329999
-0.244 -0.796 4.1360002
-0.221 -0.79699999 4.1440001
-0.197 -0.79799998 4.1490002
-0.17299999 -0.79699999 4.145
-0.149 -0.79400003 4.131
-0.125 -0.79400003 4.131
-0.101 -0.792 4.1230001
-0.077 -0.79299998 4.1290002
-0.052999999 -0.79299998 4.131
-0.029999999 -0.792 4.1259999
-0.0060000001 -0.79000002 4.1139998
0.017000001 -0.792 4.1240001
0.041000001 -0.79299998 4.131
0.064000003 -0.792 4.125
0.088 -0.78899997 4.1079998
0.111 -0.79100001 4.1170001
0.13500001 -0.79100001 4.118
0.15899999 -0.79000002 4.1129999
0.182 -0.78799999 4.1020002
0.205 -0.787 4.0949998
0.229 -0.78799999 4.0999999
0.25299999 -0.78799999 4.099
0.27599999 -0.78799999 4.0949998
0.29899999 -0.787 4.0879998
0.324 -0.78899997 4.0999999
0.347 -0.78799999 4.0929999
0.37 -0.787 4.0840001
0.39399999 -0.78799999 4.0910001
0.419 -0.79000002 4.0949998
0.44299999 -0.79000002 4.0960002
0.465 -0.78899997 4.086
0.48899999 -0.78899997 4.0869999
0.51099998 -0.787 4.0710001
0.53500003 -0.787 4.0669999
0.56 -0.78899997 4.079
0.583 -0.78899997 4.0739999
0.60699999 -0.78899997 4.0710001
0.63200003 -0.79000002 4.073
0.65399998 -0.78899997 4.0619998
0.67799997 -0.78899997 4.059
0.70200002 -0.79000002 4.0609999
0.72500002 -0.78899997 4.0549998
0.75 -0.79100001 4.0580001
0.77499998 -0.792 4.0599999
0.79799998 -0.79100001 4.0510001
0.82200003 -0.79100001 4.0489998
0.847 -0.79299998 4.052
0.86900002 -0.79100001 4.04
0.89499998 -0.79299998 4.046
0.917 -0.79100001 4.0310001
0.94199997 -0.792 4.0320001
0.96700001 -0.79299998 4.0320001
0.98900002 -0.79299998 4.0229998
1.017 -0.796 4.0349998
1.039 -0.79400003 4.0209999
1.064 -0.79500002 4.02
1.09 -0.79699999 4.0209999
1.113 -0.796 4.013
1.143 -0.80000001 4.0289998
1.168 -0.801 4.026
1.189 -0.79900002 4.0110002
1.2180001 -0.80199999 4.02
1.2410001 -0.80199999 4.0100002
1.274 -0.80800003 4.033
1.295 -0.80599999 4.0170002
1.321 -0.80699998 4.0159998
1.3430001 -0.80599999 4.0009999
1.37 -0.80699998 4.0019999
1.395 -0.80800003 3.9990001
1.42 -0.80800003 3.993
1.448 -0.81 3.9960001
1.475 -0.81199998 3.9949999
1.5039999 -0.81400001 3.9979999
1.526 -0.81300002 3.984
1.556 -0.81599998 3.9909999
1.577 -0.81400001 3.974
1.609 -0.81800002 3.984
1.6339999 -0.81800002 3.9760001
1.663 -0.82099998 3.977
1.691 -0.82300001 3.9779999
1.721 -0.82499999 3.9809999
1.744 -0.824 3.9660001
1.771 -0.82499999 3.9619999
1.802 -0.82800001 3.967
1.832 -0.83099997 3.9690001
1.863 -0.833 3.97
1.89 -0.83399999 3.9649999
1.918 -0.83499998 3.961
1.952 -0.83899999 3.9690001
1.972 -0.83700001 3.947
2.0050001 -0.84100002 3.9530001
2.0369999 -0.84299999 3.954
2.066 -0.84500003 3.951
2.099 -0.84799999 3.954
2.122 -0.847 3.938
2.1559999 -0.85000002 3.941
2.1819999 -0.85100001 3.9300001
2.214 -0.85299999 3.9300001
2.25 -0.85699999 3.9360001
-2.447 -0.90899998 4.3000002
-2.4100001 -0.90600002 4.2979999
-2.3699999 -0.90100002 4.289
-2.336 -0.898 4.2909999
-2.3010001 -0.89600003 4.29
-2.27 -0.89399999 4.2969999
-2.234 -0.89099997 4.2930002
-2.1949999 -0.88700002 4.2839999
-2.1630001 -0.88499999 4.2870002
-2.1329999 -0.884 4.2940001
-2.0969999 -0.88 4.2870002
-2.063 -0.87699997 4.283
-2.0320001 -0.875 4.2870002
-1.993 -0.87 4.2729998
-1.962 -0.86799997 4.2750001
-1.934 -0.86799997 4.283
-1.899 -0.86400002 4.2729998
-1.859 -0.85799998 4.2550001
-1.836 -0.85900003 4.2729998
-1.801 -0.85500002 4.2610002
-1.7690001 -0.852 4.2579999
-1.739 -0.85100001 4.2600002
-1.71 -0.84899998 4.2620001
-1.681 -0.84799999 4.263
-1.646 -0.84299999 4.2490001
-1.6160001 -0.84100002 4.2480001
-1.5829999 -0.838 4.2389998
-1.55 -0.833 4.2259998
-1.53 -0.83700001 4.2509999
-1.495 -0.83200002 4.2350001
-1.466 -0.82999998 4.2340002
-1.443 -0.83099997 4.2480001
-1.41 -0.82700002 4.2329998
-1.38 -0.824 4.2290001
-1.3559999 -0.82499999 4.2399998
-1.327 -0.82300001 4.237
-1.2970001 -0.81999999 4.2280002
-1.271 -0.81900001 4.2309999
-1.24 -0.81599998 4.2189999
-1.211 -0.81400001 4.2150002
-1.1849999 -0.81300002 4.2179999
-1.16 -0.81300002 4.224
-1.132 -0.81099999 4.2189999
-1.108 -0.81099999 4.2290001
-1.08 -0.80900002 4.223
-1.051 -0.80599999 4.211
-1.022 -0.80299997 4.2020001
-0.99699998 -0.80299997 4.2059999
-0.97000003 -0.801 4.2020001
-0.94800001 -0.80299997 4.2160001
-0.91799998 -0.79799998 4.197
-0.89300001 -0.79799998 4.2010002
-0.86699998 -0.79699999 4.1989999
-0.83899999 -0.79400003 4.1869998
-0.81300002 -0.79299998 4.1859999
-0.79000002 -0.79299998 4.1950002
-0.76499999 -0.79299998 4.1989999
-0.73900002 -0.792 4.1939998
-0.71200001 -0.78899997 4.1830001
-0.68599999 -0.787 4.178
-0.66100001 -0.78600001 4.1760001
-0.63700002 -0.78600001 4.178
-0.61199999 -0.78600001 4.1799998
-0.58600003 -0.78200001 4.1659999
-0.56099999 -0.78200001 4.1700001
-0.537 -0.78200001 4.1690001
-0.51300001 -0.78200001 4.1739998
-0.48699999 -0.77899998 4.1609998
-0.463 -0.77899998 4.1609998
-0.43799999 -0.77700001 4.1539998
-0.414 -0.77700001 4.1560001
-0.38800001 -0.77399999 4.1420002
-0.36500001 -0.77499998 4.1490002
-0.34099999 -0.77499998 4.151
-0.317 -0.77499998 4.1550002
-0.292 -0.77200001 4.1409998
-0.26800001 -0.773 4.1430001
-0.245 -0.773 4.1500001
-0.221 -0.77200001 4.145
-0.197 -0.77200001 4.1430001
-0.17200001 -0.76899999 4.1279998
-0.149 -0.77200001 4.1440001
-0.125 -0.76899999 4.131
-0.101 -0.76999998 4.138
-0.077 -0.76999998 4.1350002
-0.052999999 -0.76800001 4.1269999
-0.029999999 -0.76800001 4.125
-0.0060000001 -0.76800001 4.1269999
0.017000001 -0.76899999 4.1329999
0.039999999 -0.76499999 4.1129999
0.064000003 -0.76599997 4.118
0.088 -0.76599997 4.118
0.111 -0.76700002 4.119
0.13500001 -0.76700002 4.1199999
0.15800001 -0.76499999 4.1079998
0.182 -0.764 4.1040001
0.206 -0.76599997 4.1139998
0.229 -0.76499999 4.1069999
0.252 -0.76300001 4.0960002
0.27599999 -0.76499999 4.1030002
0.30000001 -0.764 4.098
0.32300001 -0.764 4.098
0.347 -0.764 4.0939999
0.37099999 -0.76599997 4.0999999
0.39399999 -0.76499999 4.0960002
0.41800001 -0.764 4.0900002
0.44 -0.76200002 4.0770001
0.465 -0.76499999 4.0900002
0.48800001 -0.76300001 4.0780001
0.51300001 -0.76599997 4.0879998
0.53500003 -0.764 4.0770001
0.55900002 -0.764 4.0739999
0.58200002 -0.764 4.0700002
0.60600001 -0.764 4.0679998
0.62900001 -0.764 4.0630002
0.653 -0.764 4.0599999
0.67699999 -0.764 4.0599999
0.70200002 -0.76599997 4.0640001
0.72600001 -0.76700002 4.0650001
0.74699998 -0.764 4.0469999
0.773 -0.76599997 4.0539999
0.79799998 -0.76700002 4.0539999
0.82200003 -0.76800001 4.0549998
0.847 -0.76899999 4.0549998
0.87199998 -0.76999998 4.059
0.89300001 -0.76800001 4.0419998
0.91799998 -0.76899999 4.0409999
0.94400001 -0.76999998 4.0450001
0.96700001 -0.76999998 4.0370002
0.99199998 -0.77100003 4.0359998
1.0190001 -0.773 4.046
1.04 -0.77100003 4.0279999
1.066 -0.773 4.0310001
1.092 -0.77399999 4.0339999
1.119 -0.77600002 4.039
1.142 -0.77600002 4.0310001
1.163 -0.77399999 4.013
1.189 -0.77499998 4.0149999
1.214 -0.77600002 4.0120001
1.243 -0.77899998 4.0209999
1.268 -0.77999997 4.0190001
1.295 -0.78100002 4.02
1.317 -0.77999997 4.007
1.342 -0.78100002 4.0029998
1.373 -0.78399998 4.0139999
1.397 -0.78399998 4.006
1.423 -0.78600001 4.006
1.449 -0.78600001 4.0009999
1.473 -0.787 3.994
1.501 -0.78799999 3.9949999
1.528 -0.79000002 3.994
1.553 -0.79000002 3.9879999
1.579 -0.79100001 3.983
1.6109999 -0.79400003 3.993
1.638 -0.796 3.9920001
1.663 -0.796 3.983
1.6900001 -0.79699999 3.98
1.721 -0.80000001 3.9849999
1.749 -0.80199999 3.9820001
1.774 -0.80199999 3.974
1.8 -0.80199999 3.9660001
1.8329999 -0.80599999 3.974
1.859 -0.80599999 3.967
1.891 -0.81 3.9719999
1.921 -0.81199998 3.9719999
1.944 -0.81099999 3.957
1.972 -0.81199998 3.951
2.0050001 -0.815 3.957
2.033 -0.81599998 3.9519999
2.069 -0.82099998 3.961
2.0969999 -0.82200003 3.9549999
2.1270001 -0.824 3.9519999
2.158 -0.82599998 3.95
2.1889999 -0.82800001 3.948
2.22 -0.82999998 3.944
2.2420001 -0.82800001 3.9260001
-2.4549999 -0.884 4.3189998
-2.4000001 -0.87400001 4.2859998
-2.372 -0.87400001 4.2979999
-2.339 -0.87199998 4.3010001
-2.2969999 -0.86699998 4.289
-2.2679999 -0.866 4.2989998
-2.2320001 -0.86299998 4.2950001
-2.1919999 -0.85799998 4.2820001
-2.1619999 -0.85699999 4.29
-2.128 -0.85399997 4.2859998
-2.096 -0.852 4.289
-2.062 -0.84899998 4.2870002
-2.029 -0.847 4.2849998
-1.999 -0.84500003 4.289
-1.964 -0.84200001 4.2839999
-1.9299999 -0.83899999 4.277
-1.893 -0.83399999 4.2649999
-1.869 -0.83600003 4.2820001
-1.83 -0.82999998 4.2620001
-1.8049999 -0.82999998 4.276
-1.767 -0.82499999 4.257
-1.738 -0.824 4.2600002
-1.7079999 -0.82200003 4.2620001
-1.674 -0.81800002 4.25
-1.646 -0.81699997 4.256
-1.619 -0.81699997 4.2620001
-1.5880001 -0.81400001 4.257
-1.557 -0.81199998 4.2519999
-1.527 -0.80900002 4.2480001
-1.499 -0.80800003 4.2509999
-1.469 -0.80599999 4.2459998
-1.436 -0.80199999 4.2329998
-1.408 -0.80000001 4.2319999
-1.3839999 -0.801 4.2449999
-1.354 -0.79900002 4.2389998
-1.324 -0.796 4.2319999
-1.2970001 -0.79500002 4.2329998
-1.27 -0.79400003 4.2329998
-1.24 -0.79000002 4.223
-1.214 -0.79000002 4.2280002
-1.189 -0.79000002 4.2340002
-1.161 -0.78799999 4.2290001
-1.1339999 -0.787 4.2290001
-1.107 -0.78500003 4.2270002
-1.08 -0.78399998 4.2259998
-1.049 -0.77999997 4.21
-1.025 -0.77999997 4.2179999
-0.99699998 -0.778 4.211
-0.97000003 -0.77600002 4.2059999
-0.94400001 -0.77499998 4.2049999
-0.917 -0.773 4.198
-0.89300001 -0.77399999 4.2080002
-0.86699998 -0.77200001 4.204
-0.84100002 -0.77100003 4.2020001
-0.815 -0.76899999 4.197
-0.78899997 -0.76800001 4.1939998
-0.76300001 -0.76599997 4.1890001
-0.736 -0.764 4.1810002
-0.71100003 -0.764 4.1830001
-0.68699998 -0.764 4.1880002
-0.66100001 -0.76200002 4.1820002
-0.63700002 -0.76200002 4.1849999
-0.611 -0.75999999 4.178
-0.58600003 -0.759 4.1750002
-0.56099999 -0.75700003 4.1690001
-0.53600001 -0.75599998 4.1669998
-0.51200002 -0.75700003 4.1729999
-0.48800001 -0.75700003 4.1739998
-0.463 -0.755 4.165
-0.44 -0.75700003 4.1799998
-0.414 -0.75400001 4.164
-0.38999999 -0.75300002 4.1620002
-0.36500001 -0.75199997 4.1560001
-0.34200001 -0.75300002 4.165
-0.317 -0.75 4.1529999
-0.29300001 -0.75 4.1560001
-0.26899999 -0.75 4.1529999
-0.245 -0.74900001 4.1529999
-0.22 -0.74800003 4.145
-0.19599999 -0.74599999 4.138
-0.17299999 -0.74800003 4.1459999
-0.148 -0.745 4.1339998
-0.125 -0.745 4.132
-0.101 -0.74599999 4.1420002
-0.077 -0.74400002 4.131
-0.052999999 -0.74400002 4.1300001
-0.029999999 -0.74299997 4.1230001
-0.0060000001 -0.745 4.1339998
0.017000001 -0.74400002 4.132
0.039999999 -0.74299997 4.1230001
0.064000003 -0.74299997 4.1220002
0.088 -0.74199998 4.1209998
0.111 -0.741 4.1129999
0.13500001 -0.74299997 4.1240001
0.15800001 -0.74199998 4.1170001
0.182 -0.74199998 4.1139998
0.206 -0.74199998 4.1129999
0.23 -0.74199998 4.1160002
0.252 -0.74000001 4.1009998
0.27700001 -0.74199998 4.1100001
0.30000001 -0.74199998 4.1100001
0.32300001 -0.74000001 4.099
0.347 -0.74199998 4.105
0.37 -0.74000001 4.0970001
0.39500001 -0.74199998 4.1020002
0.41800001 -0.741 4.0960002
0.442 -0.74199998 4.098
0.465 -0.741 4.0900002
0.48899999 -0.741 4.0910001
0.51200002 -0.741 4.086
0.53600001 -0.741 4.0840001
0.55900002 -0.74000001 4.0749998
0.583 -0.741 4.0770001
0.60600001 -0.74000001 4.0700002
0.63099998 -0.74199998 4.079
0.653 -0.74000001 4.0650001
0.67799997 -0.74199998 4.0710001
0.70099998 -0.741 4.0630002
0.727 -0.74299997 4.072
0.74900001 -0.74199998 4.0599999
0.77399999 -0.74299997 4.0609999
0.80000001 -0.745 4.0679998
0.82200003 -0.74299997 4.0549998
0.84600002 -0.74400002 4.053
0.86799997 -0.74299997 4.0450001
0.89700001 -0.74699998 4.0609999
0.91900003 -0.74599999 4.0500002
0.94300002 -0.74599999 4.0469999
0.96799999 -0.74699998 4.046
0.99299997 -0.74800003 4.0450001
1.015 -0.74599999 4.033
1.0420001 -0.74900001 4.04
1.067 -0.74900001 4.0380001
1.0880001 -0.74800003 4.0240002
1.114 -0.74900001 4.027
1.142 -0.75099999 4.0320001
1.17 -0.75400001 4.0430002
1.191 -0.75199997 4.0240002
1.216 -0.75300002 4.0219998
1.239 -0.75300002 4.013
1.272 -0.75800002 4.0339999
1.298 -0.759 4.033
1.321 -0.75800002 4.0219998
1.342 -0.75700003 4.007
1.37 -0.759 4.0110002
1.3940001 -0.759 4.0040002
1.4220001 -0.76099998 4.006
1.449 -0.76200002 4.0050001
1.473 -0.76200002 3.997
1.499 -0.76300001 3.9949999
1.533 -0.76800001 4.0110002
1.554 -0.76599997 3.9949999
1.582 -0.76800001 3.994
1.607 -0.76800001 3.987
1.637 -0.77100003 3.993
1.663 -0.77100003 3.987
1.691 -0.773 3.9860001
1.719 -0.77399999 3.984
1.747 -0.77600002 3.984
1.774 -0.77700001 3.9790001
1.803 -0.77899998 3.9779999
1.83 -0.77999997 3.9719999
1.86 -0.78200001 3.974
1.885 -0.78200001 3.964
1.918 -0.78500003 3.971
1.944 -0.78600001 3.961
1.978 -0.78899997 3.9679999
2.006 -0.79000002 3.9630001
2.036 -0.792 3.9619999
2.066 -0.79400003 3.96
2.0940001 -0.79500002 3.9519999
2.1199999 -0.79500002 3.9419999
2.1570001 -0.80000001 3.9530001
2.188 -0.80199999 3.95
2.217 -0.80299997 3.944
2.2490001 -0.80500001 3.9430001
-2.451 -0.85399997 4.3169999
-2.404 -0.847 4.2969999
-2.372 -0.84600002 4.303
-2.3410001 -0.84500003 4.3109999
-2.299 -0.83999997 4.296
-2.2750001 -0.84100002 4.316
-2.2320001 -0.83499998 4.2989998
-2.194 -0.83099997 4.29
-2.158 -0.82800001 4.2849998
-2.1270001 -0.82599998 4.289
-2.098 -0.82599998 4.2979999
-2.062 -0.82200003 4.2909999
-2.0239999 -0.81800002 4.2779999
-1.9960001 -0.81699997 4.289
-1.961 -0.81400001 4.2810001
-1.9299999 -0.81199998 4.2820001
-1.9 -0.81099999 4.2859998
-1.867 -0.80800003 4.2810001
-1.8329999 -0.80500001 4.2740002
-1.801 -0.80199999 4.2719998
-1.77 -0.80000001 4.2690001
-1.737 -0.79699999 4.2639999
-1.705 -0.79400003 4.2589998
-1.676 -0.79299998 4.2610002
-1.646 -0.79100001 4.2600002
-1.618 -0.79000002 4.2639999
-1.586 -0.787 4.256
-1.5549999 -0.78500003 4.25
-1.528 -0.78399998 4.2550001
-1.499 -0.78200001 4.2550001
-1.469 -0.77999997 4.2490001
-1.437 -0.77700001 4.2399998
-1.41 -0.77600002 4.2420001
-1.38 -0.77399999 4.2379999
-1.357 -0.77499998 4.2519999
-1.3279999 -0.773 4.2480001
-1.299 -0.77100003 4.243
-1.27 -0.76800001 4.237
-1.239 -0.76499999 4.2259998
-1.215 -0.76499999 4.2350001
-1.187 -0.764 4.2319999
-1.1569999 -0.76099998 4.2210002
-1.131 -0.75999999 4.2220001
-1.104 -0.75800002 4.2199998
-1.0779999 -0.75700003 4.2220001
-1.053 -0.75800002 4.2309999
-1.025 -0.755 4.2220001
-0.99699998 -0.75300002 4.2150002
-0.97100002 -0.75199997 4.2119999
-0.94400001 -0.75 4.2069998
-0.92000002 -0.75099999 4.2189999
-0.89399999 -0.75 4.2150002
-0.86299998 -0.74400002 4.1900001
-0.83999997 -0.745 4.2010002
-0.81300002 -0.74299997 4.1939998
-0.79000002 -0.745 4.2069998
-0.76300001 -0.74199998 4.1960001
-0.73799998 -0.741 4.1950002
-0.71200001 -0.74000001 4.1880002
-0.68599999 -0.73799998 4.1830001
-0.66299999 -0.73900002 4.1929998
-0.63700002 -0.73799998 4.191
-0.61199999 -0.73699999 4.1859999
-0.58700001 -0.736 4.1849999
-0.56099999 -0.73299998 4.171
-0.537 -0.73400003 4.178
-0.51200002 -0.73199999 4.1729999
-0.486 -0.73000002 4.1630001
-0.46200001 -0.72899997 4.1599998
-0.43900001 -0.73100001 4.1729999
-0.414 -0.72899997 4.1669998
-0.38999999 -0.72899997 4.1690001
-0.36500001 -0.727 4.158
-0.34 -0.72600001 4.151
-0.317 -0.72799999 4.165
-0.292 -0.72500002 4.1500001
-0.26800001 -0.72500002 4.1550002
-0.244 -0.72399998 4.151
-0.22 -0.72399998 4.1500001
-0.197 -0.72399998 4.152
-0.17299999 -0.72399998 4.1500001
-0.149 -0.72299999 4.1479998
-0.125 -0.72299999 4.1459999
-0.101 -0.72000003 4.132
-0.077 -0.72100002 4.1399999
-0.052999999 -0.722 4.1420002
-0.029999999 -0.71899998 4.1300001
-0.0060000001 -0.72000003 4.1329999
0.017000001 -0.71799999 4.1240001
0.039999999 -0.72100002 4.1360002
0.064000003 -0.71799999 4.1240001
0.088 -0.71799999 4.1230001
0.111 -0.71799999 4.119
0.13500001 -0.71799999 4.119
0.15800001 -0.71700001 4.1160002
0.182 -0.71600002 4.1079998
0.205 -0.71600002 4.1040001
0.229 -0.71700001 4.1110001
0.252 -0.71700001 4.1079998
0.27599999 -0.71700001 4.1069999
0.30000001 -0.71899998 4.1160002
0.32300001 -0.71700001 4.105
0.34599999 -0.71600002 4.098
0.37099999 -0.71799999 4.1069999
0.39399999 -0.71700001 4.099
0.41800001 -0.71700001 4.0970001
0.442 -0.71799999 4.1040001
0.465 -0.71700001 4.0939999
0.48800001 -0.71600002 4.0869999
0.51099998 -0.71499997 4.0799999
0.53500003 -0.71600002 4.0819998
0.55900002 -0.71600002 4.0799999
0.583 -0.71700001 4.0799999
0.60500002 -0.71600002 4.0689998
0.62900001 -0.71600002 4.0689998
0.65399998 -0.71799999 4.0749998
0.67799997 -0.71799999 4.0710001
0.70200002 -0.71799999 4.072
0.72500002 -0.71799999 4.0669999
0.75099999 -0.72000003 4.0739999
0.77100003 -0.71600002 4.0500002
0.79799998 -0.71899998 4.0630002
0.82300001 -0.72100002 4.0669999
0.84600002 -0.72000003 4.0580001
0.87099999 -0.72100002 4.0580001
0.89399999 -0.72100002 4.0539999
0.921 -0.72299999 4.0609999
0.94099998 -0.72100002 4.0430002
0.96799999 -0.72299999 4.0510001
0.99299997 -0.72399998 4.0489998
1.017 -0.72399998 4.0450001
1.044 -0.72600001 4.053
1.066 -0.72500002 4.0409999
1.089 -0.72399998 4.0289998
1.1160001 -0.72600001 4.0349998
1.143 -0.72799999 4.0419998
1.1619999 -0.72500002 4.0170002
1.1900001 -0.72799999 4.027
1.217 -0.73000002 4.0310001
1.245 -0.73199999 4.0349998
1.2690001 -0.73199999 4.0279999
1.293 -0.73199999 4.0209999
1.321 -0.73400003 4.027
1.346 -0.73400003 4.0209999
1.37 -0.73400003 4.0139999
1.397 -0.736 4.0149999
1.4220001 -0.736 4.0100002
1.451 -0.73900002 4.0170002
1.477 -0.73900002 4.0120001
1.499 -0.73900002 3.9990001
1.529 -0.741 4.0050001
1.556 -0.74299997 4.0040002
1.585 -0.745 4.007
1.609 -0.74400002 3.9960001
1.637 -0.74599999 3.9960001
1.664 -0.74699998 3.994
1.693 -0.74900001 3.994
1.719 -0.75 3.9890001
1.7460001 -0.75099999 3.984
1.772 -0.75099999 3.9790001
1.801 -0.75300002 3.977
1.83 -0.755 3.9760001
1.86 -0.75700003 3.977
1.886 -0.75700003 3.97
1.915 -0.759 3.9690001
1.946 -0.76200002 3.971
1.974 -0.76200002 3.964
2.0039999 -0.76499999 3.9649999
2.0339999 -0.76599997 3.9619999
2.0639999 -0.76800001 3.9590001
2.096 -0.77100003 3.9619999
2.1270001 -0.77200001 3.96
2.1530001 -0.773 3.9489999
2.1819999 -0.77399999 3.9430001
2.2179999 -0.778 3.95
2.2539999 -0.78100002 3.9560001
-2.447 -0.82499999 4.3150001
-2.411 -0.82200003 4.3150001
-2.3729999 -0.81900001 4.3099999
-2.3340001 -0.81400001 4.3010001
-2.306 -0.815 4.3150001
-2.27 -0.81099999 4.3099999
-2.2260001 -0.80500001 4.2909999
-2.197 -0.80500001 4.302
-2.158 -0.80000001 4.29
-2.1270001 -0.79900002 4.2940001
-2.098 -0.79799998 4.302
-2.0650001 -0.796 4.302
-2.0309999 -0.79299998 4.2979999
-1.995 -0.79000002 4.2909999
-1.962 -0.787 4.2870002
-1.927 -0.78399998 4.2800002
-1.893 -0.78100002 4.2729998
-1.86 -0.77899998 4.2709999
-1.831 -0.77700001 4.2740002
-1.802 -0.77600002 4.2779999
-1.762 -0.76999998 4.2550001
-1.737 -0.77100003 4.2659998
-1.705 -0.76800001 4.2620001
-1.679 -0.76800001 4.2719998
-1.651 -0.76700002 4.277
-1.6160001 -0.76300001 4.2620001
-1.587 -0.76200002 4.263
-1.556 -0.759 4.257
-1.527 -0.75700003 4.256
-1.499 -0.75599998 4.2579999
-1.472 -0.75599998 4.2639999
-1.442 -0.75400001 4.2589998
-1.411 -0.75099999 4.2490001
-1.381 -0.74800003 4.244
-1.354 -0.74800003 4.2470002
-1.326 -0.74599999 4.2459998
-1.2970001 -0.74400002 4.2389998
-1.271 -0.74299997 4.244
-1.242 -0.741 4.2389998
-1.212 -0.73799998 4.2290001
-1.191 -0.741 4.25
-1.161 -0.73799998 4.2379999
-1.13 -0.73400003 4.224
-1.107 -0.73500001 4.2379999
-1.0779999 -0.73299998 4.2290001
-1.051 -0.73100001 4.2249999
-1.027 -0.73199999 4.2340002
-0.99699998 -0.72799999 4.2160001
-0.972 -0.72799999 4.223
-0.94599998 -0.727 4.2189999
-0.91799998 -0.72399998 4.2119999
-0.89300001 -0.72399998 4.2150002
-0.866 -0.722 4.2080002
-0.84100002 -0.72100002 4.2090001
-0.81400001 -0.72000003 4.204
-0.78799999 -0.71899998 4.1999998
-0.764 -0.71799999 4.204
-0.73699999 -0.71600002 4.1950002
-0.713 -0.71700001 4.2010002
-0.68699998 -0.71499997 4.1950002
-0.662 -0.71399999 4.1900001
-0.63599998 -0.71200001 4.1869998
-0.61299998 -0.713 4.197
-0.58700001 -0.71100003 4.1849999
-0.56199998 -0.70999998 4.1849999
-0.537 -0.70899999 4.178
-0.51200002 -0.708 4.1789999
-0.48699999 -0.70599997 4.1700001
-0.463 -0.70700002 4.1739998
-0.43799999 -0.70499998 4.1669998
-0.414 -0.70599997 4.1719999
-0.389 -0.70300001 4.1599998
-0.366 -0.70499998 4.1760001
-0.34099999 -0.70300001 4.1630001
-0.31600001 -0.70099998 4.1560001
-0.29300001 -0.70200002 4.1609998
-0.26800001 -0.70099998 4.1539998
-0.245 -0.70200002 4.1659999
-0.22 -0.69999999 4.1550002
-0.197 -0.69999999 4.1539998
-0.17200001 -0.699 4.1500001
-0.148 -0.69800001 4.1430001
-0.125 -0.699 4.1479998
-0.101 -0.699 4.1490002
-0.077 -0.699 4.151
-0.052999999 -0.69700003 4.1399999
-0.029999999 -0.69700003 4.1389999
-0.0060000001 -0.69499999 4.1279998
0.017000001 -0.699 4.152
0.039999999 -0.69599998 4.1329999
0.064000003 -0.69499999 4.131
0.088 -0.69400001 4.1230001
0.111 -0.69400001 4.1209998
0.13500001 -0.69499999 4.1300001
0.15800001 -0.69400001 4.119
0.182 -0.69199997 4.1110001
0.205 -0.69300002 4.1129999
0.229 -0.69400001 4.1149998
0.25299999 -0.69400001 4.1160002
0.27700001 -0.69499999 4.1220002
0.29899999 -0.69199997 4.1020002
0.32300001 -0.69300002 4.1090002
0.347 -0.69300002 4.1069999
0.37 -0.69300002 4.1040001
0.39500001 -0.69400001 4.1079998
0.41800001 -0.69400001 4.1059999
0.442 -0.69499999 4.1100001
0.465 -0.69300002 4.0960002
0.48800001 -0.69199997 4.0900002
0.51200002 -0.69300002 4.0929999
0.53399998 -0.69099998 4.079
0.56 -0.69400001 4.0900002
0.58200002 -0.69199997 4.0770001
0.60699999 -0.69499999 4.0879998
0.63099998 -0.69400001 4.0819998
0.653 -0.69300002 4.072
0.67799997 -0.69400001 4.0760002
0.704 -0.69599998 4.086
0.72600001 -0.69499999 4.0760002
0.74900001 -0.69400001 4.066
0.77399999 -0.69599998 4.0710001
0.80000001 -0.69800001 4.0770001
0.81999999 -0.69499999 4.0570002
0.84500003 -0.69599998 4.059
0.86900002 -0.69599998 4.0539999
0.89300001 -0.69599998 4.052
0.91900003 -0.69800001 4.0570002
0.94400001 -0.699 4.0580001
0.96600002 -0.69700003 4.0440001
0.991 -0.69800001 4.0440001
1.016 -0.699 4.0440001
1.039 -0.699 4.0359998
1.067 -0.70099998 4.0450001
1.091 -0.70099998 4.0409999
1.1160001 -0.70200002 4.04
1.14 -0.70200002 4.0339999
1.169 -0.70499998 4.046
1.192 -0.70499998 4.0370002
1.217 -0.70499998 4.0339999
1.245 -0.708 4.039
1.267 -0.70599997 4.026
1.2920001 -0.70700002 4.0219998
1.319 -0.70899999 4.0240002
1.342 -0.708 4.0149999
1.37 -0.70999998 4.0190001
1.399 -0.713 4.026
1.4220001 -0.71200001 4.0139999
1.447 -0.71200001 4.0089998
1.471 -0.71200001 4.0009999
1.5 -0.71499997 4.006
1.529 -0.71700001 4.0100002
1.5599999 -0.72000003 4.0190001
1.582 -0.71899998 4.0029998
1.609 -0.72000003 4
1.6339999 -0.72000003 3.994
1.6619999 -0.722 3.993
1.692 -0.72399998 3.9960001
1.715 -0.72299999 3.984
1.748 -0.727 3.993
1.772 -0.727 3.983
1.802 -0.72899997 3.984
1.83 -0.73000002 3.98
1.858 -0.73100001 3.977
1.891 -0.73400003 3.984
1.918 -0.73500001 3.9779999
1.943 -0.73500001 3.967
1.971 -0.736 3.9619999
2.0039999 -0.73900002 3.9690001
2.036 -0.74199998 3.971
2.0680001 -0.74400002 3.9719999
2.099 -0.74599999 3.971
2.1229999 -0.74599999 3.957
2.1559999 -0.74800003 3.96
2.1889999 -0.75099999 3.9619999
2.2179999 -0.75199997 3.9549999
2.2509999 -0.75400001 3.9549999
-2.444 -0.79500002 4.3140001
-2.4100001 -0.79299998 4.3169999
-2.3740001 -0.79100001 4.3150001
-2.3410001 -0.78899997 4.3189998
-2.3039999 -0.78600001 4.3150001
-2.266 -0.78200001 4.3070002
-2.233 -0.77999997 4.309
-2.2049999 -0.77999997 4.3210001
-2.1670001 -0.77600002 4.3119998
-2.119 -0.76899999 4.283
-2.0969999 -0.77100003 4.3039999
-2.056 -0.76599997 4.2880001
-2.026 -0.76499999 4.2930002
-1.9960001 -0.76300001 4.2969999
-1.96 -0.75999999 4.289
-1.928 -0.75800002 4.2859998
-1.8940001 -0.755 4.2810001
-1.863 -0.75300002 4.2810001
-1.831 -0.75099999 4.2779999
-1.801 -0.74900001 4.2789998
-1.766 -0.74599999 4.2690001
-1.737 -0.74400002 4.2719998
-1.714 -0.74599999 4.289
-1.676 -0.741 4.2680001
-1.646 -0.73900002 4.2670002
-1.615 -0.73699999 4.263
-1.591 -0.73699999 4.276
-1.559 -0.73500001 4.27
-1.524 -0.73000002 4.2519999
-1.5 -0.73100001 4.2659998
-1.472 -0.73000002 4.2670002
-1.4400001 -0.727 4.256
-1.4119999 -0.72600001 4.2579999
-1.383 -0.72399998 4.2529998
-1.354 -0.722 4.2490001
-1.326 -0.72000003 4.2490001
-1.296 -0.71799999 4.2420001
-1.271 -0.71799999 4.25
-1.24 -0.71499997 4.237
-1.214 -0.71499997 4.2420001
-1.186 -0.713 4.237
-1.1569999 -0.70999998 4.23
-1.131 -0.70999998 4.2319999
-1.1 -0.70599997 4.2150002
-1.08 -0.70899999 4.2389998
-1.05 -0.70599997 4.2249999
-1.024 -0.70499998 4.2270002
-0.99800003 -0.704 4.2270002
-0.972 -0.70300001 4.2280002
-0.94300002 -0.69999999 4.2140002
-0.92000002 -0.70099998 4.224
-0.89300001 -0.699 4.2160001
-0.86500001 -0.69700003 4.2069998
-0.83999997 -0.69700003 4.211
-0.81300002 -0.69400001 4.2010002
-0.78899997 -0.69499999 4.2069998
-0.76499999 -0.69499999 4.2160001
-0.73699999 -0.69199997 4.1989999
-0.71100003 -0.69 4.1939998
-0.68800002 -0.69199997 4.2049999
-0.66299999 -0.69099998 4.2030001
-0.63800001 -0.69 4.2020001
-0.61000001 -0.68599999 4.184
-0.58600003 -0.68599999 4.1859999
-0.56 -0.68400002 4.177
-0.53600001 -0.68400002 4.177
-0.51300001 -0.685 4.1880002
-0.48699999 -0.68300003 4.178
-0.46399999 -0.68400002 4.1849999
-0.43799999 -0.68199998 4.177
-0.414 -0.68199998 4.1789999
-0.38999999 -0.68099999 4.1760001
-0.36500001 -0.67900002 4.1659999
-0.34 -0.67799997 4.1599998
-0.31600001 -0.67799997 4.1599998
-0.292 -0.676 4.1539998
-0.26800001 -0.67699999 4.1599998
-0.244 -0.67699999 4.1599998
-0.22 -0.676 4.1539998
-0.197 -0.676 4.1589999
-0.17200001 -0.67500001 4.152
-0.149 -0.676 4.1560001
-0.124 -0.67299998 4.1420002
-0.101 -0.67400002 4.1479998
-0.077 -0.67400002 4.1469998
-0.052999999 -0.67400002 4.152
-0.029999999 -0.67199999 4.1389999
-0.0060000001 -0.67199999 4.1360002
0.017000001 -0.67299998 4.1420002
0.041000001 -0.67299998 4.1440001
0.064000003 -0.671 4.1329999
0.088 -0.67299998 4.1420002
0.111 -0.67000002 4.1269999
0.13500001 -0.67000002 4.125
0.15800001 -0.67000002 4.1209998
0.182 -0.67199999 4.1329999
0.206 -0.671 4.125
0.229 -0.67000002 4.1209998
0.252 -0.66900003 4.1129999
0.27599999 -0.66799998 4.1079998
0.30000001 -0.66900003 4.1129999
0.324 -0.671 4.119
0.347 -0.67000002 4.1110001
0.37099999 -0.671 4.1160002
0.39500001 -0.671 4.1160002
0.417 -0.66799998 4.0939999
0.44299999 -0.67199999 4.1149998
0.465 -0.671 4.1059999
0.48899999 -0.67000002 4.099
0.51200002 -0.66900003 4.0939999
0.53600001 -0.67000002 4.0929999
0.56099999 -0.67199999 4.1040001
0.58399999 -0.67199999 4.099
0.60600001 -0.66900003 4.079
0.63099998 -0.671 4.0900002
0.65499997 -0.671 4.0879998
0.67799997 -0.671 4.0830002
0.704 -0.67199999 4.0879998
0.727 -0.67199999 4.0840001
0.75 -0.671 4.0749998
0.77200001 -0.67000002 4.0640001
0.79900002 -0.67299998 4.0749998
0.82099998 -0.67199999 4.0640001
0.847 -0.67299998 4.0700002
0.87199998 -0.67500001 4.0739999
0.89499998 -0.67400002 4.0630002
0.91900003 -0.67400002 4.0619998
0.94300002 -0.67400002 4.0580001
0.96799999 -0.67500001 4.0549998
0.991 -0.67500001 4.0510001
1.015 -0.67500001 4.0450001
1.043 -0.67699999 4.0549998
1.066 -0.67699999 4.0469999
1.0930001 -0.67900002 4.053
1.115 -0.67799997 4.0409999
1.14 -0.67799997 4.039
1.1670001 -0.68000001 4.0419998
1.191 -0.68000001 4.0380001
1.216 -0.68099999 4.0339999
1.237 -0.67900002 4.0190001
1.268 -0.68300003 4.0320001
1.291 -0.68199998 4.0229998
1.317 -0.68300003 4.0229998
1.344 -0.685 4.0240002
1.367 -0.685 4.0149999
1.399 -0.68800002 4.0289998
1.421 -0.68699998 4.0159998
1.452 -0.69099998 4.027
1.476 -0.69 4.0170002
1.506 -0.69300002 4.026
1.528 -0.69199997 4.0110002
1.558 -0.69400001 4.0170002
1.585 -0.69499999 4.0149999
1.609 -0.69499999 4.0040002
1.637 -0.69700003 4.0040002
1.6670001 -0.699 4.0079999
1.691 -0.699 3.997
1.72 -0.69999999 3.9990001
1.744 -0.69999999 3.987
1.77 -0.70099998 3.9809999
1.8049999 -0.70499998 3.9960001
1.831 -0.70499998 3.9879999
1.864 -0.708 3.994
1.8890001 -0.708 3.984
1.921 -0.71100003 3.9879999
1.941 -0.70899999 3.9679999
1.974 -0.71200001 3.973
2.006 -0.71399999 3.9749999
2.0350001 -0.71600002 3.973
2.0710001 -0.72000003 3.9809999
2.0910001 -0.71799999 3.96
2.128 -0.722 3.97
2.154 -0.722 3.96
2.194 -0.727 3.973
2.22 -0.727 3.9630001
2.2479999 -0.72799999 3.9549999
-2.4530001 -0.76999998 4.335
-2.4100001 -0.76599997 4.322
-2.3759999 -0.764 4.3239999
-2.3380001 -0.75999999 4.3179998
-2.302 -0.75800002 4.316
-2.2690001 -0.75599998 4.3169999
-2.233 -0.75300002 4.3130002
-2.1900001 -0.74699998 4.2950001
-2.1619999 -0.74699998 4.3070002
-2.1340001 -0.74699998 4.316
-2.095 -0.74299997 4.3049998
-2.063 -0.741 4.3070002
-2.0250001 -0.73699999 4.2940001
-1.998 -0.73699999 4.3060002
-1.962 -0.73400003 4.296
-1.9299999 -0.73199999 4.2950001
-1.899 -0.73000002 4.296
-1.865 -0.727 4.289
-1.835 -0.72600001 4.2909999
-1.801 -0.72299999 4.2839999
-1.7690001 -0.72100002 4.2800002
-1.742 -0.72000003 4.2880001
-1.71 -0.71799999 4.2839999
-1.677 -0.71499997 4.2740002
-1.647 -0.713 4.2740002
-1.615 -0.71100003 4.2670002
-1.586 -0.70899999 4.2680001
-1.554 -0.70599997 4.2600002
-1.528 -0.70700002 4.2690001
-1.494 -0.70300001 4.2540002
-1.471 -0.704 4.2680001
-1.441 -0.70099998 4.2620001
-1.413 -0.69999999 4.263
-1.383 -0.69800001 4.2589998
-1.352 -0.69599998 4.2490001
-1.329 -0.69700003 4.2620001
-1.298 -0.69400001 4.2519999
-1.2690001 -0.69199997 4.2470002
-1.24 -0.68900001 4.2399998
-1.214 -0.68900001 4.243
-1.188 -0.68900001 4.2490001
-1.158 -0.68599999 4.2350001
-1.1289999 -0.68300003 4.2280002
-1.105 -0.68400002 4.2360001
-1.079 -0.68300003 4.2389998
-1.05 -0.68099999 4.2290001
-1.026 -0.68099999 4.2360001
-0.99699998 -0.67900002 4.2270002
-0.972 -0.67799997 4.2280002
-0.94499999 -0.67699999 4.2259998
-0.91799998 -0.67500001 4.2179999
-0.89200002 -0.67400002 4.2160001
-0.86799997 -0.67400002 4.2249999
-0.83999997 -0.67199999 4.2140002
-0.81699997 -0.67299998 4.2259998
-0.78799999 -0.66900003 4.2049999
-0.76300001 -0.66900003 4.2090001
-0.73699999 -0.66799998 4.204
-0.71399999 -0.66900003 4.2150002
-0.68699998 -0.66600001 4.2030001
-0.66399997 -0.667 4.2129998
-0.63599998 -0.66399997 4.1960001
-0.611 -0.66299999 4.1939998
-0.58600003 -0.662 4.1869998
-0.56199998 -0.662 4.1960001
-0.537 -0.66100001 4.1919999
-0.51300001 -0.66100001 4.1900001
-0.48699999 -0.65899998 4.1799998
-0.463 -0.65899998 4.1820002
-0.43900001 -0.65799999 4.1830001
-0.414 -0.65700001 4.1789999
-0.38999999 -0.65700001 4.178
-0.36500001 -0.65499997 4.1700001
-0.34099999 -0.65499997 4.171
-0.317 -0.65399998 4.1669998
-0.292 -0.65200001 4.1560001
-0.26800001 -0.653 4.1599998
-0.244 -0.65100002 4.152
-0.221 -0.65399998 4.171
-0.19599999 -0.64999998 4.1490002
-0.17200001 -0.65100002 4.1529999
-0.149 -0.65200001 4.1620002
-0.125 -0.653 4.1719999
-0.101 -0.65100002 4.1570001
-0.077 -0.65100002 4.1570001
-0.052999999 -0.65100002 4.1609998
-0.029999999 -0.64999998 4.1539998
-0.0060000001 -0.64899999 4.1469998
0.017000001 -0.648 4.138
0.039999999 -0.648 4.1399999
0.064000003 -0.64899999 4.1440001
0.088 -0.648 4.1409998
0.112 -0.64899999 4.1430001
0.13500001 -0.64700001 4.132
0.15800001 -0.64600003 4.1240001
0.182 -0.64499998 4.118
0.206 -0.64700001 4.1279998
0.229 -0.64499998 4.1170001
0.25299999 -0.64700001 4.1269999
0.27700001 -0.648 4.1339998
0.29899999 -0.64499998 4.1090002
0.32300001 -0.64600003 4.1139998
0.34599999 -0.64499998 4.1069999
0.37099999 -0.64700001 4.1160002
0.39399999 -0.64499998 4.1069999
0.417 -0.64499998 4.1030002
0.44100001 -0.64499998 4.1030002
0.465 -0.64600003 4.1030002
0.48899999 -0.64700001 4.1079998
0.51300001 -0.64700001 4.1059999
0.53600001 -0.64600003 4.0970001
0.56 -0.64700001 4.1009998
0.583 -0.64600003 4.0910001
0.60699999 -0.64600003 4.0900002
0.63200003 -0.648 4.0949998
0.65499997 -0.64700001 4.0879998
0.67799997 -0.64600003 4.0809999
0.70099998 -0.64600003 4.0739999
0.72799999 -0.64899999 4.0910001
0.74900001 -0.64700001 4.0739999
0.77499998 -0.64899999 4.0819998
0.79699999 -0.648 4.072
0.82200003 -0.64899999 4.073
0.84799999 -0.64999998 4.079
0.87099999 -0.64999998 4.0710001
0.89700001 -0.65100002 4.0749998
0.91799998 -0.64999998 4.0599999
0.94300002 -0.64999998 4.0599999
0.96799999 -0.65100002 4.0619998
0.99199998 -0.65100002 4.0570002
1.016 -0.65200001 4.0539999
1.0420001 -0.653 4.0560002
1.0700001 -0.65499997 4.0640001
1.092 -0.65399998 4.052
1.118 -0.65499997 4.0539999
1.142 -0.65499997 4.0479999
1.166 -0.65600002 4.0430002
1.1900001 -0.65499997 4.0359998
1.215 -0.65600002 4.0339999
1.244 -0.65899998 4.0440001
1.2690001 -0.65899998 4.04
1.294 -0.66000003 4.0359998
1.3200001 -0.66100001 4.0359998
1.345 -0.66100001 4.0320001
1.372 -0.662 4.0310001
1.399 -0.66399997 4.0339999
1.423 -0.66399997 4.0250001
1.45 -0.66500002 4.0250001
1.473 -0.66500002 4.0139999
1.503 -0.667 4.0219998
1.525 -0.66600001 4.007
1.559 -0.67000002 4.0240002
1.582 -0.66900003 4.0100002
1.6109999 -0.67199999 4.0149999
1.637 -0.67199999 4.0079999
1.665 -0.67299998 4.007
1.692 -0.67500001 4.0050001
1.724 -0.67699999 4.0110002
1.744 -0.676 3.9920001
1.774 -0.67799997 3.9949999
1.804 -0.67900002 3.9949999
1.832 -0.68099999 3.994
1.858 -0.68099999 3.9849999
1.8890001 -0.68300003 3.9890001
1.918 -0.685 3.9860001
1.939 -0.68400002 3.9679999
1.973 -0.68599999 3.9749999
2.006 -0.68900001 3.98
2.0309999 -0.68900001 3.9690001
2.066 -0.69300002 3.977
2.0940001 -0.69300002 3.9690001
2.128 -0.69599998 3.9749999
2.1500001 -0.69499999 3.9560001
2.188 -0.699 3.967
2.22 -0.70099998 3.967
2.247 -0.70200002 3.957
-2.4519999 -0.74199998 4.3379998
-2.414 -0.73900002 4.3319998
-2.3759999 -0.736 4.3280001
-2.3410001 -0.73299998 4.329
-2.306 -0.73100001 4.3270001
-2.2639999 -0.72600001 4.3119998
-2.233 -0.72500002 4.3179998
-2.198 -0.72299999 4.316
-2.161 -0.72000003 4.3080001
-2.128 -0.71799999 4.309
-2.098 -0.71700001 4.3140001
-2.0650001 -0.71499997 4.3150001
-2.023 -0.70899999 4.2930002
-1.99 -0.70700002 4.2930002
-1.9630001 -0.70700002 4.303
-1.926 -0.70300001 4.29
-1.898 -0.70300001 4.2989998
-1.864 -0.69999999 4.29
-1.8329999 -0.699 4.2919998
-1.804 -0.69700003 4.2940001
-1.7690001 -0.69400001 4.283
-1.735 -0.69099998 4.276
-1.707 -0.69 4.2789998
-1.674 -0.68699998 4.27
-1.649 -0.68800002 4.283
-1.612 -0.68300003 4.2620001
-1.587 -0.68400002 4.2740002
-1.554 -0.68099999 4.263
-1.529 -0.68099999 4.2729998
-1.498 -0.67900002 4.2680001
-1.472 -0.67799997 4.2750001
-1.4400001 -0.67500001 4.2639999
-1.413 -0.67500001 4.2670002
-1.383 -0.67299998 4.2610002
-1.349 -0.66900003 4.244
-1.326 -0.67000002 4.257
-1.3 -0.66900003 4.2610002
-1.27 -0.667 4.2540002
-1.2410001 -0.66500002 4.2480001
-1.212 -0.66299999 4.2410002
-1.187 -0.66299999 4.2480001
-1.1619999 -0.66299999 4.2550001
-1.132 -0.66000003 4.2410002
-1.107 -0.66000003 4.2490001
-1.0779999 -0.65700001 4.237
-1.048 -0.65499997 4.224
-1.026 -0.65600002 4.2399998
-0.99699998 -0.65399998 4.23
-0.972 -0.653 4.2329998
-0.94599998 -0.653 4.2329998
-0.92000002 -0.65200001 4.2309999
-0.889 -0.64700001 4.2049999
-0.86799997 -0.64999998 4.2280002
-0.83899999 -0.64600003 4.2090001
-0.81300002 -0.64499998 4.2090001
-0.787 -0.64399999 4.2030001
-0.76300001 -0.64499998 4.2119999
-0.73699999 -0.64300001 4.204
-0.71100003 -0.64099997 4.198
-0.68800002 -0.64200002 4.21
-0.66100001 -0.63999999 4.198
-0.63599998 -0.639 4.1950002
-0.611 -0.639 4.1950002
-0.58499998 -0.63599998 4.1820002
-0.56199998 -0.63800001 4.198
-0.537 -0.63700002 4.1929998
-0.51200002 -0.63599998 4.191
-0.48500001 -0.63200003 4.1680002
-0.463 -0.63499999 4.1869998
-0.43900001 -0.63499999 4.1890001
-0.414 -0.634 4.184
-0.38999999 -0.63200003 4.1789999
-0.366 -0.63300002 4.184
-0.34099999 -0.63099998 4.1739998
-0.317 -0.63099998 4.1719999
-0.29300001 -0.63099998 4.177
-0.26800001 -0.62900001 4.1669998
-0.245 -0.63 4.1700001
-0.22 -0.62900001 4.1669998
-0.19599999 -0.62800002 4.164
-0.17299999 -0.62900001 4.1669998
-0.148 -0.62699997 4.1570001
-0.125 -0.62699997 4.158
-0.101 -0.62800002 4.164
-0.077 -0.62699997 4.1560001
-0.052999999 -0.625 4.1440001
-0.029999999 -0.62599999 4.151
-0.0060000001 -0.62599999 4.1560001
0.017000001 -0.625 4.1479998
0.039999999 -0.625 4.1459999
0.064000003 -0.62300003 4.1329999
0.088 -0.62400001 4.1370001
0.111 -0.62400001 4.1420002
0.13500001 -0.62300003 4.1329999
0.15800001 -0.62300003 4.131
0.182 -0.62400001 4.1389999
0.205 -0.62199998 4.1220002
0.229 -0.62300003 4.131
0.25299999 -0.62199998 4.1240001
0.27700001 -0.62300003 4.1290002
0.30000001 -0.62300003 4.1269999
0.324 -0.62400001 4.1300001
0.347 -0.62199998 4.119
0.37099999 -0.62300003 4.1199999
0.39399999 -0.62199998 4.1100001
0.41800001 -0.62300003 4.1139998
0.442 -0.62300003 4.1160002
0.46599999 -0.62400001 4.1160002
0.48899999 -0.62300003 4.1100001
0.51200002 -0.62300003 4.1040001
0.53399998 -0.62099999 4.0910001
0.56 -0.62300003 4.1020002
0.583 -0.62300003 4.0960002
0.60799998 -0.62400001 4.1009998
0.63200003 -0.62400001 4.1009998
0.65499997 -0.62400001 4.0960002
0.67799997 -0.62300003 4.0890002
0.70300001 -0.62400001 4.0890002
0.72500002 -0.62300003 4.0770001
0.74800003 -0.62199998 4.0689998
0.77499998 -0.625 4.0869999
0.79900002 -0.625 4.0840001
0.82300001 -0.625 4.0780001
0.847 -0.62599999 4.0770001
0.87 -0.625 4.0700002
0.89700001 -0.62800002 4.0809999
0.91900003 -0.62599999 4.066
0.94300002 -0.62699997 4.066
0.96799999 -0.62800002 4.0650001
0.991 -0.62699997 4.0539999
1.0140001 -0.62599999 4.0469999
1.044 -0.63 4.0650001
1.066 -0.62900001 4.053
1.092 -0.63 4.0539999
1.117 -0.63099998 4.0549998
1.142 -0.63200003 4.053
1.168 -0.63300002 4.0549998
1.194 -0.634 4.0560002
1.2180001 -0.634 4.0489998
1.24 -0.63300002 4.0359998
1.2640001 -0.63300002 4.0289998
1.2920001 -0.634 4.033
1.318 -0.63599998 4.033
1.339 -0.634 4.0170002
1.368 -0.63700002 4.0240002
1.395 -0.63800001 4.0240002
1.425 -0.63999999 4.033
1.449 -0.63999999 4.026
1.477 -0.64200002 4.0289998
1.501 -0.64200002 4.0190001
1.527 -0.64200002 4.0149999
1.557 -0.64499998 4.0219998
1.579 -0.64399999 4.007
1.6109999 -0.64700001 4.0170002
1.637 -0.64700001 4.0120001
1.666 -0.64899999 4.0139999
1.692 -0.64999998 4.0079999
1.714 -0.64899999 3.993
1.747 -0.65200001 4.0009999
1.777 -0.65399998 4.0040002
1.802 -0.65399998 3.9960001
1.8279999 -0.65399998 3.9890001
1.864 -0.65799999 4.0019999
1.883 -0.65600002 3.9790001
1.915 -0.65899998 3.984
1.946 -0.66100001 3.9849999
1.98 -0.66399997 3.993
2.0020001 -0.66299999 3.9760001
2.0320001 -0.66399997 3.9749999
2.063 -0.66600001 3.974
2.098 -0.66900003 3.9809999
2.128 -0.671 3.977
2.1589999 -0.67299998 3.977
2.187 -0.67299998 3.97
2.223 -0.676 3.9749999
2.2490001 -0.67699999 3.964
-2.4419999 -0.71100003 4.3239999
-2.392 -0.704 4.2969999
-2.3729999 -0.70700002 4.3270001
-2.3410001 -0.70599997 4.3319998
-2.3039999 -0.70300001 4.3280001
-2.2720001 -0.70099998 4.3319998
-2.234 -0.69800001 4.3239999
-2.1930001 -0.69400001 4.3099999
-2.1630001 -0.69300002 4.316
-2.128 -0.69 4.3119998
-2.092 -0.68699998 4.3060002
-2.062 -0.68599999 4.3109999
-2.027 -0.68400002 4.3070002
-1.9910001 -0.68099999 4.2989998
-1.962 -0.68000001 4.3049998
-1.927 -0.67699999 4.2979999
-1.895 -0.67500001 4.2940001
-1.862 -0.67299998 4.2909999
-1.836 -0.67299998 4.302
-1.802 -0.67000002 4.2930002
-1.771 -0.66799998 4.2919998
-1.74 -0.667 4.2909999
-1.71 -0.66500002 4.29
-1.678 -0.66299999 4.2839999
-1.648 -0.662 4.2859998
-1.619 -0.66000003 4.2859998
-1.586 -0.65700001 4.2740002
-1.556 -0.65600002 4.2740002
-1.525 -0.653 4.2670002
-1.499 -0.653 4.2750001
-1.469 -0.65200001 4.2709999
-1.441 -0.64999998 4.2719998
-1.409 -0.64700001 4.2579999
-1.381 -0.64600003 4.2589998
-1.353 -0.64499998 4.2589998
-1.323 -0.64300001 4.2509999
-1.299 -0.64300001 4.263
-1.27 -0.64200002 4.2579999
-1.2460001 -0.64200002 4.2670002
-1.211 -0.63700002 4.2410002
-1.188 -0.63800001 4.256
-1.1619999 -0.63700002 4.256
-1.131 -0.634 4.2410002
-1.104 -0.63300002 4.2389998
-1.077 -0.63200003 4.2360001
-1.054 -0.63300002 4.25
-1.024 -0.63 4.2360001
-0.99599999 -0.62800002 4.23
-0.97100002 -0.62800002 4.2309999
-0.94400001 -0.62599999 4.2270002
-0.91799998 -0.62599999 4.2259998
-0.88999999 -0.62300003 4.2140002
-0.86400002 -0.62199998 4.2119999
-0.83999997 -0.62300003 4.2210002
-0.815 -0.62199998 4.2220001
-0.79100001 -0.62199998 4.2270002
-0.76300001 -0.62 4.2140002
-0.73799998 -0.61900002 4.2129998
-0.71200001 -0.61699998 4.2059999
-0.68800002 -0.61799997 4.217
-0.66100001 -0.61500001 4.1999998
-0.63700002 -0.616 4.204
-0.611 -0.61400002 4.1989999
-0.58600003 -0.61400002 4.1960001
-0.56199998 -0.61299998 4.1989999
-0.537 -0.61199999 4.1929998
-0.51300001 -0.61299998 4.2020001
-0.48800001 -0.611 4.1929998
-0.46399999 -0.61199999 4.198
-0.43900001 -0.611 4.1939998
-0.414 -0.60900003 4.1830001
-0.389 -0.60799998 4.1820002
-0.36500001 -0.60699999 4.1760001
-0.34099999 -0.60799998 4.1810002
-0.31600001 -0.60500002 4.1609998
-0.29300001 -0.60799998 4.1859999
-0.26800001 -0.60500002 4.171
-0.245 -0.60600001 4.1789999
-0.22 -0.60500002 4.1680002
-0.19599999 -0.60399997 4.1659999
-0.17200001 -0.60399997 4.165
-0.149 -0.60299999 4.1609998
-0.125 -0.60299999 4.1589999
-0.101 -0.60500002 4.1719999
-0.077 -0.60399997 4.1719999
-0.052999999 -0.602 4.1539998
-0.029999999 -0.60100001 4.1500001
-0.0060000001 -0.60299999 4.1599998
0.017000001 -0.60100001 4.1500001
0.039999999 -0.60000002 4.1430001
0.064000003 -0.60100001 4.151
0.088 -0.60100001 4.1459999
0.111 -0.60000002 4.1409998
0.13500001 -0.60000002 4.1440001
0.15800001 -0.59899998 4.1350002
0.183 -0.60100001 4.145
0.206 -0.60000002 4.1389999
0.229 -0.59899998 4.1329999
0.25299999 -0.59899998 4.1259999
0.27700001 -0.59899998 4.1300001
0.29899999 -0.59799999 4.118
0.32300001 -0.597 4.1139998
0.347 -0.59899998 4.1220002
0.37200001 -0.60000002 4.131
0.39500001 -0.59899998 4.1220002
0.41800001 -0.59899998 4.1209998
0.44100001 -0.59799999 4.112
0.46599999 -0.60000002 4.1220002
0.48699999 -0.59600002 4.0929999
0.51300001 -0.59899998 4.1110001
0.53600001 -0.59899998 4.1059999
0.56 -0.59899998 4.105
0.58399999 -0.60000002 4.1069999
0.60699999 -0.59899998 4.0999999
0.63200003 -0.60100001 4.105
0.65499997 -0.60000002 4.0970001
0.67900002 -0.60000002 4.0929999
0.70300001 -0.60100001 4.0939999
0.72799999 -0.60100001 4.0970001
0.75300002 -0.602 4.0999999
0.77399999 -0.60100001 4.085
0.79799998 -0.60100001 4.0819998
0.824 -0.60299999 4.0890002
0.847 -0.602 4.0819998
0.87199998 -0.60299999 4.0809999
0.89499998 -0.602 4.0739999
0.917 -0.60100001 4.0630002
0.94599998 -0.60399997 4.079
0.96899998 -0.60399997 4.072
0.99299997 -0.60399997 4.0679998
1.017 -0.60500002 4.0650001
1.0420001 -0.60500002 4.0640001
1.064 -0.60399997 4.0479999
1.0930001 -0.60699999 4.0619998
1.12 -0.60799998 4.0679998
1.1440001 -0.60900003 4.0630002
1.166 -0.60799998 4.0510001
1.191 -0.60799998 4.0479999
1.221 -0.611 4.0599999
1.242 -0.61000001 4.046
1.265 -0.60900003 4.0339999
1.295 -0.61199999 4.0479999
1.321 -0.61299998 4.0440001
1.344 -0.61199999 4.0349998
1.37 -0.61299998 4.0339999
1.396 -0.61400002 4.0310001
1.425 -0.616 4.0380001
1.449 -0.616 4.0289998
1.476 -0.61699998 4.0279999
1.503 -0.61799997 4.0279999
1.531 -0.62 4.0289998
1.563 -0.62300003 4.04
1.586 -0.62199998 4.027
1.6109999 -0.62199998 4.0209999
1.633 -0.62099999 4.0050001
1.668 -0.625 4.0229998
1.692 -0.625 4.0110002
1.722 -0.62699997 4.0149999
1.745 -0.62599999 4.0019999
1.773 -0.62699997 3.9990001
1.807 -0.63099998 4.0089998
1.831 -0.63099998 3.9990001
1.8609999 -0.63200003 3.9990001
1.891 -0.634 4
1.915 -0.63300002 3.9860001
1.9450001 -0.63499999 3.9860001
1.979 -0.63800001 3.9949999
2.003 -0.63800001 3.9820001
2.036 -0.63999999 3.9860001
2.0650001 -0.64099997 3.9820001
2.098 -0.64399999 3.9849999
2.1329999 -0.64700001 3.9909999
2.155 -0.64600003 3.974
2.1900001 -0.648 3.9779999
2.223 -0.65100002 3.98
2.2479999 -0.65100002 3.9660001
-2.4530001 -0.68599999 4.3460002
-2.4119999 -0.68199998 4.3369999
-2.378 -0.68000001 4.3400002
-2.3429999 -0.67799997 4.3390002
-2.3039999 -0.67500001 4.3319998
-2.273 -0.67400002 4.3390002
-2.2320001 -0.67000002 4.3249998
-2.2030001 -0.66900003 4.3330002
-2.1700001 -0.66799998 4.3340001
-2.1289999 -0.66399997 4.3189998
-2.0940001 -0.66100001 4.3140001
-2.063 -0.66000003 4.3169999
-2.027 -0.65700001 4.309
-1.9960001 -0.65600002 4.3130002
-1.962 -0.653 4.309
-1.928 -0.65100002 4.302
-1.896 -0.64899999 4.3010001
-1.865 -0.64700001 4.3000002
-1.834 -0.64600003 4.3000002
-1.8049999 -0.64499998 4.3049998
-1.772 -0.64300001 4.3000002
-1.74 -0.63999999 4.2950001
-1.714 -0.63999999 4.3039999
-1.681 -0.63800001 4.2979999
-1.648 -0.63499999 4.289
-1.618 -0.634 4.2859998
-1.586 -0.63099998 4.2800002
-1.562 -0.63200003 4.2919998
-1.523 -0.62699997 4.2649999
-1.498 -0.62699997 4.276
-1.471 -0.62699997 4.2800002
-1.4400001 -0.62400001 4.2719998
-1.415 -0.62400001 4.2800002
-1.385 -0.62199998 4.2740002
-1.357 -0.62099999 4.2729998
-1.329 -0.62 4.2750001
-1.298 -0.61699998 4.2620001
-1.268 -0.61500001 4.2540002
-1.242 -0.61500001 4.2579999
-1.214 -0.61400002 4.256
-1.188 -0.61299998 4.257
-1.16 -0.611 4.2529998
-1.131 -0.60900003 4.2459998
-1.1059999 -0.60900003 4.2519999
-1.079 -0.60799998 4.25
-1.054 -0.60799998 4.256
-1.026 -0.60699999 4.25
-0.99800003 -0.60500002 4.2420001
-0.97100002 -0.60299999 4.2340002
-0.94499999 -0.602 4.2350001
-0.91799998 -0.60100001 4.2309999
-0.89200002 -0.60000002 4.2280002
-0.86699998 -0.60000002 4.2329998
