# .PCD v0.7 - Point Cloud Data file format
VERSION 0.7
FIELDS x y z
SIZE 4 4 4
TYPE F F F
COUNT 1 1 1
WIDTH 1728
HEIGHT 1
VIEWPOINT 0 0 0 1 0 0 0
POINTS 1728
DATA ascii
0.206 -1.028 4.0640001
0.229 -1.026 4.0539999
0.25299999 -1.028 4.0619998
0.27599999 -1.026 4.052
0.301 -1.03 4.0679998
0.324 -1.027 4.0560002
0.34799999 -1.027 4.0539999
0.37200001 -1.03 4.0619998
0.39500001 -1.027 4.0500002
0.419 -1.029 4.0560002
0.44299999 -1.029 4.0510001
0.46799999 -1.031 4.0599999
0.48899999 -1.027 4.04
0.51300001 -1.027 4.039
0.53899997 -1.031 4.0500002
0.56 -1.028 4.0339999
0.58499998 -1.028 4.0339999
0.60799998 -1.028 4.0289998
0.63200003 -1.028 4.026
0.65399998 -1.025 4.013
0.67900002 -1.027 4.0170002
0.70499998 -1.031 4.0300002
0.727 -1.029 4.0180001
0.75099999 -1.029 4.013
0.77399999 -1.028 4.006
0.80000001 -1.0319999 4.0159998
0.824 -1.0319999 4.013
0.84799999 -1.0319999 4.0089998
0.87199998 -1.033 4.006
0.898 -1.035 4.0120001
0.92000002 -1.033 3.997
0.94700003 -1.0369999 4.0079999
0.96899998 -1.035 3.994
0.99299997 -1.035 3.9890001
1.018 -1.036 3.9879999
1.044 -1.038 3.9909999
1.069 -1.039 3.9890001
1.092 -1.038 3.9809999
1.118 -1.04 3.9820001
1.142 -1.04 3.9760001
1.171 -1.044 3.9860001
1.196 -1.045 3.984
1.2180001 -1.044 3.97
1.2410001 -1.043 3.9619999
1.265 -1.043 3.9560001
1.293 -1.046 3.9579999
1.323 -1.051 3.9690001
1.349 -1.052 3.967
1.372 -1.052 3.9579999
1.396 -1.051 3.9489999
1.428 -1.057 3.964
1.451 -1.056 3.9530001
1.475 -1.056 3.9430001
1.503 -1.058 3.9449999
1.53 -1.061 3.9449999
1.561 -1.0650001 3.9519999
1.587 -1.066 3.947
1.612 -1.066 3.9389999
1.64 -1.068 3.938
1.668 -1.071 3.938
1.692 -1.0700001 3.927
1.7180001 -1.071 3.921
1.75 -1.076 3.928
1.777 -1.077 3.9230001
1.812 -1.0829999 3.9360001
1.8380001 -1.084 3.927
1.863 -1.084 3.9170001
1.892 -1.086 3.915
1.918 -1.087 3.908
1.948 -1.09 3.9070001
1.982 -1.094 3.914
2.0120001 -1.097 3.911
2.0409999 -1.099 3.908
2.069 -1.101 3.902
2.1029999 -1.105 3.9059999
2.131 -1.1059999 3.8989999
2.1600001 -1.108 3.8940001
2.1930001 -1.112 3.895
2.2290001 -1.117 3.901
2.2490001 -1.114 3.878
-2.4519999 -1.193 4.2509999
-2.411 -1.186 4.2420001
-2.3800001 -1.1849999 4.2490001
-2.342 -1.1799999 4.244
-2.3110001 -1.178 4.2509999
-2.2720001 -1.1720001 4.244
-2.24 -1.17 4.2470002
-2.2019999 -1.164 4.2399998
-2.1730001 -1.163 4.2480001
-2.131 -1.156 4.2309999
-2.099 -1.153 4.2340002
-2.0639999 -1.149 4.23
-2.027 -1.143 4.2210002
-1.997 -1.141 4.2249999
-1.969 -1.14 4.2319999
-1.9349999 -1.136 4.2280002
-1.896 -1.1289999 4.2119999
-1.87 -1.13 4.2249999
-1.841 -1.128 4.2280002
-1.808 -1.124 4.223
-1.774 -1.119 4.2160001
-1.7460001 -1.118 4.2210002
-1.712 -1.113 4.2119999
-1.682 -1.1109999 4.2129998
-1.653 -1.109 4.2150002
-1.62 -1.104 4.204
-1.5930001 -1.103 4.21
-1.5599999 -1.099 4.2030001
-1.534 -1.099 4.21
-1.501 -1.0930001 4.197
-1.472 -1.091 4.198
-1.442 -1.0880001 4.1939998
-1.414 -1.086 4.1939998
-1.388 -1.086 4.1999998
-1.355 -1.08 4.1849999
-1.3279999 -1.079 4.1880002
-1.301 -1.077 4.1900001
-1.271 -1.073 4.1789999
-1.243 -1.071 4.1799998
-1.217 -1.071 4.184
-1.187 -1.066 4.1739998
-1.1619999 -1.066 4.1799998
-1.133 -1.063 4.1719999
-1.108 -1.063 4.1789999
-1.081 -1.061 4.1760001
-1.052 -1.057 4.1659999
-1.026 -1.056 4.1680002
-0.99699998 -1.051 4.1539998
-0.97299999 -1.052 4.164
-0.94800001 -1.052 4.1700001
-0.92299998 -1.052 4.1739998
-0.89600003 -1.048 4.165
-0.87 -1.0470001 4.1630001
-0.84200001 -1.044 4.1550002
-0.81800002 -1.044 4.1630001
-0.792 -1.0420001 4.1570001
-0.764 -1.0369999 4.1440001
-0.73900002 -1.0369999 4.1469998
-0.71200001 -1.033 4.1339998
-0.68800002 -1.033 4.1370001
-0.66399997 -1.033 4.1420002
-0.63999999 -1.035 4.1529999
-0.61299998 -1.03 4.1360002
-0.588 -1.029 4.1350002
-0.56400001 -1.03 4.1420002
-0.53799999 -1.025 4.1259999
-0.514 -1.027 4.1370001
-0.48899999 -1.024 4.1259999
-0.46399999 -1.024 4.1279998
-0.43900001 -1.021 4.1209998
-0.41600001 -1.022 4.1279998
-0.391 -1.022 4.1279998
-0.366 -1.017 4.1100001
-0.34099999 -1.015 4.1059999
-0.31799999 -1.018 4.1170001
-0.29300001 -1.015 4.1079998
-0.27000001 -1.016 4.1139998
-0.24600001 -1.017 4.1170001
-0.221 -1.013 4.105
-0.197 -1.013 4.105
-0.17200001 -1.008 4.0869999
-0.149 -1.0089999 4.0900002
-0.125 -1.01 4.0970001
-0.101 -1.006 4.0819998
-0.077 -1.007 4.0840001
-0.054000001 -1.006 4.0809999
-0.029999999 -1.005 4.079
-0.0060000001 -1.008 4.0890002
0.017000001 -1.007 4.085
0.039999999 -1.0039999 4.0739999
0.064000003 -1.007 4.0840001
0.088 -1.0039999 4.072
0.111 -1.005 4.0770001
0.13500001 -1.003 4.0689998
0.15899999 -1.0089999 4.0910001
0.182 -1.003 4.0669999
0.206 -1.006 4.0760002
0.23 -1.005 4.073
0.25400001 -1.006 4.0760002
0.27599999 -1.002 4.0570002
0.30000001 -1.0039999 4.0630002
0.324 -1.0039999 4.0640001
0.347 -1.003 4.0570002
0.37099999 -1.002 4.052
0.39500001 -1.0039999 4.0560002
0.41800001 -1.002 4.0489998
0.442 -1.0039999 4.053
0.46599999 -1.0039999 4.0510001
0.48800001 -1 4.0320001
0.51300001 -1.003 4.0430002
0.537 -1.003 4.04
0.56099999 -1.005 4.0430002
0.58200002 -1.001 4.0240002
0.60900003 -1.005 4.039
0.63200003 -1.0039999 4.0320001
0.65700001 -1.006 4.0370002
0.68000001 -1.006 4.033
0.704 -1.006 4.0279999
0.72600001 -1.0039999 4.0180001
0.74900001 -1.003 4.0110002
0.77600002 -1.008 4.0250001
0.80000001 -1.007 4.0190001
0.82300001 -1.007 4.0110002
0.85000002 -1.011 4.0229998
0.87099999 -1.008 4.0079999
0.89399999 -1.006 3.997
0.91799998 -1.007 3.9960001
0.94499999 -1.01 4.0009999
0.96600002 -1.008 3.9879999
0.99299997 -1.011 3.993
1.0190001 -1.013 3.9979999
1.043 -1.013 3.994
1.067 -1.0140001 3.9890001
1.097 -1.018 4.0029998
1.1160001 -1.015 3.9820001
1.1440001 -1.018 3.99
1.166 -1.017 3.977
1.193 -1.0190001 3.98
1.215 -1.018 3.9679999
1.2460001 -1.023 3.984
1.272 -1.024 3.9820001
1.293 -1.022 3.9649999
1.318 -1.022 3.96
1.345 -1.025 3.964
1.373 -1.028 3.967
1.398 -1.028 3.961
1.426 -1.031 3.964
1.451 -1.0319999 3.9579999
1.479 -1.034 3.9590001
1.508 -1.038 3.964
1.5319999 -1.0369999 3.9549999
1.561 -1.04 3.957
1.585 -1.04 3.9489999
1.6160001 -1.044 3.9560001
1.64 -1.044 3.9449999
1.664 -1.044 3.9349999
1.693 -1.046 3.934
1.724 -1.05 3.9400001
1.747 -1.049 3.9260001
1.777 -1.052 3.9300001
1.812 -1.058 3.9419999
1.834 -1.056 3.9260001
1.864 -1.059 3.9260001
1.8940001 -1.062 3.9260001
1.919 -1.062 3.915
1.954 -1.068 3.925
1.98 -1.068 3.9159999
2.007 -1.069 3.908
2.046 -1.076 3.924
2.0699999 -1.076 3.9100001
2.099 -1.077 3.905
2.1359999 -1.0829999 3.914
2.1630001 -1.084 3.9059999
2.1930001 -1.087 3.902
2.224 -1.089 3.8989999
2.253 -1.09 3.892
-2.454 -1.165 4.2610002
-2.4070001 -1.156 4.2410002
-2.375 -1.154 4.2459998
-2.342 -1.152 4.25
-2.3039999 -1.147 4.2459998
-2.2639999 -1.141 4.2350001
-2.2409999 -1.143 4.256
-2.198 -1.135 4.2389998
-2.165 -1.132 4.2399998
-2.1340001 -1.13 4.244
-2.1040001 -1.1289999 4.2509999
-2.0669999 -1.123 4.2420001
-2.0320001 -1.119 4.2360001
-2 -1.1160001 4.237
-1.964 -1.1109999 4.2280002
-1.936 -1.11 4.237
-1.901 -1.105 4.2290001
-1.87 -1.103 4.2309999
-1.836 -1.098 4.2220001
-1.804 -1.095 4.2210002
-1.773 -1.0930001 4.2199998
-1.743 -1.09 4.2199998
-1.712 -1.087 4.2189999
-1.6799999 -1.0829999 4.2119999
-1.651 -1.081 4.2150002
-1.622 -1.08 4.2179999
-1.5930001 -1.0779999 4.2179999
-1.562 -1.074 4.2129998
-1.531 -1.071 4.2080002
-1.502 -1.068 4.2059999
-1.474 -1.067 4.2090001
-1.442 -1.062 4.1989999
-1.413 -1.0599999 4.1960001
-1.385 -1.058 4.198
-1.355 -1.054 4.191
-1.329 -1.054 4.1960001
-1.3 -1.051 4.191
-1.272 -1.048 4.1890001
-1.242 -1.045 4.1810002
-1.217 -1.045 4.1880002
-1.192 -1.045 4.1950002
-1.161 -1.04 4.1820002
-1.1339999 -1.039 4.1820002
-1.1059999 -1.036 4.177
-1.081 -1.036 4.1830001
-1.053 -1.0319999 4.1739998
-1.025 -1.029 4.1690001
-0.99800003 -1.027 4.164
-0.97100002 -1.025 4.1609998
-0.94700003 -1.026 4.171
-0.92000002 -1.024 4.1659999
-0.89200002 -1.02 4.1560001
-0.86799997 -1.02 4.1609998
-0.84200001 -1.018 4.158
-0.81599998 -1.016 4.1550002
-0.792 -1.017 4.1620002
-0.76499999 -1.0140001 4.1560001
-0.74000001 -1.0140001 4.1570001
-0.71399999 -1.011 4.1490002
-0.69 -1.011 4.1550002
-0.66299999 -1.008 4.1440001
-0.639 -1.008 4.1469998
-0.611 -1.002 4.1269999
-0.588 -1.0039999 4.1399999
-0.56199998 -1.001 4.1279998
-0.537 -1 4.1290002
-0.514 -1.001 4.1360002
-0.48899999 -1 4.1329999
-0.46399999 -0.99800003 4.1290002
-0.43900001 -0.99699998 4.125
-0.414 -0.995 4.119
-0.391 -0.99599999 4.125
-0.36700001 -0.99699998 4.132
-0.34099999 -0.99199998 4.1139998
-0.31600001 -0.98900002 4.1030002
-0.29300001 -0.991 4.1149998
-0.26899999 -0.99000001 4.112
-0.24600001 -0.99199998 4.1199999
-0.221 -0.99000001 4.112
-0.197 -0.98900002 4.1090002
-0.17299999 -0.98900002 4.1129999
-0.149 -0.98799998 4.1059999
-0.125 -0.98500001 4.098
-0.101 -0.98299998 4.0900002
-0.077 -0.98299998 4.0910001
-0.054000001 -0.98400003 4.092
-0.029999999 -0.98400003 4.0939999
-0.0060000001 -0.98500001 4.0970001
0.017000001 -0.98199999 4.0879998
0.039999999 -0.98100001 4.0809999
0.064000003 -0.98299998 4.0900002
0.088 -0.98100001 4.0819998
0.111 -0.98000002 4.0770001
0.13500001 -0.98100001 4.0809999
0.15800001 -0.97899997 4.0710001
0.182 -0.98000002 4.073
0.205 -0.97899997 4.0679998
0.229 -0.97899997 4.0689998
0.252 -0.977 4.0570002
0.27599999 -0.97799999 4.0630002
0.30000001 -0.97799999 4.0619998
0.324 -0.97899997 4.0609999
0.347 -0.977 4.052
0.37099999 -0.98000002 4.0650001
0.39399999 -0.97799999 4.0539999
0.41800001 -0.97899997 4.0549998
0.442 -0.97899997 4.0549998
0.465 -0.977 4.0430002
0.48800001 -0.977 4.039
0.51300001 -0.97899997 4.0479999
0.53600001 -0.97899997 4.0440001
0.56099999 -0.98000002 4.046
0.58399999 -0.97899997 4.039
0.60799998 -0.98100001 4.0430002
0.63099998 -0.97899997 4.0320001
0.65499997 -0.98000002 4.033
0.67900002 -0.98100001 4.0320001
0.704 -0.98199999 4.0339999
0.72799999 -0.98299998 4.033
0.75099999 -0.98199999 4.026
0.773 -0.98000002 4.013
0.801 -0.98500001 4.0289998
0.82200003 -0.98199999 4.0139999
0.84600002 -0.98199999 4.0079999
0.87 -0.98299998 4.0079999
0.89600003 -0.98500001 4.013
0.92000002 -0.98500001 4.0079999
0.94300002 -0.98400003 3.9979999
0.96899998 -0.98699999 4.0050001
0.99599999 -0.99000001 4.013
1.02 -0.99000001 4.0079999
1.044 -0.99000001 4
1.067 -0.98900002 3.9920001
1.094 -0.99199998 3.9979999
1.117 -0.991 3.9879999
1.143 -0.99299997 3.99
1.166 -0.99299997 3.9820001
1.194 -0.995 3.987
1.216 -0.99400002 3.9760001
1.2410001 -0.995 3.9719999
1.2690001 -0.99800003 3.9779999
1.296 -1 3.98
1.325 -1.0039999 3.9890001
1.342 -0.99900001 3.961
1.372 -1.003 3.9690001
1.398 -1.0039999 3.967
1.426 -1.007 3.97
1.449 -1.006 3.9590001
1.476 -1.008 3.9579999
1.5089999 -1.013 3.9719999
1.535 -1.015 3.9679999
1.559 -1.0140001 3.9579999
1.589 -1.018 3.964
1.612 -1.017 3.951
1.642 -1.02 3.954
1.665 -1.0190001 3.9430001
1.697 -1.024 3.95
1.721 -1.023 3.9400001
1.747 -1.024 3.9330001
1.776 -1.027 3.9330001
1.807 -1.03 3.937
1.834 -1.031 3.931
1.863 -1.033 3.9289999
1.891 -1.036 3.927
1.918 -1.036 3.9189999
1.948 -1.039 3.918
1.979 -1.0420001 3.9189999
2.006 -1.043 3.9119999
2.0350001 -1.045 3.908
2.0610001 -1.046 3.8989999
2.098 -1.051 3.908
2.1300001 -1.0549999 3.911
2.158 -1.056 3.902
2.1830001 -1.056 3.8889999
2.2219999 -1.062 3.901
2.2550001 -1.066 3.902
-2.454 -1.137 4.2680001
-2.4089999 -1.1289999 4.25
-2.381 -1.1289999 4.2649999
-2.339 -1.123 4.2519999
-2.3069999 -1.12 4.256
-2.2679999 -1.115 4.2490001
-2.2320001 -1.1109999 4.2449999
-2.1960001 -1.1059999 4.2399998
-2.168 -1.1059999 4.2519999
-2.1340001 -1.103 4.25
-2.0969999 -1.098 4.2420001
-2.062 -1.094 4.2379999
-2.0309999 -1.091 4.2410002
-2.0009999 -1.09 4.2449999
-1.967 -1.085 4.2399998
-1.933 -1.082 4.237
-1.903 -1.08 4.2389998
-1.8710001 -1.077 4.2379999
-1.834 -1.071 4.2259998
-1.802 -1.067 4.2220001
-1.767 -1.062 4.2119999
-1.7410001 -1.063 4.2220001
-1.711 -1.0599999 4.223
-1.677 -1.0549999 4.2119999
-1.651 -1.0549999 4.2199998
-1.62 -1.052 4.217
-1.5880001 -1.048 4.2119999
-1.561 -1.048 4.2160001
-1.5319999 -1.045 4.2150002
-1.499 -1.04 4.204
-1.473 -1.04 4.2119999
-1.442 -1.036 4.204
-1.4119999 -1.033 4.1999998
-1.385 -1.0319999 4.204
-1.358 -1.031 4.2059999
-1.327 -1.027 4.1960001
-1.3 -1.026 4.198
-1.273 -1.024 4.1999998
-1.243 -1.02 4.1900001
-1.2180001 -1.02 4.1960001
-1.1900001 -1.018 4.1939998
-1.164 -1.018 4.1989999
-1.132 -1.011 4.178
-1.1059999 -1.011 4.1820002
-1.08 -1.01 4.184
-1.056 -1.011 4.1939998
-1.028 -1.007 4.1849999
-1.001 -1.005 4.1830001
-0.972 -1.001 4.171
-0.94499999 -0.99900001 4.1680002
-0.92199999 -1.001 4.1789999
-0.89499998 -0.99800003 4.1739998
-0.86400002 -0.99000001 4.145
-0.84100002 -0.99199998 4.158
-0.81599998 -0.99199998 4.1630001
-0.78799999 -0.98699999 4.1459999
-0.764 -0.98799998 4.1539998
-0.73900002 -0.98799998 4.158
-0.71200001 -0.98400003 4.145
-0.68800002 -0.98400003 4.1500001
-0.66299999 -0.98400003 4.151
-0.63700002 -0.98100001 4.1430001
-0.61400002 -0.98299998 4.1539998
-0.588 -0.98100001 4.1490002
-0.56199998 -0.97799999 4.1389999
-0.537 -0.97600001 4.132
-0.51300001 -0.97500002 4.132
-0.48699999 -0.972 4.1240001
-0.46399999 -0.97500002 4.1360002
-0.43900001 -0.972 4.1279998
-0.414 -0.97100002 4.125
-0.38999999 -0.96899998 4.119
-0.36700001 -0.972 4.1360002
-0.34200001 -0.96899998 4.1220002
-0.317 -0.96600002 4.112
-0.29300001 -0.96600002 4.1160002
-0.26899999 -0.96799999 4.1240001
-0.245 -0.96499997 4.1129999
-0.22 -0.963 4.1040001
-0.197 -0.963 4.105
-0.17299999 -0.96200001 4.1059999
-0.149 -0.96399999 4.1139998
-0.125 -0.963 4.1110001
-0.101 -0.95999998 4.0960002
-0.078000002 -0.963 4.1090002
-0.054000001 -0.95999998 4.098
-0.029999999 -0.95899999 4.0960002
-0.0060000001 -0.958 4.0890002
0.017000001 -0.95700002 4.085
0.039999999 -0.958 4.0910001
0.064000003 -0.958 4.0890002
0.088 -0.95700002 4.085
0.111 -0.95700002 4.0869999
0.13500001 -0.95599997 4.079
0.15800001 -0.95499998 4.0770001
0.182 -0.954 4.0679998
0.206 -0.95599997 4.0780001
0.229 -0.95599997 4.0780001
0.25299999 -0.95499998 4.072
0.27599999 -0.954 4.0669999
0.30000001 -0.954 4.0650001
0.32300001 -0.954 4.0609999
0.347 -0.95499998 4.0650001
0.37 -0.954 4.0570002
0.39500001 -0.95499998 4.0619998
0.417 -0.954 4.0539999
0.442 -0.95599997 4.0599999
0.465 -0.954 4.0510001
0.49000001 -0.95700002 4.0599999
0.51200002 -0.95499998 4.0489998
0.53600001 -0.95499998 4.046
0.56099999 -0.95599997 4.0510001
0.583 -0.954 4.0370002
0.60699999 -0.95499998 4.0380001
0.63099998 -0.95599997 4.039
0.65499997 -0.95700002 4.04
0.67799997 -0.95499998 4.027
0.70300001 -0.95700002 4.0359998
0.72600001 -0.95599997 4.027
0.75099999 -0.958 4.0279999
0.77499998 -0.958 4.0250001
0.79900002 -0.958 4.0240002
0.824 -0.95999998 4.0279999
0.84600002 -0.95899999 4.0159998
0.87099999 -0.95999998 4.0180001
0.89700001 -0.96200001 4.02
0.921 -0.96200001 4.0159998
0.94499999 -0.963 4.0139999
0.97100002 -0.96399999 4.0170002
0.99000001 -0.95999998 3.9920001
1.015 -0.96200001 3.994
1.044 -0.96600002 4.0079999
1.068 -0.96600002 4.0029998
1.092 -0.96600002 3.9960001
1.1160001 -0.96700001 3.9920001
1.143 -0.96899998 3.994
1.1670001 -0.96899998 3.9909999
1.191 -0.96899998 3.984
1.22 -0.97299999 3.993
1.243 -0.972 3.983
1.267 -0.972 3.9760001
1.293 -0.97399998 3.9760001
1.3200001 -0.97600001 3.9790001
1.344 -0.97500002 3.9690001
1.374 -0.98000002 3.98
1.398 -0.98000002 3.9719999
1.4220001 -0.98000002 3.964
1.448 -0.98100001 3.961
1.477 -0.98400003 3.967
1.5 -0.98299998 3.9530001
1.5319999 -0.98799998 3.9660001
1.552 -0.986 3.947
1.587 -0.99199998 3.964
1.612 -0.99199998 3.9560001
1.637 -0.99299997 3.95
1.6670001 -0.99599999 3.9530001
1.694 -0.99699998 3.95
1.719 -0.99699998 3.941
1.75 -1.001 3.944
1.78 -1.0039999 3.947
1.8049999 -1.0039999 3.9389999
1.8380001 -1.0089999 3.9460001
1.863 -1.0089999 3.9349999
1.89 -1.01 3.9289999
1.9220001 -1.013 3.9319999
1.95 -1.015 3.9289999
1.98 -1.017 3.927
2.007 -1.0190001 3.921
2.0369999 -1.021 3.9170001
2.0699999 -1.025 3.921
2.095 -1.024 3.9089999
2.1329999 -1.031 3.921
2.161 -1.0319999 3.914
2.188 -1.0319999 3.904
2.2249999 -1.038 3.911
2.2579999 -1.041 3.9119999
-2.4519999 -1.108 4.27
-2.4130001 -1.103 4.2639999
-2.3699999 -1.096 4.25
-2.3440001 -1.097 4.2670002
-2.303 -1.091 4.2550001
-2.2679999 -1.087 4.2550001
-2.2290001 -1.081 4.244
-2.198 -1.08 4.2509999
-2.1659999 -1.0779999 4.2540002
-2.1329999 -1.075 4.2550001
-2.095 -1.069 4.244
-2.0610001 -1.066 4.2420001
-2.029 -1.063 4.243
-2 -1.062 4.25
-1.964 -1.057 4.2410002
-1.941 -1.059 4.2600002
-1.9 -1.051 4.2379999
-1.8660001 -1.0470001 4.2329998
-1.839 -1.0470001 4.2420001
-1.804 -1.0420001 4.2319999
-1.774 -1.04 4.2329998
-1.742 -1.0369999 4.2309999
-1.7130001 -1.035 4.2340002
-1.682 -1.0319999 4.23
-1.646 -1.026 4.2140002
-1.6160001 -1.024 4.2129998
-1.589 -1.023 4.2179999
-1.558 -1.0190001 4.2129998
-1.529 -1.017 4.2140002
-1.5039999 -1.018 4.224
-1.47 -1.013 4.21
-1.4400001 -1.01 4.2049999
-1.414 -1.0089999 4.2090001
-1.381 -1.0039999 4.197
-1.357 -1.005 4.2090001
-1.329 -1.003 4.2069998
-1.298 -0.99900001 4.197
-1.271 -0.99699998 4.198
-1.248 -0.99900001 4.2129998
-1.215 -0.99299997 4.1939998
-1.186 -0.99000001 4.1869998
-1.161 -0.98900002 4.1919999
-1.131 -0.98500001 4.1799998
-1.107 -0.98699999 4.1919999
-1.0779999 -0.98299998 4.1810002
-1.054 -0.98299998 4.1890001
-1.025 -0.98000002 4.1810002
-0.99900001 -0.97799999 4.1789999
-0.97500002 -0.97899997 4.1880002
-0.94499999 -0.97399998 4.1729999
-0.92000002 -0.97399998 4.177
-0.89099997 -0.96899998 4.1599998
-0.86500001 -0.96700001 4.1550002
-0.84200001 -0.96899998 4.1690001
-0.81599998 -0.96700001 4.1669998
-0.79000002 -0.96499997 4.1620002
-0.76499999 -0.96499997 4.164
-0.73799998 -0.96200001 4.158
-0.71499997 -0.963 4.165
-0.68800002 -0.95999998 4.1529999
-0.66399997 -0.95999998 4.1609998
-0.63800001 -0.95899999 4.1570001
-0.61199999 -0.95499998 4.1459999
-0.58700001 -0.95499998 4.145
-0.56300002 -0.954 4.1459999
-0.537 -0.95099998 4.1370001
-0.51499999 -0.954 4.1539998
-0.48800001 -0.94999999 4.138
-0.46399999 -0.95099998 4.1420002
-0.43799999 -0.94700003 4.1290002
-0.41499999 -0.949 4.1399999
-0.38999999 -0.94599998 4.1290002
-0.36700001 -0.94800001 4.1389999
-0.34099999 -0.94400001 4.1230001
-0.317 -0.94300002 4.1209998
-0.294 -0.94499999 4.1329999
-0.26899999 -0.94300002 4.1240001
-0.245 -0.94300002 4.1259999
-0.22 -0.93800002 4.105
-0.197 -0.93900001 4.1090002
-0.17299999 -0.94 4.1160002
-0.149 -0.93699998 4.1040001
-0.125 -0.93900001 4.1149998
-0.101 -0.93699998 4.1079998
-0.077 -0.93699998 4.1059999
-0.052999999 -0.935 4.098
-0.029999999 -0.93599999 4.1009998
-0.0060000001 -0.93300003 4.0900002
0.017000001 -0.93699998 4.1059999
0.039999999 -0.93599999 4.1009998
0.064000003 -0.93599999 4.1009998
0.088 -0.935 4.0970001
0.111 -0.93300003 4.0890002
0.13500001 -0.93300003 4.086
0.15800001 -0.93099999 4.0809999
0.182 -0.93199998 4.0809999
0.206 -0.93199998 4.0799999
0.229 -0.93199998 4.0780001
0.25299999 -0.93199998 4.0799999
0.27599999 -0.93000001 4.0669999
0.30000001 -0.93199998 4.0749998
0.324 -0.93300003 4.0780001
0.34799999 -0.93300003 4.0780001
0.37200001 -0.93300003 4.0760002
0.39399999 -0.93000001 4.0619998
0.41800001 -0.93000001 4.0609999
0.44100001 -0.93000001 4.0570002
0.465 -0.93099999 4.0570002
0.48800001 -0.93000001 4.0500002
0.51300001 -0.93199998 4.0570002
0.53399998 -0.92799997 4.0380001
0.56099999 -0.93300003 4.0549998
0.58200002 -0.93000001 4.039
0.60600001 -0.92900002 4.0349998
0.63200003 -0.93300003 4.0479999
0.65499997 -0.93300003 4.0440001
0.67799997 -0.93199998 4.0359998
0.704 -0.935 4.0440001
0.727 -0.93400002 4.0370002
0.75099999 -0.93400002 4.033
0.77399999 -0.93400002 4.0289998
0.80000001 -0.93599999 4.0339999
0.82300001 -0.935 4.027
0.84600002 -0.935 4.0219998
0.86900002 -0.93400002 4.0139999
0.89399999 -0.935 4.013
0.92000002 -0.93699998 4.0170002
0.94300002 -0.93699998 4.0110002
0.96600002 -0.93599999 4.0029998
0.99299997 -0.93900001 4.0089998
1.017 -0.93900001 4.0050001
1.044 -0.94199997 4.0120001
1.067 -0.94099998 4.0029998
1.09 -0.94 3.994
1.118 -0.94400001 4.0050001
1.141 -0.94300002 3.9949999
1.166 -0.94400001 3.9920001
1.192 -0.94599998 3.993
1.2180001 -0.94800001 3.994
1.243 -0.94800001 3.9879999
1.266 -0.94800001 3.9809999
1.294 -0.94999999 3.9860001
1.319 -0.95099998 3.98
1.345 -0.95200002 3.9790001
1.372 -0.954 3.98
1.395 -0.954 3.9690001
1.424 -0.95700002 3.9749999
1.454 -0.95999998 3.9820001
1.475 -0.958 3.964
1.502 -0.95999998 3.9649999
1.529 -0.96200001 3.964
1.559 -0.96499997 3.9679999
1.581 -0.96399999 3.9560001
1.617 -0.97100002 3.9749999
1.636 -0.96700001 3.9519999
1.666 -0.97100002 3.957
1.696 -0.97299999 3.9579999
1.722 -0.97399998 3.9519999
1.751 -0.977 3.9530001
1.777 -0.97799999 3.947
1.804 -0.97899997 3.9419999
1.83 -0.97899997 3.934
1.8609999 -0.98199999 3.9360001
1.8890001 -0.98400003 3.934
1.916 -0.98500001 3.9260001
1.946 -0.98799998 3.925
1.982 -0.99299997 3.937
2.01 -0.995 3.9319999
2.04 -0.99699998 3.9289999
2.072 -1 3.9319999
2.098 -1.001 3.921
2.128 -1.003 3.918
2.165 -1.008 3.927
2.1849999 -1.006 3.905
2.224 -1.012 3.9170001
2.247 -1.011 3.9000001
-2.451 -1.079 4.2740002
-2.4159999 -1.076 4.2750001
-2.3740001 -1.0700001 4.2639999
-2.3410001 -1.068 4.2680001
-2.306 -1.064 4.2659998
-2.267 -1.059 4.2579999
-2.2320001 -1.056 4.2579999
-2.2049999 -1.056 4.27
-2.1659999 -1.05 4.2589998
-2.131 -1.0470001 4.257
-2.1010001 -1.045 4.2610002
-2.0639999 -1.04 4.2540002
-2.0250001 -1.034 4.2410002
-1.999 -1.035 4.2540002
-1.9579999 -1.027 4.2329998
-1.936 -1.03 4.2550001
-1.9 -1.024 4.244
-1.865 -1.02 4.2360001
-1.837 -1.0190001 4.2420001
-1.804 -1.016 4.2389998
-1.7690001 -1.011 4.2280002
-1.739 -1.0089999 4.2290001
-1.71 -1.007 4.2319999
-1.682 -1.006 4.2350001
-1.65 -1.003 4.2309999
-1.622 -1.001 4.2350001
-1.5880001 -0.99599999 4.223
-1.5599999 -0.995 4.2259998
-1.529 -0.99199998 4.2189999
-1.501 -0.99000001 4.2199998
-1.47 -0.98699999 4.2160001
-1.444 -0.98699999 4.223
-1.411 -0.98100001 4.2059999
-1.3839999 -0.98000002 4.211
-1.358 -0.98000002 4.217
-1.327 -0.97600001 4.2069998
-1.3 -0.97500002 4.2090001
-1.2690001 -0.97100002 4.198
-1.242 -0.96899998 4.1989999
-1.214 -0.96600002 4.1929998
-1.188 -0.96600002 4.1999998
-1.161 -0.96399999 4.1960001
-1.133 -0.96200001 4.1939998
-1.1059999 -0.95999998 4.191
-1.0779999 -0.958 4.1880002
-1.052 -0.95599997 4.1869998
-1.024 -0.954 4.1810002
-1 -0.954 4.1890001
-0.97299999 -0.95200002 4.184
-0.94499999 -0.949 4.177
-0.92000002 -0.949 4.1789999
-0.89200002 -0.94499999 4.1690001
-0.86799997 -0.94599998 4.1760001
-0.84100002 -0.94300002 4.1680002
-0.81400001 -0.94099998 4.164
-0.78799999 -0.93900001 4.1599998
-0.76599997 -0.94099998 4.1739998
-0.73799998 -0.93699998 4.1609998
-0.71100003 -0.93400002 4.1500001
-0.68800002 -0.93599999 4.1630001
-0.66399997 -0.93599999 4.1659999
-0.63700002 -0.93300003 4.1550002
-0.611 -0.93000001 4.145
-0.58600003 -0.92799997 4.1399999
-0.56300002 -0.93000001 4.152
-0.537 -0.92699999 4.1409998
-0.51300001 -0.92799997 4.1490002
-0.48699999 -0.92500001 4.1370001
-0.463 -0.92500001 4.1389999
-0.43900001 -0.92400002 4.1399999
-0.414 -0.92199999 4.1300001
-0.38999999 -0.92199999 4.1339998
-0.366 -0.92299998 4.1409998
-0.34099999 -0.91799998 4.1220002
-0.317 -0.92000002 4.131
-0.29300001 -0.92000002 4.132
-0.26899999 -0.91900003 4.1279998
-0.244 -0.91500002 4.1139998
-0.221 -0.917 4.1220002
-0.19599999 -0.91399997 4.1129999
-0.17299999 -0.91500002 4.118
-0.149 -0.91500002 4.119
-0.125 -0.91299999 4.1069999
-0.101 -0.91299999 4.112
-0.077 -0.912 4.105
-0.054000001 -0.91299999 4.1100001
-0.029999999 -0.91100001 4.1020002
-0.0060000001 -0.91000003 4.0999999
0.017000001 -0.91100001 4.1040001
0.039999999 -0.912 4.1069999
0.064000003 -0.91000003 4.0970001
0.088 -0.91000003 4.099
0.112 -0.91100001 4.1020002
0.13500001 -0.90899998 4.0939999
0.15899999 -0.90899998 4.0900002
0.182 -0.90799999 4.0840001
0.206 -0.90799999 4.0830002
0.229 -0.90899998 4.0869999
0.25299999 -0.90799999 4.0809999
0.27500001 -0.90499997 4.066
0.30000001 -0.90700001 4.0739999
0.32300001 -0.90600002 4.0689998
0.347 -0.90799999 4.0749998
0.36899999 -0.90399998 4.0549998
0.39399999 -0.90700001 4.0700002
0.419 -0.90799999 4.073
0.44100001 -0.90499997 4.0560002
0.46599999 -0.90799999 4.0679998
0.48800001 -0.90600002 4.0560002
0.51099998 -0.90499997 4.0469999
0.53500003 -0.90600002 4.0510001
0.55900002 -0.90600002 4.0450001
0.583 -0.90700001 4.0500002
0.60699999 -0.90700001 4.0469999
0.63099998 -0.90799999 4.0489998
0.65399998 -0.90799999 4.0430002
0.67900002 -0.90899998 4.046
0.70200002 -0.90899998 4.039
0.72500002 -0.90799999 4.033
0.74900001 -0.90799999 4.027
0.77399999 -0.90899998 4.0310001
0.79799998 -0.91000003 4.0310001
0.82300001 -0.91100001 4.0310001
0.84600002 -0.91100001 4.0240002
0.87099999 -0.912 4.0250001
0.89499998 -0.91299999 4.0240002
0.92000002 -0.91399997 4.0240002
0.94400001 -0.91399997 4.0190001
0.96899998 -0.91500002 4.0190001
0.99299997 -0.91500002 4.0159998
1.018 -0.917 4.0159998
1.046 -0.91900003 4.0229998
1.066 -0.917 4.0050001
1.091 -0.917 4.0029998
1.117 -0.91900003 4.0029998
1.143 -0.921 4.0079999
1.1670001 -0.921 4
1.1900001 -0.92000002 3.9920001
1.216 -0.921 3.99
1.243 -0.92400002 3.994
1.2690001 -0.926 3.9949999
1.293 -0.92500001 3.987
1.322 -0.92900002 3.994
1.3430001 -0.92699999 3.9779999
1.37 -0.92799997 3.9779999
1.398 -0.93099999 3.9820001
1.425 -0.93300003 3.983
1.45 -0.93300003 3.9760001
1.48 -0.93699998 3.983
1.502 -0.93599999 3.971
1.529 -0.93699998 3.9679999
1.558 -0.94 3.9719999
1.5829999 -0.94 3.9649999
1.61 -0.94199997 3.9619999
1.64 -0.94499999 3.967
1.6670001 -0.94599998 3.9630001
1.697 -0.949 3.967
1.715 -0.94599998 3.9430001
1.747 -0.949 3.9489999
1.775 -0.95200002 3.948
1.806 -0.95499998 3.951
1.83 -0.954 3.938
1.859 -0.95599997 3.937
1.892 -0.95999998 3.944
1.923 -0.96399999 3.9460001
1.948 -0.96399999 3.9360001
1.979 -0.96600002 3.9360001
2.0090001 -0.96899998 3.9349999
2.036 -0.96899998 3.927
2.069 -0.97299999 3.9300001
2.0999999 -0.97600001 3.9300001
2.128 -0.977 3.9230001
2.1630001 -0.98199999 3.9289999
2.188 -0.98100001 3.9159999
2.22 -0.98400003 3.915
2.26 -0.99000001 3.927
-2.4530001 -1.052 4.2839999
-2.4070001 -1.044 4.2659998
-2.3710001 -1.041 4.2639999
-2.3399999 -1.039 4.2709999
-2.2969999 -1.033 4.256
-2.2709999 -1.033 4.2709999
-2.2409999 -1.0319999 4.2800002
-2.2060001 -1.029 4.2789998
-2.1689999 -1.024 4.2709999
-2.1259999 -1.017 4.2519999
-2.1010001 -1.018 4.2670002
-2.069 -1.015 4.2690001
-2.03 -1.0089999 4.256
-1.9960001 -1.006 4.2529998
-1.966 -1.005 4.257
-1.929 -0.99900001 4.244
-1.895 -0.995 4.2379999
-1.87 -0.99599999 4.2540002
-1.834 -0.991 4.243
-1.804 -0.98900002 4.243
-1.771 -0.986 4.2389998
-1.742 -0.98400003 4.2420001
-1.712 -0.98199999 4.2420001
-1.678 -0.977 4.2309999
-1.65 -0.97600001 4.2350001
-1.618 -0.97299999 4.23
-1.59 -0.97100002 4.2329998
-1.558 -0.96799999 4.2259998
-1.528 -0.96499997 4.223
-1.499 -0.963 4.2210002
-1.469 -0.95999998 4.2179999
-1.442 -0.95899999 4.2199998
-1.413 -0.95700002 4.2189999
-1.382 -0.95300001 4.2090001
-1.357 -0.954 4.2189999
-1.327 -0.95099998 4.2129998
-1.299 -0.94800001 4.21
-1.27 -0.94599998 4.2069998
-1.247 -0.94700003 4.2189999
-1.215 -0.94199997 4.2030001
-1.188 -0.94099998 4.204
-1.16 -0.93900001 4.2010002
-1.132 -0.93599999 4.1950002
-1.105 -0.93400002 4.1919999
-1.0779999 -0.93199998 4.1890001
-1.054 -0.93300003 4.2010002
-1.023 -0.92799997 4.1830001
-0.99800003 -0.92799997 4.1869998
-0.97299999 -0.92699999 4.1900001
-0.94700003 -0.926 4.1890001
-0.92199999 -0.926 4.1960001
-0.89099997 -0.92000002 4.1719999
-0.866 -0.91900003 4.1729999
-0.84100002 -0.91900003 4.1750002
-0.815 -0.917 4.1719999
-0.792 -0.91799998 4.1820002
-0.76499999 -0.91600001 4.1750002
-0.741 -0.91600001 4.1820002
-0.713 -0.912 4.1659999
-0.68900001 -0.91299999 4.1739998
-0.662 -0.90899998 4.1609998
-0.63800001 -0.90899998 4.1609998
-0.61299998 -0.90899998 4.165
-0.588 -0.90700001 4.1599998
-0.56199998 -0.90399998 4.1479998
-0.53799999 -0.90499997 4.1589999
-0.51300001 -0.90200001 4.1469998
-0.48899999 -0.90399998 4.1570001
-0.46200001 -0.898 4.131
-0.43900001 -0.90100002 4.1479998
-0.414 -0.89899999 4.1420002
-0.38999999 -0.89700001 4.1360002
-0.36500001 -0.89600003 4.1339998
-0.34099999 -0.89600003 4.1360002
-0.317 -0.89399999 4.1279998
-0.294 -0.89700001 4.1430001
-0.26899999 -0.89499998 4.1360002
-0.245 -0.89399999 4.1329999
-0.221 -0.89200002 4.1220002
-0.197 -0.89300001 4.1290002
-0.17299999 -0.89200002 4.1269999
-0.149 -0.89200002 4.1269999
-0.125 -0.889 4.112
-0.101 -0.88800001 4.1090002
-0.077 -0.88999999 4.1199999
-0.052999999 -0.88800001 4.1090002
-0.029999999 -0.884 4.0929999
-0.0060000001 -0.88599998 4.1040001
0.017000001 -0.88599998 4.1030002
0.039999999 -0.88599998 4.1040001
0.064000003 -0.88599998 4.1030002
0.088 -0.88499999 4.0949998
0.111 -0.88499999 4.0960002
0.13500001 -0.88499999 4.0939999
0.15800001 -0.884 4.0890002
0.182 -0.884 4.0910001
0.205 -0.884 4.086
0.229 -0.88499999 4.0900002
0.25299999 -0.884 4.0840001
0.27599999 -0.88300002 4.079
0.30000001 -0.884 4.0840001
0.324 -0.88499999 4.086
0.34599999 -0.88200003 4.0700002
0.37099999 -0.884 4.0780001
0.39399999 -0.88300002 4.072
0.41800001 -0.884 4.073
0.44100001 -0.88200003 4.0619998
0.465 -0.88300002 4.066
0.48899999 -0.884 4.0689998
0.51200002 -0.88300002 4.059
0.53600001 -0.884 4.0619998
0.56 -0.884 4.0599999
0.58600003 -0.88700002 4.072
0.60600001 -0.88300002 4.0489998
0.63099998 -0.884 4.053
0.653 -0.88200003 4.0359998
0.67900002 -0.88599998 4.052
0.70200002 -0.88499999 4.0430002
0.72600001 -0.88499999 4.0419998
0.75099999 -0.88599998 4.0440001
0.773 -0.884 4.0300002
0.79799998 -0.88599998 4.0359998
0.82099998 -0.88599998 4.0289998
0.84500003 -0.88599998 4.026
0.87099999 -0.88800001 4.0320001
0.89600003 -0.889 4.0310001
0.92000002 -0.88999999 4.0289998
0.94099998 -0.88700002 4.0110002
0.96899998 -0.89099997 4.0219998
0.995 -0.89300001 4.026
1.017 -0.89099997 4.0149999
1.04 -0.89099997 4.0079999
1.068 -0.89399999 4.0159998
1.095 -0.89600003 4.0219998
1.117 -0.89499998 4.0089998
1.142 -0.89600003 4.007
1.166 -0.89600003 4.0019999
1.196 -0.89999998 4.0149999
1.217 -0.89899999 4
1.243 -0.89999998 4
1.265 -0.898 3.9860001
1.2920001 -0.90100002 3.99
1.318 -0.90200001 3.987
1.3430001 -0.90200001 3.983
1.373 -0.90600002 3.9920001
1.397 -0.90600002 3.984
1.4220001 -0.90700001 3.98
1.444 -0.90499997 3.9649999
1.477 -0.91100001 3.9820001
1.5 -0.91000003 3.971
1.5319999 -0.91500002 3.9820001
1.559 -0.91600001 3.98
1.584 -0.91600001 3.973
1.6109999 -0.91799998 3.9690001
1.637 -0.91900003 3.9649999
1.661 -0.91799998 3.9549999
1.694 -0.92299998 3.964
1.719 -0.92299998 3.9560001
1.745 -0.92400002 3.9489999
1.774 -0.926 3.9489999
1.8049999 -0.92900002 3.954
1.834 -0.93099999 3.9530001
1.86 -0.93199998 3.9449999
1.895 -0.93699998 3.9549999
1.916 -0.935 3.938
1.944 -0.93699998 3.9330001
1.974 -0.93900001 3.931
2.003 -0.94099998 3.928
2.0439999 -0.94800001 3.948
2.0650001 -0.94599998 3.928
2.099 -0.94999999 3.934
2.131 -0.95300001 3.9330001
2.155 -0.95200002 3.9200001
2.1930001 -0.958 3.931
2.2190001 -0.958 3.918
2.2579999 -0.96399999 3.9289999
-2.447 -1.022 4.2789998
-2.411 -1.018 4.2779999
-2.3770001 -1.016 4.2820001
-2.3369999 -1.01 4.2719998
-2.3039999 -1.008 4.2740002
-2.2690001 -1.005 4.2740002
-2.23 -1 4.2649999
-2.1960001 -0.99699998 4.2649999
-2.1659999 -0.995 4.27
-2.128 -0.99000001 4.2620001
-2.0910001 -0.986 4.2540002
-2.0569999 -0.98199999 4.25
-2.0309999 -0.98299998 4.2639999
-1.999 -0.98100001 4.2649999
-1.965 -0.977 4.2600002
-1.931 -0.97399998 4.256
-1.8940001 -0.96799999 4.243
-1.865 -0.96700001 4.2470002
-1.84 -0.96700001 4.2610002
-1.803 -0.96200001 4.2470002
-1.776 -0.96200001 4.2550001
-1.734 -0.95300001 4.2270002
-1.716 -0.95700002 4.256
-1.679 -0.95200002 4.2399998
-1.648 -0.949 4.2360001
-1.617 -0.94599998 4.2329998
-1.587 -0.94400001 4.2309999
-1.5549999 -0.94 4.223
-1.526 -0.93800002 4.2220001
-1.5 -0.93800002 4.2280002
-1.472 -0.93599999 4.2309999
-1.442 -0.93400002 4.2270002
-1.4170001 -0.93400002 4.2350001
-1.382 -0.92799997 4.2150002
-1.359 -0.92900002 4.23
-1.3279999 -0.92500001 4.2189999
-1.3 -0.92299998 4.217
-1.273 -0.92299998 4.2210002
-1.242 -0.91900003 4.2090001
-1.216 -0.91799998 4.2119999
-1.1849999 -0.91299999 4.198
-1.164 -0.91600001 4.2179999
-1.1339999 -0.91299999 4.2080002
-1.107 -0.91100001 4.2059999
-1.077 -0.90700001 4.1939998
-1.054 -0.90899998 4.2059999
-1.028 -0.90799999 4.2090001
-0.99900001 -0.90399998 4.197
-0.97299999 -0.903 4.1960001
-0.94800001 -0.90200001 4.1989999
-0.91900003 -0.898 4.1849999
-0.89300001 -0.89700001 4.1859999
-0.866 -0.89499998 4.1789999
-0.83999997 -0.89300001 4.1729999
-0.81599998 -0.89399999 4.1820002
-0.79000002 -0.89200002 4.178
-0.76499999 -0.89099997 4.178
-0.73900002 -0.889 4.1729999
-0.71200001 -0.88700002 4.1669998
-0.68699998 -0.88599998 4.1659999
-0.66299999 -0.88599998 4.1700001
-0.63599998 -0.88300002 4.158
-0.61199999 -0.88300002 4.1609998
-0.588 -0.88300002 4.164
-0.56199998 -0.88099998 4.158
-0.53799999 -0.88 4.158
-0.51300001 -0.87900001 4.158
-0.48699999 -0.87599999 4.1430001
-0.46200001 -0.87400001 4.138
-0.43900001 -0.87599999 4.152
-0.414 -0.875 4.145
-0.38999999 -0.87400001 4.1440001
-0.366 -0.87400001 4.1459999
-0.34099999 -0.87199998 4.1399999
-0.31600001 -0.87 4.1290002
-0.29300001 -0.87099999 4.1370001
-0.26899999 -0.87 4.1329999
-0.245 -0.87 4.1360002
-0.221 -0.86900002 4.1329999
-0.19599999 -0.86699998 4.1220002
-0.17299999 -0.86900002 4.1339998
-0.149 -0.86799997 4.1290002
-0.125 -0.866 4.1230001
-0.101 -0.86500001 4.1199999
-0.077 -0.86400002 4.1160002
-0.054000001 -0.86400002 4.1160002
-0.029999999 -0.86299998 4.1100001
-0.0060000001 -0.86199999 4.1040001
0.017000001 -0.86299998 4.1090002
0.039999999 -0.86299998 4.1090002
0.064000003 -0.86400002 4.1129999
0.088 -0.86299998 4.1069999
0.111 -0.86199999 4.1040001
0.13500001 -0.86000001 4.092
0.15800001 -0.86000001 4.0929999
0.182 -0.85900003 4.0869999
0.206 -0.861 4.098
0.229 -0.85900003 4.0869999
0.25299999 -0.86000001 4.0879998
0.27599999 -0.86000001 4.0869999
0.30000001 -0.86000001 4.0869999
0.32300001 -0.86000001 4.0840001
0.34599999 -0.85799998 4.073
0.37 -0.85699999 4.0689998
0.39399999 -0.86000001 4.0780001
0.419 -0.861 4.0840001
0.44299999 -0.86199999 4.085
0.46399999 -0.85799998 4.066
0.48800001 -0.85799998 4.0619998
0.51200002 -0.85900003 4.0609999
0.53500003 -0.85900003 4.0599999
0.55900002 -0.85900003 4.0560002
0.58399999 -0.861 4.0650001
0.60699999 -0.86000001 4.059
0.63 -0.86000001 4.053
0.65399998 -0.86000001 4.052
0.67900002 -0.861 4.053
0.70200002 -0.861 4.0469999
0.727 -0.86199999 4.0510001
0.75199997 -0.86400002 4.0539999
0.77200001 -0.85900003 4.0289998
0.79900002 -0.86299998 4.0419998
0.82300001 -0.86400002 4.0419998
0.84600002 -0.86299998 4.0349998
0.87099999 -0.86400002 4.0349998
0.89600003 -0.86500001 4.0359998
0.91900003 -0.86400002 4.026
0.94499999 -0.86699998 4.0320001
0.96700001 -0.86500001 4.02
0.99199998 -0.86699998 4.0209999
1.0190001 -0.86900002 4.0289998
1.046 -0.87099999 4.033
1.067 -0.86900002 4.0170002
1.091 -0.86900002 4.0120001
1.114 -0.86900002 4.0050001
1.1390001 -0.87 4.0029998
1.168 -0.87300003 4.0120001
1.194 -0.875 4.0139999
1.22 -0.87699997 4.0149999
1.24 -0.87400001 3.9960001
1.267 -0.87599999 3.997
1.2970001 -0.88 4.0079999
1.322 -0.88 4.0029998
1.344 -0.87900001 3.9909999
1.372 -0.88099998 3.9949999
1.397 -0.88200003 3.9890001
1.4220001 -0.88300002 3.9849999
1.448 -0.88300002 3.9809999
1.472 -0.88300002 3.971
1.506 -0.889 3.9909999
1.53 -0.889 3.9809999
1.556 -0.88999999 3.977
1.581 -0.88999999 3.971
1.608 -0.89099997 3.967
1.633 -0.89200002 3.96
1.666 -0.89600003 3.9719999
1.691 -0.89700001 3.964
1.72 -0.89899999 3.964
1.751 -0.90200001 3.9679999
1.778 -0.903 3.9649999
1.804 -0.90399998 3.9579999
1.829 -0.90399998 3.9460001
1.8609999 -0.90700001 3.9519999
1.888 -0.90799999 3.9460001
1.916 -0.91000003 3.9430001
1.9450001 -0.912 3.9400001
1.975 -0.91399997 3.9389999
2.0079999 -0.91799998 3.944
2.0380001 -0.92000002 3.941
2.0710001 -0.92299998 3.9449999
2.1040001 -0.92699999 3.947
2.132 -0.92799997 3.941
2.165 -0.93099999 3.9430001
2.1919999 -0.93199998 3.934
2.2149999 -0.93099999 3.9170001
2.2479999 -0.93400002 3.918
-2.454 -0.99599999 4.2969999
-2.4059999 -0.98799998 4.2750001
-2.3699999 -0.98500001 4.2729998
-2.342 -0.98400003 4.2859998
-2.3050001 -0.98100001 4.283
-2.267 -0.97600001 4.276
-2.2379999 -0.97600001 4.2849998
-2.1949999 -0.96899998 4.2680001
-2.1559999 -0.96399999 4.257
-2.1289999 -0.96399999 4.27
-2.0969999 -0.96100003 4.27
-2.0580001 -0.95599997 4.2589998
-2.03 -0.95599997 4.2680001
-1.99 -0.949 4.2509999
-1.964 -0.94999999 4.263
-1.929 -0.94599998 4.256
-1.9 -0.94400001 4.2610002
-1.8660001 -0.94099998 4.2550001
-1.8329999 -0.93800002 4.2509999
-1.801 -0.93400002 4.2459998
-1.774 -0.93400002 4.2540002
-1.739 -0.92900002 4.243
-1.709 -0.92799997 4.2449999
-1.676 -0.92400002 4.2379999
-1.651 -0.92400002 4.2470002
-1.613 -0.91799998 4.2270002
-1.59 -0.92000002 4.244
-1.559 -0.91600001 4.2379999
-1.528 -0.91299999 4.2319999
-1.498 -0.91000003 4.2270002
-1.47 -0.90899998 4.23
-1.441 -0.90700001 4.2290001
-1.4119999 -0.90499997 4.2259998
-1.3789999 -0.89999998 4.21
-1.354 -0.89999998 4.2189999
-1.323 -0.89700001 4.21
-1.298 -0.89700001 4.217
-1.268 -0.89300001 4.2080002
-1.243 -0.89399999 4.2179999
-1.215 -0.89099997 4.2119999
-1.1900001 -0.89200002 4.2189999
-1.159 -0.88700002 4.2049999
-1.135 -0.88800001 4.217
-1.105 -0.884 4.2020001
-1.08 -0.88499999 4.211
-1.052 -0.88200003 4.204
-1.029 -0.884 4.2179999
-0.99599999 -0.87599999 4.1859999
-0.97299999 -0.87800002 4.1999998
-0.94599998 -0.875 4.1939998
-0.91799998 -0.87199998 4.1849999
-0.89200002 -0.87199998 4.1869998
-0.86799997 -0.87199998 4.1939998
-0.84100002 -0.87 4.1859999
-0.815 -0.86799997 4.1820002
-0.79100001 -0.86799997 4.1880002
-0.76200002 -0.86400002 4.1690001
-0.73500001 -0.86000001 4.1570001
-0.71200001 -0.86199999 4.1700001
-0.68699998 -0.861 4.1700001
-0.66100001 -0.85900003 4.164
-0.63599998 -0.85799998 4.1589999
-0.61299998 -0.85900003 4.171
-0.588 -0.85799998 4.1690001
-0.56099999 -0.85399997 4.1500001
-0.537 -0.85399997 4.1539998
-0.51300001 -0.85399997 4.158
-0.48800001 -0.85399997 4.158
-0.46399999 -0.85299999 4.158
-0.43799999 -0.84899998 4.1409998
-0.414 -0.85000002 4.1469998
-0.389 -0.84799999 4.1409998
-0.36500001 -0.84799999 4.1420002
-0.34099999 -0.847 4.1389999
-0.317 -0.847 4.1399999
-0.29300001 -0.847 4.1409998
-0.26899999 -0.84500003 4.1339998
-0.244 -0.84399998 4.1279998
-0.22 -0.84200001 4.1240001
-0.19599999 -0.84299999 4.1279998
-0.17299999 -0.84299999 4.1269999
-0.148 -0.84100002 4.119
-0.125 -0.83999997 4.118
-0.101 -0.84200001 4.125
-0.077 -0.83999997 4.119
-0.054000001 -0.84200001 4.1259999
-0.029999999 -0.83999997 4.118
-0.0060000001 -0.83899999 4.1129999
0.017000001 -0.84100002 4.1240001
0.039999999 -0.838 4.1090002
0.064000003 -0.83700001 4.105
0.088 -0.83899999 4.112
0.111 -0.83700001 4.1009998
0.13500001 -0.83700001 4.0999999
0.15800001 -0.83700001 4.0999999
0.182 -0.83600003 4.0929999
0.205 -0.83499998 4.0879998
0.229 -0.83700001 4.0999999
0.25299999 -0.83600003 4.092
0.27700001 -0.83700001 4.0949998
0.30000001 -0.83700001 4.0929999
0.32300001 -0.83499998 4.0809999
0.34799999 -0.83899999 4.0999999
0.37099999 -0.838 4.0929999
0.39399999 -0.83600003 4.0830002
0.41800001 -0.83499998 4.0770001
0.44100001 -0.83399999 4.0700002
0.46599999 -0.83700001 4.0819998
0.486 -0.83200002 4.0549998
0.51300001 -0.83700001 4.0760002
0.53600001 -0.83600003 4.0679998
0.55800003 -0.83399999 4.0570002
0.583 -0.83600003 4.0609999
0.60600001 -0.83600003 4.0580001
0.63099998 -0.83700001 4.0599999
0.65499997 -0.83700001 4.0580001
0.67900002 -0.838 4.0609999
0.70200002 -0.83700001 4.053
0.727 -0.838 4.0539999
0.75099999 -0.83899999 4.0549998
0.77399999 -0.83899999 4.0479999
0.79699999 -0.838 4.04
0.82099998 -0.838 4.0380001
0.84600002 -0.83999997 4.04
0.87300003 -0.84200001 4.0489998
0.89700001 -0.84200001 4.0450001
0.921 -0.84200001 4.04
0.94300002 -0.84100002 4.0289998
0.96700001 -0.84200001 4.027
0.99299997 -0.84399998 4.0310001
1.017 -0.84399998 4.0250001
1.043 -0.84500003 4.0289998
1.068 -0.84600002 4.0250001
1.09 -0.84500003 4.013
1.115 -0.84600002 4.013
1.1390001 -0.84600002 4.007
1.168 -0.84899998 4.0170002
1.1900001 -0.84799999 4.0050001
1.216 -0.84899998 4.0040002
1.2410001 -0.85000002 4.0009999
1.2690001 -0.85299999 4.0079999
1.291 -0.852 3.9960001
1.317 -0.85299999 3.993
1.342 -0.85299999 3.9890001
1.3710001 -0.85600001 3.9949999
1.396 -0.85699999 3.9909999
1.424 -0.85900003 3.9949999
1.451 -0.861 3.994
1.477 -0.86199999 3.99
1.502 -0.86199999 3.983
1.53 -0.86400002 3.9849999
1.556 -0.86500001 3.9820001
1.58 -0.86500001 3.973
1.612 -0.86900002 3.9820001
1.635 -0.86799997 3.9690001
1.666 -0.87199998 3.9760001
1.694 -0.87300003 3.9749999
1.722 -0.875 3.974
1.748 -0.87599999 3.9679999
1.779 -0.87900001 3.971
1.806 -0.88 3.9660001
1.835 -0.88200003 3.964
1.863 -0.88300002 3.9619999
1.887 -0.88300002 3.9489999
1.92 -0.88700002 3.9560001
1.946 -0.88700002 3.948
1.982 -0.89200002 3.9579999
2.0039999 -0.89099997 3.941
2.0350001 -0.89300001 3.9419999
2.0650001 -0.89499998 3.9389999
2.098 -0.89899999 3.9419999
2.1300001 -0.90100002 3.9419999
2.1559999 -0.90200001 3.931
2.187 -0.90399998 3.9300001
2.224 -0.90799999 3.937
2.2520001 -0.90899998 3.9289999
-2.448 -0.96600002 4.2919998
-2.414 -0.963 4.2940001
-2.3800001 -0.96100003 4.2979999
-2.339 -0.95599997 4.2870002
-2.3039999 -0.95300001 4.2859998
-2.2690001 -0.949 4.2839999
-2.233 -0.94599998 4.2820001
-2.1949999 -0.94099998 4.2729998
-2.1659999 -0.94 4.2810001
-2.135 -0.93900001 4.2870002
-2.0940001 -0.93300003 4.27
-2.0580001 -0.92900002 4.263
-2.029 -0.92799997 4.2690001
-1.994 -0.92400002 4.2639999
-1.969 -0.92500001 4.2789998
-1.9349999 -0.92199999 4.2750001
-1.896 -0.91600001 4.257
-1.869 -0.91500002 4.2659998
-1.8380001 -0.91299999 4.2659998
-1.7970001 -0.90600002 4.243
-1.7640001 -0.903 4.2360001
-1.735 -0.90100002 4.2389998
-1.704 -0.898 4.2360001
-1.6799999 -0.89999998 4.2509999
-1.645 -0.89499998 4.2379999
-1.6160001 -0.89300001 4.2399998
-1.59 -0.89300001 4.2470002
-1.558 -0.88999999 4.2399998
-1.527 -0.88700002 4.2350001
-1.497 -0.884 4.2309999
-1.47 -0.884 4.2360001
-1.4400001 -0.88099998 4.23
-1.411 -0.87900001 4.2270002
-1.381 -0.87599999 4.2199998
-1.353 -0.875 4.2220001
-1.3279999 -0.87400001 4.2280002
-1.299 -0.87199998 4.2270002
-1.27 -0.87 4.2199998
-1.243 -0.86900002 4.2220001
-1.21 -0.86299998 4.2020001
-1.186 -0.86400002 4.2119999
-1.16 -0.86299998 4.2150002
-1.135 -0.86299998 4.2189999
-1.1059999 -0.86000001 4.211
-1.0779999 -0.85799998 4.2080002
-1.054 -0.85799998 4.2140002
-1.024 -0.85399997 4.1999998
-1 -0.85399997 4.2069998
-0.97100002 -0.85100001 4.1939998
-0.94400001 -0.85000002 4.1929998
-0.92000002 -0.84899998 4.198
-0.89499998 -0.84899998 4.2010002
-0.86500001 -0.84399998 4.1820002
-0.84100002 -0.84399998 4.1869998
-0.815 -0.84299999 4.1849999
-0.78899997 -0.84200001 4.1820002
-0.764 -0.84200001 4.1859999
-0.736 -0.83700001 4.1700001
-0.71200001 -0.838 4.1739998
-0.68599999 -0.83600003 4.1680002
-0.66100001 -0.83499998 4.1690001
-0.63599998 -0.83399999 4.1659999
-0.61299998 -0.83600003 4.178
-0.58600003 -0.83200002 4.1620002
-0.56199998 -0.83099997 4.1620002
-0.537 -0.82999998 4.1589999
-0.51300001 -0.82999998 4.164
-0.48800001 -0.829 4.1599998
-0.463 -0.82800001 4.1589999
-0.43900001 -0.82700002 4.1550002
-0.41499999 -0.82700002 4.158
-0.38999999 -0.82599998 4.152
-0.36500001 -0.824 4.1479998
-0.34099999 -0.82300001 4.1420002
-0.31799999 -0.82499999 4.1539998
-0.29300001 -0.82200003 4.1389999
-0.26899999 -0.82099998 4.1399999
-0.244 -0.81900001 4.1279998
-0.22 -0.81900001 4.1300001
-0.197 -0.82099998 4.1420002
-0.17200001 -0.81800002 4.1290002
-0.149 -0.81999999 4.1360002
-0.125 -0.81900001 4.1329999
-0.101 -0.81800002 4.1279998
-0.077 -0.815 4.1170001
-0.052999999 -0.81599998 4.119
-0.029999999 -0.81400001 4.1110001
-0.0060000001 -0.81599998 4.1230001
0.017000001 -0.81699997 4.125
0.039999999 -0.81699997 4.1259999
0.064000003 -0.81300002 4.1069999
0.086999997 -0.81300002 4.1040001
0.111 -0.815 4.1160002
0.13500001 -0.81400001 4.1069999
0.15800001 -0.81300002 4.1030002
0.182 -0.81400001 4.1090002
0.205 -0.81199998 4.098
0.229 -0.81199998 4.099
0.25299999 -0.81300002 4.1009998
0.27700001 -0.81300002 4.0999999
0.30000001 -0.81199998 4.092
0.32300001 -0.81 4.0830002
0.347 -0.81199998 4.0879998
0.37 -0.81099999 4.0830002
0.39399999 -0.81300002 4.0890002
0.41800001 -0.81199998 4.0830002
0.442 -0.81400001 4.0910001
0.46399999 -0.81 4.0710001
0.48899999 -0.81300002 4.0840001
0.51200002 -0.81199998 4.0739999
0.53500003 -0.81099999 4.0669999
0.56 -0.81199998 4.0710001
0.58200002 -0.81099999 4.0599999
0.60699999 -0.81199998 4.0650001
0.63099998 -0.81300002 4.066
0.65399998 -0.81199998 4.0549998
0.67699999 -0.81199998 4.0539999
0.69999999 -0.81 4.0419998
0.72600001 -0.81400001 4.0539999
0.75099999 -0.815 4.0549998
0.77399999 -0.81400001 4.0479999
0.80000001 -0.81699997 4.059
0.82099998 -0.81400001 4.0419998
0.847 -0.81599998 4.0469999
0.87 -0.81599998 4.039
0.89499998 -0.81699997 4.0409999
0.91799998 -0.81599998 4.0320001
0.94300002 -0.81800002 4.0349998
0.96600002 -0.81699997 4.026
0.99299997 -0.81900001 4.033
1.016 -0.81900001 4.0250001
1.044 -0.82200003 4.0339999
1.069 -0.82300001 4.033
1.089 -0.81999999 4.0149999
1.119 -0.824 4.0289998
1.14 -0.82200003 4.0139999
1.166 -0.824 4.0159998
1.191 -0.82499999 4.0139999
1.215 -0.82499999 4.006
1.242 -0.82700002 4.0089998
1.265 -0.82599998 3.9990001
1.2920001 -0.82800001 4.0009999
1.318 -0.829 4.0019999
1.3430001 -0.82999998 3.9979999
1.369 -0.83099997 3.9960001
1.397 -0.833 3.9979999
1.421 -0.833 3.9890001
1.448 -0.83499998 3.99
1.473 -0.83499998 3.9860001
1.502 -0.838 3.99
1.527 -0.838 3.9820001
1.558 -0.84200001 3.9909999
1.581 -0.84100002 3.9790001
1.61 -0.84299999 3.9820001
1.64 -0.84600002 3.9860001
1.6619999 -0.84500003 3.97
1.686 -0.84399998 3.96
1.721 -0.85000002 3.977
1.745 -0.85000002 3.9660001
1.775 -0.852 3.9679999
1.803 -0.85399997 3.9649999
1.8329999 -0.85600001 3.9649999
1.863 -0.85799998 3.9649999
1.89 -0.85900003 3.96
1.915 -0.85900003 3.95
1.948 -0.86299998 3.9560001
1.978 -0.86500001 3.9560001
2.003 -0.86500001 3.944
2.0350001 -0.86799997 3.9460001
2.072 -0.87300003 3.957
2.1010001 -0.875 3.9530001
2.128 -0.875 3.944
2.1570001 -0.87599999 3.938
2.191 -0.88 3.9419999
2.2190001 -0.88099998 3.934
2.2520001 -0.884 3.9349999
-2.451 -0.93900001 4.302
-2.414 -0.935 4.2989998
-2.3759999 -0.93099999 4.2950001
-2.345 -0.93000001 4.302
-2.3050001 -0.92500001 4.2930002
-2.267 -0.921 4.2859998
-2.2320001 -0.91799998 4.2839999
-2.1989999 -0.91500002 4.2849998
-2.1670001 -0.91399997 4.289
-2.1289999 -0.90899998 4.2800002
-2.095 -0.90600002 4.277
-2.063 -0.90399998 4.2779999
-2.0280001 -0.89999998 4.2729998
-1.997 -0.89899999 4.276
-1.961 -0.89399999 4.2670002
-1.933 -0.89399999 4.2740002
-1.896 -0.889 4.2620001
-1.864 -0.88599998 4.2600002
-1.832 -0.884 4.2579999
-1.803 -0.88300002 4.263
-1.768 -0.87800002 4.2519999
-1.742 -0.87800002 4.2610002
-1.71 -0.87599999 4.257
-1.6799999 -0.87400001 4.2579999
-1.648 -0.87 4.25
-1.618 -0.86799997 4.2490001
-1.59 -0.86699998 4.2519999
-1.5549999 -0.86199999 4.2360001
-1.526 -0.86000001 4.2360001
-1.499 -0.86000001 4.2410002
-1.467 -0.85600001 4.2319999
-1.439 -0.85399997 4.2309999
-1.411 -0.85299999 4.2329998
-1.3839999 -0.852 4.2360001
-1.3559999 -0.85000002 4.2340002
-1.324 -0.847 4.223
-1.298 -0.84600002 4.2270002
-1.2690001 -0.84399998 4.2220001
-1.2410001 -0.84200001 4.2179999
-1.215 -0.84100002 4.2220001
-1.186 -0.83899999 4.217
-1.16 -0.838 4.2189999
-1.13 -0.83399999 4.2080002
-1.1059999 -0.83499998 4.2150002
-1.077 -0.83099997 4.2049999
-1.051 -0.83099997 4.2080002
-1.025 -0.82999998 4.2080002
-0.99900001 -0.829 4.2080002
-0.972 -0.82700002 4.2030001
-0.94700003 -0.82700002 4.211
-0.91900003 -0.824 4.2010002
-0.89399999 -0.824 4.2020001
-0.86699998 -0.82200003 4.197
-0.83999997 -0.81999999 4.191
-0.815 -0.81900001 4.191
-0.79000002 -0.81800002 4.1919999
-0.76200002 -0.81400001 4.177
-0.73900002 -0.81599998 4.1880002
-0.71100003 -0.81199998 4.1739998
-0.685 -0.81 4.1680002
-0.66100001 -0.81 4.1700001
-0.63599998 -0.81 4.1719999
-0.61000001 -0.80699998 4.1589999
-0.58600003 -0.80800003 4.1680002
