# .PCD v0.7 - Point Cloud Data file format
VERSION 0.7
FIELDS x y z
SIZE 4 4 4
TYPE F F F
COUNT 1 1 1
WIDTH 1665
HEIGHT 1
VIEWPOINT 0 0 0 1 0 0 0
POINTS 1665
DATA ascii
-1.3839999 -0.90399998 4.2259998
-1.357 -0.90200001 4.2280002
-1.329 -0.90100002 4.2290001
-1.2970001 -0.89700001 4.2150002
-1.271 -0.89600003 4.2179999
-1.244 -0.89499998 4.2210002
-1.216 -0.89200002 4.217
-1.1849999 -0.88800001 4.2030001
-1.158 -0.88700002 4.2020001
-1.136 -0.889 4.2199998
-1.108 -0.88700002 4.2140002
-1.0779999 -0.88300002 4.2010002
-1.051 -0.88099998 4.1999998
-1.027 -0.88099998 4.2069998
-1 -0.88 4.204
-0.97299999 -0.87800002 4.2010002
-0.94499999 -0.875 4.1919999
-0.921 -0.875 4.1989999
-0.89300001 -0.87199998 4.1869998
-0.866 -0.87 4.1849999
-0.84200001 -0.87099999 4.191
-0.815 -0.86799997 4.184
-0.79100001 -0.86799997 4.1890001
-0.764 -0.866 4.1810002
-0.73799998 -0.86400002 4.177
-0.71100003 -0.861 4.1620002
-0.68800002 -0.86299998 4.177
-0.66500002 -0.86400002 4.1849999
-0.63800001 -0.86000001 4.1700001
-0.61199999 -0.85799998 4.164
-0.588 -0.85900003 4.171
-0.56400001 -0.85900003 4.1729999
-0.53899997 -0.85699999 4.171
-0.51300001 -0.85500002 4.1620002
-0.48899999 -0.85500002 4.165
-0.465 -0.85500002 4.1669998
-0.44 -0.85299999 4.1589999
-0.414 -0.85000002 4.145
-0.38999999 -0.85100001 4.1529999
-0.36399999 -0.84600002 4.132
-0.34200001 -0.84899998 4.1469998
-0.317 -0.84799999 4.145
-0.29300001 -0.84600002 4.1389999
-0.26899999 -0.847 4.1440001
-0.245 -0.847 4.145
-0.22 -0.84399998 4.1290002
-0.197 -0.84299999 4.1300001
-0.17299999 -0.84399998 4.1339998
-0.149 -0.84500003 4.1389999
-0.125 -0.84200001 4.125
-0.101 -0.84100002 4.1230001
-0.077 -0.84200001 4.1290002
-0.054000001 -0.84299999 4.1300001
-0.029999999 -0.83999997 4.119
-0.0060000001 -0.83899999 4.1129999
0.017000001 -0.84100002 4.125
0.039999999 -0.83899999 4.1149998
0.064000003 -0.83999997 4.1160002
0.088 -0.83999997 4.118
0.111 -0.83700001 4.1040001
0.13500001 -0.83700001 4.1009998
0.15800001 -0.83700001 4.1020002
0.182 -0.838 4.1030002
0.206 -0.838 4.1040001
0.23 -0.83999997 4.1110001
0.25299999 -0.83700001 4.0960002
0.27599999 -0.83600003 4.0890002
0.30000001 -0.838 4.098
0.32300001 -0.83600003 4.0869999
0.347 -0.83600003 4.0869999
0.37200001 -0.83899999 4.0999999
0.396 -0.83999997 4.1020002
0.41800001 -0.83600003 4.0799999
0.442 -0.83700001 4.0840001
0.465 -0.83700001 4.0799999
0.48899999 -0.83700001 4.0780001
0.51499999 -0.83999997 4.092
0.53600001 -0.83600003 4.0700002
0.56 -0.83700001 4.0710001
0.58499998 -0.83899999 4.0770001
0.60799998 -0.838 4.0700002
0.63200003 -0.838 4.066
0.65499997 -0.838 4.0619998
0.68099999 -0.83999997 4.0679998
0.70200002 -0.83700001 4.052
0.727 -0.83899999 4.0580001
0.75400001 -0.84299999 4.0710001
0.77399999 -0.83899999 4.0479999
0.79900002 -0.83899999 4.046
0.824 -0.84100002 4.0510001
0.84799999 -0.84100002 4.0450001
0.87300003 -0.84299999 4.0500002
0.89600003 -0.84100002 4.039
0.92299998 -0.84500003 4.0500002
0.94599998 -0.84399998 4.0430002
0.96899998 -0.84299999 4.033
0.995 -0.84500003 4.0359998
1.0190001 -0.84500003 4.0320001
1.043 -0.84600002 4.0289998
1.0700001 -0.84799999 4.033
1.0930001 -0.847 4.0240002
1.12 -0.84899998 4.0289998
1.142 -0.84799999 4.0190001
1.17 -0.85100001 4.0240002
1.1900001 -0.84799999 4.0040002
1.217 -0.85000002 4.0079999
1.245 -0.85299999 4.013
1.2690001 -0.85299999 4.007
1.296 -0.85500002 4.0089998
1.319 -0.85399997 3.9990001
1.35 -0.85900003 4.0139999
1.373 -0.85799998 4.0019999
1.397 -0.85799998 3.994
1.423 -0.85900003 3.9920001
1.45 -0.861 3.993
1.473 -0.85900003 3.9790001
1.501 -0.86199999 3.9820001
1.53 -0.86400002 3.987
1.558 -0.866 3.987
1.585 -0.86699998 3.984
1.612 -0.86900002 3.983
1.635 -0.86799997 3.9690001
1.664 -0.87 3.97
1.692 -0.87199998 3.97
1.716 -0.87199998 3.9590001
1.7460001 -0.875 3.9630001
1.77 -0.87400001 3.951
1.801 -0.87699997 3.9549999
1.834 -0.88099998 3.9630001
1.865 -0.884 3.9649999
1.888 -0.884 3.9519999
1.919 -0.88599998 3.9530001
1.949 -0.88800001 3.9519999
1.976 -0.889 3.9460001
2.0090001 -0.89300001 3.951
2.039 -0.89499998 3.948
2.062 -0.89399999 3.934
2.102 -0.89999998 3.9489999
2.131 -0.90200001 3.944
2.158 -0.903 3.9360001
2.197 -0.90799999 3.948
2.2279999 -0.91000003 3.944
2.2550001 -0.91100001 3.9349999
-2.4430001 -0.96399999 4.283
-2.4030001 -0.95899999 4.2750001
-2.3729999 -0.958 4.2839999
-2.3399999 -0.95599997 4.2880001
-2.302 -0.95200002 4.2820001
-2.2679999 -0.949 4.2820001
-2.2309999 -0.94499999 4.2779999
-2.197 -0.94199997 4.277
-2.1630001 -0.93900001 4.276
-2.1289999 -0.93599999 4.2750001
-2.0940001 -0.93300003 4.2709999
-2.0569999 -0.92799997 4.2610002
-2.026 -0.92699999 4.2649999
-1.997 -0.926 4.2709999
-1.965 -0.92299998 4.27
-1.932 -0.92000002 4.2690001
-1.8940001 -0.91500002 4.2529998
-1.869 -0.91500002 4.2659998
-1.836 -0.912 4.263
-1.803 -0.90899998 4.2579999
-1.774 -0.90799999 4.2610002
-1.739 -0.903 4.25
-1.7079999 -0.90100002 4.2459998
-1.677 -0.898 4.2449999
-1.652 -0.89899999 4.256
-1.618 -0.89399999 4.243
-1.586 -0.89099997 4.2379999
-1.5599999 -0.89099997 4.2459998
-1.533 -0.88999999 4.25
-1.502 -0.88700002 4.244
-1.472 -0.884 4.2389998
-1.441 -0.88099998 4.2319999
-1.4119999 -0.88 4.2309999
-1.3789999 -0.875 4.217
-1.3559999 -0.87599999 4.2309999
-1.329 -0.875 4.2329998
-1.3 -0.87300003 4.23
-1.27 -0.86900002 4.2179999
-1.245 -0.87 4.2290001
-1.2180001 -0.86799997 4.2280002
-1.187 -0.86500001 4.2160001
-1.161 -0.86400002 4.2179999
-1.133 -0.86199999 4.2129998
-1.107 -0.861 4.217
-1.079 -0.85900003 4.211
-1.054 -0.85900003 4.217
-1.029 -0.85799998 4.2189999
-0.99900001 -0.85399997 4.2059999
-0.972 -0.852 4.2030001
-0.94700003 -0.85100001 4.2030001
-0.91900003 -0.84899998 4.1960001
-0.89600003 -0.85100001 4.21
-0.866 -0.84600002 4.1890001
-0.84200001 -0.84500003 4.1919999
-0.81599998 -0.84399998 4.1919999
-0.79000002 -0.84200001 4.1859999
-0.764 -0.84100002 4.1849999
-0.74000001 -0.84100002 4.1880002
-0.71499997 -0.84100002 4.191
-0.68599999 -0.83600003 4.1680002
-0.662 -0.83600003 4.1729999
-0.639 -0.83700001 4.1820002
-0.611 -0.833 4.1630001
-0.588 -0.83399999 4.1750002
-0.56199998 -0.83200002 4.1659999
-0.53799999 -0.83200002 4.1719999
-0.51200002 -0.829 4.158
-0.48699999 -0.82800001 4.1539998
-0.46399999 -0.82800001 4.1599998
-0.43900001 -0.82700002 4.1550002
-0.414 -0.82599998 4.151
-0.38999999 -0.82499999 4.1490002
-0.36500001 -0.82300001 4.1389999
-0.34200001 -0.82499999 4.152
-0.31799999 -0.82499999 4.1570001
-0.29300001 -0.82200003 4.1389999
-0.26800001 -0.82099998 4.138
-0.244 -0.81999999 4.1350002
-0.221 -0.82200003 4.145
-0.197 -0.81999999 4.1389999
-0.17299999 -0.81900001 4.1300001
-0.149 -0.81900001 4.1350002
-0.125 -0.81699997 4.1259999
-0.101 -0.81900001 4.1370001
-0.077 -0.81900001 4.1350002
-0.052999999 -0.81599998 4.1230001
-0.029999999 -0.81599998 4.1220002
-0.0060000001 -0.81599998 4.1220002
0.017000001 -0.81800002 4.1329999
0.039999999 -0.81400001 4.1100001
0.064000003 -0.815 4.119
0.088 -0.81400001 4.1090002
0.112 -0.81599998 4.1199999
0.13500001 -0.81400001 4.1079998
0.15899999 -0.81400001 4.1079998
0.182 -0.81400001 4.1079998
0.206 -0.81400001 4.1090002
0.229 -0.81300002 4.0999999
0.252 -0.81099999 4.0910001
0.27700001 -0.81300002 4.1009998
0.30000001 -0.81300002 4.0970001
0.324 -0.815 4.1040001
0.34799999 -0.81300002 4.0960002
0.37099999 -0.81199998 4.0890002
0.39399999 -0.81199998 4.0869999
0.419 -0.81400001 4.0960002
0.44100001 -0.81199998 4.0809999
0.46399999 -0.81099999 4.072
0.48800001 -0.81199998 4.0760002
0.51300001 -0.81400001 4.0830002
0.53600001 -0.81300002 4.0749998
0.56 -0.81300002 4.0739999
0.583 -0.81300002 4.0689998
0.60799998 -0.81400001 4.0749998
0.63099998 -0.81300002 4.066
0.65600002 -0.81400001 4.0689998
0.67900002 -0.81400001 4.0640001
0.70200002 -0.81300002 4.0549998
0.72799999 -0.81599998 4.0640001
0.75 -0.815 4.0549998
0.77499998 -0.81599998 4.0560002
0.80000001 -0.81699997 4.0599999
0.82499999 -0.81800002 4.0619998
0.84899998 -0.81800002 4.0570002
0.87199998 -0.81699997 4.0469999
0.89499998 -0.81699997 4.0430002
0.92000002 -0.81800002 4.0419998
0.94599998 -0.81999999 4.046
0.96899998 -0.81900001 4.039
0.995 -0.82099998 4.04
1.02 -0.82200003 4.0409999
1.045 -0.82300001 4.039
1.0700001 -0.82300001 4.0370002
1.0930001 -0.82300001 4.0279999
1.118 -0.824 4.0289998
1.146 -0.82700002 4.0359998
1.166 -0.824 4.0159998
1.193 -0.82599998 4.0190001
1.221 -0.829 4.026
1.245 -0.829 4.02
1.271 -0.82999998 4.02
1.293 -0.82800001 4.0050001
1.322 -0.83200002 4.013
1.346 -0.83200002 4.007
1.369 -0.83099997 3.9960001
1.403 -0.83700001 4.0159998
1.427 -0.83600003 4.007
1.451 -0.83600003 3.9979999
1.477 -0.838 3.9960001
1.502 -0.838 3.9890001
1.5319999 -0.84100002 3.9949999
1.559 -0.84200001 3.994
1.585 -0.84299999 3.99
1.608 -0.84299999 3.9779999
1.64 -0.84600002 3.987
1.67 -0.84899998 3.9909999
1.6950001 -0.84899998 3.9809999
1.722 -0.85000002 3.9779999
1.747 -0.85100001 3.97
1.776 -0.852 3.9679999
1.807 -0.85500002 3.9719999
1.835 -0.85699999 3.9690001
1.86 -0.85699999 3.961
1.891 -0.86000001 3.9630001
1.913 -0.85799998 3.9460001
1.948 -0.86299998 3.9560001
1.974 -0.86299998 3.9460001
2 -0.86400002 3.938
2.033 -0.86699998 3.941
2.0669999 -0.87099999 3.947
2.0999999 -0.87400001 3.95
2.1300001 -0.87599999 3.947
2.164 -0.87900001 3.95
2.1900001 -0.88 3.941
2.2219999 -0.88200003 3.9389999
2.2490001 -0.88300002 3.9289999
-2.454 -0.94 4.3070002
-2.402 -0.93099999 4.2789998
-2.378 -0.93199998 4.2989998
-2.342 -0.92900002 4.2979999
-2.3050001 -0.92500001 4.2940001
-2.266 -0.92000002 4.283
-2.2349999 -0.91900003 4.289
-2.201 -0.91600001 4.289
-2.165 -0.91299999 4.2839999
-2.128 -0.90899998 4.277
-2.102 -0.90899998 4.2909999
-2.063 -0.90399998 4.2800002
-2.03 -0.90100002 4.277
-1.999 -0.89999998 4.2810001
-1.959 -0.89399999 4.263
-1.931 -0.89300001 4.2709999
-1.899 -0.89099997 4.27
-1.864 -0.88599998 4.2600002
-1.8329999 -0.884 4.2610002
-1.802 -0.88200003 4.2589998
-1.765 -0.87699997 4.2449999
-1.744 -0.87900001 4.2659998
-1.714 -0.87699997 4.2659998
-1.682 -0.875 4.2620001
-1.651 -0.87199998 4.2579999
-1.617 -0.86799997 4.2449999
-1.5880001 -0.866 4.2470002
-1.5549999 -0.86199999 4.2360001
-1.528 -0.861 4.2410002
-1.497 -0.85900003 4.2350001
-1.472 -0.85900003 4.2459998
-1.442 -0.85600001 4.2410002
-1.413 -0.85399997 4.2379999
-1.3839999 -0.852 4.2360001
-1.359 -0.852 4.244
-1.332 -0.852 4.2490001
-1.301 -0.84799999 4.237
-1.268 -0.84299999 4.2189999
-1.244 -0.84399998 4.2290001
-1.216 -0.84200001 4.2259998
-1.188 -0.83999997 4.2220001
-1.161 -0.838 4.2210002
-1.132 -0.83600003 4.2140002
-1.108 -0.83700001 4.2259998
-1.079 -0.833 4.2140002
-1.052 -0.83200002 4.211
-1.027 -0.83200002 4.217
-0.99599999 -0.82700002 4.197
-0.97600001 -0.82999998 4.2210002
-0.94499999 -0.82499999 4.2010002
-0.91799998 -0.82300001 4.1929998
-0.89399999 -0.824 4.2030001
-0.86699998 -0.82099998 4.1950002
-0.84100002 -0.81999999 4.1939998
-0.815 -0.81800002 4.1890001
-0.79100001 -0.81999999 4.1989999
-0.76499999 -0.81699997 4.1919999
-0.73699999 -0.81400001 4.1810002
-0.71399999 -0.815 4.1880002
-0.68800002 -0.81300002 4.1820002
-0.66299999 -0.81300002 4.1830001
-0.63800001 -0.81199998 4.1849999
-0.61299998 -0.81099999 4.1810002
-0.58700001 -0.80900002 4.1739998
-0.56199998 -0.80800003 4.1700001
-0.53799999 -0.80699998 4.1719999
-0.51200002 -0.80500001 4.1599998
-0.48800001 -0.80599999 4.1680002
-0.46399999 -0.80500001 4.1690001
-0.43799999 -0.80299997 4.1570001
-0.414 -0.80199999 4.1589999
-0.38999999 -0.80199999 4.158
-0.366 -0.801 4.1550002
-0.34099999 -0.79900002 4.1500001
-0.317 -0.80000001 4.1550002
-0.29300001 -0.80000001 4.1550002
-0.26899999 -0.80000001 4.158
-0.245 -0.79799998 4.1469998
-0.221 -0.79799998 4.1490002
-0.197 -0.796 4.1409998
-0.17200001 -0.79400003 4.1300001
-0.149 -0.79500002 4.138
-0.125 -0.79299998 4.1290002
-0.101 -0.79500002 4.1399999
-0.077 -0.79400003 4.1360002
-0.052999999 -0.79299998 4.131
-0.029999999 -0.79299998 4.131
-0.0060000001 -0.79299998 4.131
0.017000001 -0.79299998 4.1290002
0.039999999 -0.792 4.1259999
0.064000003 -0.792 4.125
0.088 -0.78899997 4.1090002
0.111 -0.79000002 4.112
0.13500001 -0.79000002 4.1129999
0.15899999 -0.79000002 4.1110001
0.182 -0.79000002 4.1110001
0.206 -0.79000002 4.1090002
0.23 -0.79100001 4.112
0.25299999 -0.79100001 4.1129999
0.27700001 -0.79100001 4.1110001
0.30000001 -0.78899997 4.098
0.32499999 -0.792 4.1129999
0.34799999 -0.79000002 4.1020002
0.37200001 -0.79100001 4.1079998
0.39500001 -0.79000002 4.0970001
0.417 -0.787 4.0830002
0.44299999 -0.79100001 4.098
0.465 -0.78899997 4.085
0.48800001 -0.78799999 4.0780001
0.51300001 -0.78899997 4.0840001
0.53500003 -0.78799999 4.073
0.56 -0.78899997 4.0770001
0.58499998 -0.79100001 4.0840001
0.61000001 -0.792 4.0879998
0.63200003 -0.79100001 4.0760002
0.65700001 -0.792 4.0819998
0.68000001 -0.79100001 4.0710001
0.704 -0.792 4.0710001
0.727 -0.79100001 4.0640001
0.75199997 -0.792 4.0669999
0.77399999 -0.79000002 4.053
0.79900002 -0.792 4.059
0.824 -0.79299998 4.0570002
0.847 -0.79299998 4.052
0.87199998 -0.79400003 4.0549998
0.89600003 -0.79400003 4.0500002
0.921 -0.79500002 4.0479999
0.94499999 -0.79500002 4.0469999
0.97100002 -0.79699999 4.0500002
0.99299997 -0.796 4.039
1.0190001 -0.79699999 4.04
1.044 -0.79799998 4.04
1.069 -0.79900002 4.0409999
1.092 -0.79799998 4.0310001
1.118 -0.79900002 4.0300002
1.1440001 -0.801 4.0339999
1.169 -0.80199999 4.0300002
1.194 -0.80199999 4.027
1.216 -0.801 4.0139999
1.244 -0.80400002 4.02
1.271 -0.80500001 4.0219998
1.2970001 -0.80699998 4.0209999
1.323 -0.80800003 4.02
1.346 -0.80699998 4.0110002
1.372 -0.80800003 4.007
1.4 -0.81 4.0100002
1.424 -0.81 4.0029998
1.45 -0.81099999 3.9990001
1.479 -0.81400001 4.0050001
1.5 -0.81199998 3.9879999
1.531 -0.81599998 3.997
1.559 -0.81800002 3.9979999
1.589 -0.81999999 4.0029998
1.6109999 -0.81900001 3.9890001
1.635 -0.81900001 3.9779999
1.666 -0.82200003 3.9860001
1.6900001 -0.82200003 3.9749999
1.717 -0.82300001 3.9719999
1.751 -0.82800001 3.984
1.779 -0.829 3.9809999
1.8 -0.82700002 3.9630001
1.834 -0.83099997 3.971
1.8609999 -0.83200002 3.967
1.893 -0.83499998 3.97
1.923 -0.838 3.9719999
1.951 -0.83899999 3.9660001
1.976 -0.83899999 3.9560001
2.007 -0.84100002 3.957
2.0380001 -0.84399998 3.9560001
2.0650001 -0.84399998 3.948
2.0969999 -0.847 3.95
2.1340001 -0.852 3.96
2.1530001 -0.84899998 3.9349999
2.1900001 -0.85399997 3.944
2.2179999 -0.85500002 3.937
2.256 -0.86000001 3.947
-2.454 -0.912 4.3130002
-2.4070001 -0.90399998 4.2930002
-2.368 -0.89999998 4.2870002
-2.335 -0.898 4.289
-2.306 -0.898 4.3010001
-2.266 -0.89300001 4.29
-2.234 -0.89099997 4.2930002
-2.197 -0.88700002 4.2880001
-2.165 -0.88599998 4.2909999
-2.128 -0.88099998 4.2820001
-2.0929999 -0.87800002 4.2789998
-2.0599999 -0.87599999 4.2779999
-2.027 -0.87300003 4.277
-1.992 -0.87 4.27
-1.961 -0.86799997 4.2729998
-1.934 -0.86799997 4.2820001
-1.9 -0.86400002 4.276
-1.863 -0.85900003 4.263
-1.835 -0.85900003 4.27
-1.804 -0.85699999 4.27
-1.7690001 -0.852 4.2579999
-1.7359999 -0.84899998 4.2519999
-1.709 -0.84899998 4.2579999
-1.677 -0.84600002 4.2529998
-1.645 -0.84299999 4.2470002
-1.618 -0.84200001 4.2529998
-1.586 -0.83899999 4.2459998
-1.559 -0.838 4.2519999
-1.529 -0.83600003 4.2490001
-1.498 -0.83399999 4.244
-1.472 -0.833 4.25
-1.442 -0.83099997 4.2470002
-1.41 -0.82700002 4.2329998
-1.381 -0.82499999 4.2309999
-1.354 -0.824 4.2340002
-1.3279999 -0.82300001 4.2379999
-1.298 -0.81999999 4.23
-1.271 -0.81999999 4.2319999
-1.2410001 -0.81599998 4.223
-1.216 -0.81599998 4.23
-1.189 -0.815 4.23
-1.159 -0.81199998 4.2210002
-1.135 -0.81300002 4.2290001
-1.105 -0.81 4.2189999
-1.079 -0.80800003 4.217
-1.053 -0.80699998 4.2189999
-1.025 -0.80500001 4.2119999
-0.99900001 -0.80400002 4.2129998
-0.97000003 -0.801 4.2010002
-0.94599998 -0.80199999 4.21
-0.92299998 -0.80299997 4.223
-0.89399999 -0.79900002 4.2049999
-0.866 -0.796 4.1939998
-0.84200001 -0.79699999 4.204
-0.81300002 -0.792 4.184
-0.79100001 -0.79500002 4.2049999
-0.76700002 -0.796 4.211
-0.73900002 -0.792 4.1939998
-0.713 -0.79000002 4.1900001
-0.68699998 -0.787 4.1799998
-0.66500002 -0.79000002 4.198
-0.63800001 -0.787 4.1859999
-0.61199999 -0.78600001 4.1820002
-0.58700001 -0.78500003 4.178
-0.56199998 -0.78299999 4.1729999
-0.53799999 -0.78299999 4.1750002
-0.51300001 -0.78299999 4.177
-0.48899999 -0.78299999 4.1789999
-0.46399999 -0.77999997 4.1700001
-0.43799999 -0.778 4.1589999
-0.414 -0.77700001 4.1560001
-0.38999999 -0.778 4.1620002
-0.36500001 -0.77499998 4.151
-0.34 -0.77399999 4.145
-0.31799999 -0.77700001 4.1630001
-0.29300001 -0.77499998 4.1570001
-0.26899999 -0.77499998 4.1560001
-0.245 -0.77499998 4.1570001
-0.22 -0.77200001 4.1420002
-0.197 -0.77200001 4.1440001
-0.17299999 -0.77399999 4.1570001
-0.149 -0.76999998 4.1360002
-0.125 -0.76899999 4.131
-0.101 -0.76899999 4.1300001
-0.077 -0.76999998 4.1389999
-0.054000001 -0.77200001 4.1490002
-0.029999999 -0.76999998 4.1370001
-0.0060000001 -0.76899999 4.131
0.017000001 -0.76899999 4.1339998
0.039999999 -0.76800001 4.125
0.064000003 -0.76499999 4.112
0.088 -0.76800001 4.125
0.111 -0.76800001 4.1240001
0.13500001 -0.76499999 4.1079998
0.15800001 -0.76499999 4.1110001
0.182 -0.76599997 4.1149998
0.206 -0.76599997 4.1139998
0.23 -0.76899999 4.1259999
0.25299999 -0.76499999 4.1059999
0.27700001 -0.76599997 4.1079998
0.30000001 -0.76599997 4.1069999
0.324 -0.76700002 4.1100001
0.34799999 -0.76700002 4.1090002
0.37200001 -0.76599997 4.1059999
0.39500001 -0.76599997 4.1030002
0.419 -0.76599997 4.099
0.44100001 -0.76499999 4.0890002
0.46599999 -0.76700002 4.099
0.48800001 -0.764 4.0809999
0.51200002 -0.76499999 4.085
0.53600001 -0.76499999 4.0809999
0.56 -0.76599997 4.0819998
0.58399999 -0.76599997 4.0830002
0.60799998 -0.76599997 4.0799999
0.63300002 -0.76800001 4.0869999
0.65600002 -0.76700002 4.079
0.67900002 -0.76599997 4.0700002
0.70300001 -0.76700002 4.0710001
0.72899997 -0.76899999 4.0770001
0.75099999 -0.76800001 4.0669999
0.77399999 -0.76700002 4.059
0.80000001 -0.76899999 4.0650001
0.82300001 -0.76800001 4.059
0.84799999 -0.76999998 4.0609999
0.87400001 -0.77100003 4.0640001
0.89700001 -0.77100003 4.059
0.921 -0.77100003 4.0549998
0.94599998 -0.77200001 4.0549998
0.97000003 -0.77200001 4.0510001
0.99400002 -0.77200001 4.0450001
1.0190001 -0.773 4.0440001
1.043 -0.773 4.039
1.066 -0.773 4.033
1.0930001 -0.77499998 4.039
1.1160001 -0.77499998 4.0300002
1.146 -0.77899998 4.0450001
1.169 -0.778 4.0339999
1.194 -0.77899998 4.0320001
1.219 -0.77899998 4.0289998
1.243 -0.77899998 4.0209999
1.271 -0.78200001 4.0279999
1.2970001 -0.78299999 4.027
1.321 -0.78200001 4.0180001
1.342 -0.78100002 4.0040002
1.375 -0.78600001 4.0209999
1.397 -0.78500003 4.0079999
1.423 -0.78600001 4.0050001
1.452 -0.78799999 4.0100002
1.478 -0.78899997 4.007
1.505 -0.79100001 4.007
1.529 -0.79000002 3.9960001
1.562 -0.79500002 4.0110002
1.584 -0.79299998 3.9960001
1.6059999 -0.792 3.9820001
1.64 -0.79699999 3.9949999
1.665 -0.79699999 3.987
1.691 -0.79799998 3.9820001
1.72 -0.80000001 3.9820001
1.748 -0.801 3.9809999
1.777 -0.80299997 3.98
1.8 -0.80199999 3.967
1.831 -0.80500001 3.971
1.867 -0.81 3.9849999
1.89 -0.80900002 3.97
1.921 -0.81199998 3.9719999
1.952 -0.81400001 3.973
1.979 -0.815 3.9660001
2.007 -0.81599998 3.961
2.0369999 -0.81800002 3.96
2.0739999 -0.82300001 3.971
2.095 -0.82099998 3.951
2.131 -0.82499999 3.9579999
2.1630001 -0.82700002 3.9579999
2.194 -0.82999998 3.957
2.2190001 -0.829 3.9430001
2.2539999 -0.833 3.948
-2.4530001 -0.88300002 4.3169999
-2.4030001 -0.875 4.29
-2.3659999 -0.87199998 4.2870002
-2.3329999 -0.87 4.2909999
-2.3 -0.86799997 4.2940001
-2.2639999 -0.86400002 4.2909999
-2.2249999 -0.86000001 4.2810001
-2.197 -0.86000001 4.2909999
-2.1619999 -0.85699999 4.2880001
-2.1289999 -0.85500002 4.29
-2.0969999 -0.85299999 4.2909999
-2.062 -0.84899998 4.2870002
-2.03 -0.847 4.2859998
-1.999 -0.84600002 4.2909999
-1.964 -0.84200001 4.283
-1.931 -0.83899999 4.2800002
-1.897 -0.83600003 4.2740002
-1.867 -0.83499998 4.277
-1.834 -0.83200002 4.2729998
-1.802 -0.829 4.2680001
-1.774 -0.829 4.276
-1.737 -0.82300001 4.2579999
-1.7079999 -0.82200003 4.2610002
-1.678 -0.81999999 4.2610002
-1.651 -0.81999999 4.2680001
-1.614 -0.81400001 4.2470002
-1.59 -0.815 4.263
-1.558 -0.81199998 4.2550001
-1.53 -0.81099999 4.256
-1.499 -0.80800003 4.25
-1.469 -0.80599999 4.2449999
-1.443 -0.80500001 4.2519999
-1.415 -0.80400002 4.2529998
-1.3839999 -0.801 4.2459998
-1.354 -0.79900002 4.2389998
-1.327 -0.79699999 4.2399998
-1.298 -0.79500002 4.2360001
-1.27 -0.79400003 4.2340002
-1.243 -0.79299998 4.2360001
-1.217 -0.792 4.2399998
-1.191 -0.79100001 4.2420001
-1.1619999 -0.78899997 4.2350001
-1.135 -0.78799999 4.2340002
-1.107 -0.78600001 4.23
-1.081 -0.78500003 4.2309999
-1.05 -0.77999997 4.211
-1.026 -0.78100002 4.223
-0.99699998 -0.778 4.2090001
-0.97299999 -0.77899998 4.2189999
-0.94599998 -0.77700001 4.2160001
-0.917 -0.773 4.1989999
-0.89499998 -0.77499998 4.2140002
-0.86699998 -0.77200001 4.2049999
-0.84100002 -0.77100003 4.2020001
-0.815 -0.76999998 4.1989999
-0.78899997 -0.76800001 4.1960001
-0.76499999 -0.76899999 4.2030001
-0.73900002 -0.76700002 4.1999998
-0.71600002 -0.76899999 4.2129998
-0.68699998 -0.764 4.1880002
-0.66299999 -0.764 4.1929998
-0.63800001 -0.76300001 4.1919999
-0.61199999 -0.76099998 4.1830001
-0.58700001 -0.75999999 4.1810002
-0.56300002 -0.76099998 4.1869998
-0.537 -0.75800002 4.1729999
-0.51200002 -0.75700003 4.1729999
-0.48899999 -0.759 4.1849999
-0.46399999 -0.75599998 4.1750002
-0.44 -0.75599998 4.177
-0.414 -0.75400001 4.165
-0.38999999 -0.75400001 4.1690001
-0.366 -0.75300002 4.1630001
-0.34099999 -0.75099999 4.1570001
-0.317 -0.75099999 4.158
-0.29300001 -0.75099999 4.1609998
-0.27000001 -0.75300002 4.1700001
-0.244 -0.74699998 4.1409998
-0.221 -0.75 4.1589999
-0.197 -0.74900001 4.152
-0.17299999 -0.74699998 4.145
-0.149 -0.74699998 4.1420002
-0.125 -0.74699998 4.1469998
-0.101 -0.74599999 4.1389999
-0.077 -0.74800003 4.1529999
-0.052999999 -0.74599999 4.1420002
-0.029999999 -0.745 4.1370001
-0.0060000001 -0.74599999 4.1430001
0.017000001 -0.745 4.1329999
0.039999999 -0.74400002 4.1279998
0.064000003 -0.74400002 4.1290002
0.088 -0.74299997 4.1230001
0.111 -0.74299997 4.1240001
0.13500001 -0.74400002 4.1269999
0.15800001 -0.74199998 4.1149998
0.182 -0.74299997 4.1220002
0.206 -0.74299997 4.1230001
0.23 -0.74299997 4.118
0.25299999 -0.74299997 4.119
0.27599999 -0.74000001 4.1030002
0.301 -0.74299997 4.1149998
0.324 -0.74199998 4.1090002
0.34799999 -0.74199998 4.1090002
0.37099999 -0.74199998 4.1079998
0.39399999 -0.741 4.098
0.41800001 -0.74199998 4.1009998
0.44100001 -0.74000001 4.086
0.46399999 -0.73900002 4.0809999
0.49000001 -0.74299997 4.1009998
0.51200002 -0.741 4.0869999
0.53600001 -0.741 4.085
0.55900002 -0.741 4.0799999
0.58499998 -0.74299997 4.0890002
0.60699999 -0.74199998 4.079
0.63200003 -0.74299997 4.0819998
0.65600002 -0.74299997 4.0819998
0.68000001 -0.74400002 4.0799999
0.704 -0.74400002 4.0780001
0.72899997 -0.745 4.0819998
0.75099999 -0.74400002 4.0679998
0.77499998 -0.74400002 4.0669999
0.79900002 -0.74400002 4.0650001
0.82300001 -0.745 4.0630002
0.847 -0.745 4.0619998
0.87 -0.74400002 4.0510001
0.89700001 -0.74699998 4.0609999
0.921 -0.74699998 4.0599999
0.94300002 -0.74599999 4.0469999
0.96899998 -0.74800003 4.052
0.995 -0.74900001 4.053
1.018 -0.74900001 4.0469999
1.045 -0.75099999 4.053
1.071 -0.75199997 4.0539999
1.094 -0.75199997 4.046
1.1160001 -0.75099999 4.0339999
1.145 -0.75400001 4.0440001
1.168 -0.75300002 4.0349998
1.196 -0.755 4.0409999
1.22 -0.755 4.0349998
1.244 -0.755 4.0279999
1.271 -0.75700003 4.0310001
1.2970001 -0.75800002 4.0310001
1.319 -0.75700003 4.0159998
1.344 -0.75800002 4.0139999
1.372 -0.75999999 4.0180001
1.397 -0.75999999 4.0110002
1.421 -0.75999999 4.0050001
1.451 -0.76300001 4.0120001
1.478 -0.76499999 4.0120001
1.502 -0.764 4.0019999
1.535 -0.76899999 4.0170002
1.558 -0.76800001 4.006
1.587 -0.76999998 4.0089998
1.61 -0.76899999 3.9949999
1.637 -0.77100003 3.994
1.666 -0.773 3.9949999
1.691 -0.773 3.9860001
1.719 -0.77399999 3.984
1.749 -0.77700001 3.987
1.777 -0.778 3.9849999
1.804 -0.77899998 3.9809999
1.835 -0.78200001 3.983
1.864 -0.78399998 3.983
1.893 -0.78500003 3.98
1.918 -0.78500003 3.97
1.949 -0.78799999 3.971
1.9809999 -0.79000002 3.974
2.0120001 -0.79299998 3.9760001
2.0320001 -0.79100001 3.954
2.0680001 -0.79500002 3.9630001
2.099 -0.79699999 3.9619999
2.125 -0.79699999 3.9519999
2.165 -0.80299997 3.9679999
2.1860001 -0.801 3.9460001
2.2149999 -0.80199999 3.9400001
2.2539999 -0.80699998 3.9530001
-2.4519999 -0.85500002 4.3200002
-2.4119999 -0.85000002 4.3119998
-2.3800001 -0.84899998 4.3179998
-2.335 -0.84299999 4.2989998
-2.2969999 -0.83899999 4.2930002
-2.267 -0.838 4.302
-2.237 -0.83700001 4.309
-2.198 -0.833 4.2979999
-2.165 -0.83099997 4.3000002
-2.125 -0.82599998 4.2859998
-2.092 -0.82300001 4.2849998
-2.062 -0.82200003 4.2909999
-2.026 -0.81800002 4.283
-1.9960001 -0.81699997 4.2880001
-1.962 -0.81400001 4.283
-1.9299999 -0.81199998 4.2820001
-1.898 -0.81 4.2820001
-1.868 -0.80900002 4.2849998
-1.832 -0.80400002 4.2709999
-1.801 -0.80199999 4.2719998
-1.767 -0.79900002 4.263
-1.743 -0.80000001 4.2779999
-1.709 -0.796 4.2680001
-1.679 -0.79400003 4.2680001
-1.651 -0.79299998 4.2709999
-1.617 -0.79000002 4.2610002
-1.589 -0.78899997 4.2639999
-1.5599999 -0.787 4.263
-1.527 -0.78299999 4.2529998
-1.503 -0.78399998 4.2649999
-1.47 -0.78100002 4.2529998
-1.442 -0.77899998 4.2550001
-1.41 -0.77600002 4.244
-1.383 -0.77499998 4.2459998
-1.351 -0.77100003 4.2340002
-1.329 -0.773 4.25
-1.3 -0.77100003 4.2459998
-1.27 -0.76800001 4.2379999
-1.243 -0.76700002 4.2399998
-1.217 -0.76700002 4.244
-1.192 -0.76700002 4.2509999
-1.161 -0.76300001 4.237
-1.135 -0.76300001 4.2399998
-1.105 -0.759 4.2259998
-1.082 -0.76099998 4.2410002
-1.053 -0.75800002 4.2290001
-1.028 -0.75800002 4.2350001
-0.99900001 -0.75400001 4.2210002
-0.97000003 -0.75099999 4.21
-0.94499999 -0.75099999 4.2119999
-0.91900003 -0.75 4.2140002
-0.89300001 -0.74900001 4.2119999
-0.86699998 -0.74800003 4.21
-0.83899999 -0.745 4.198
-0.81599998 -0.74599999 4.2090001
-0.78899997 -0.74299997 4.197
-0.76499999 -0.74400002 4.2049999
-0.73900002 -0.74299997 4.2020001
-0.713 -0.741 4.198
-0.68699998 -0.74000001 4.1919999
-0.66100001 -0.73799998 4.1859999
-0.63800001 -0.73799998 4.1919999
-0.61199999 -0.73699999 4.1880002
-0.58600003 -0.73500001 4.1799998
-0.56300002 -0.736 4.1880002
-0.537 -0.73400003 4.1799998
-0.51099998 -0.73100001 4.1669998
-0.48800001 -0.73199999 4.1760001
-0.46399999 -0.73299998 4.1810002
-0.43799999 -0.73000002 4.1669998
-0.41499999 -0.73100001 4.178
-0.38999999 -0.73000002 4.1700001
-0.366 -0.72899997 4.1680002
-0.34200001 -0.72899997 4.1690001
-0.317 -0.727 4.158
-0.29300001 -0.727 4.1609998
-0.26899999 -0.72600001 4.1599998
-0.244 -0.72500002 4.1529999
-0.221 -0.72600001 4.158
-0.19599999 -0.72399998 4.1500001
-0.17299999 -0.72500002 4.1570001
-0.149 -0.722 4.1430001
-0.125 -0.72299999 4.1479998
-0.101 -0.72500002 4.1589999
-0.077 -0.72399998 4.1570001
-0.052999999 -0.722 4.1430001
-0.029999999 -0.722 4.1430001
-0.0060000001 -0.722 4.145
0.017000001 -0.72100002 4.1409998
0.039999999 -0.71899998 4.1279998
0.064000003 -0.72000003 4.131
0.088 -0.722 4.1430001
0.112 -0.72100002 4.1389999
0.13500001 -0.71899998 4.1240001
0.15899999 -0.72000003 4.1290002
0.183 -0.722 4.1409998
0.206 -0.71799999 4.119
0.23 -0.71899998 4.1240001
0.25299999 -0.71799999 4.1129999
0.27700001 -0.71799999 4.1160002
0.30000001 -0.71700001 4.1059999
0.324 -0.71799999 4.1090002
0.34799999 -0.72000003 4.1209998
0.37 -0.71700001 4.1009998
0.39399999 -0.71799999 4.1040001
0.41800001 -0.71799999 4.105
0.442 -0.71799999 4.1020002
0.46599999 -0.71899998 4.105
0.48899999 -0.71700001 4.0929999
0.51200002 -0.71700001 4.0879998
0.53799999 -0.72000003 4.1030002
0.55900002 -0.71700001 4.085
0.58399999 -0.71899998 4.0900002
0.60799998 -0.71899998 4.0890002
0.63099998 -0.71799999 4.0819998
0.65600002 -0.72000003 4.0890002
0.67799997 -0.71799999 4.073
0.704 -0.72000003 4.0809999
0.727 -0.72000003 4.0780001
0.75 -0.71899998 4.0689998
0.77700001 -0.722 4.0830002
0.79900002 -0.72100002 4.0689998
0.82200003 -0.72000003 4.059
0.85000002 -0.72399998 4.0780001
0.87300003 -0.72299999 4.0700002
0.898 -0.72399998 4.0679998
0.92299998 -0.72500002 4.073
0.94400001 -0.72299999 4.053
0.97100002 -0.72500002 4.0609999
0.99599999 -0.72600001 4.0619998
1.02 -0.72600001 4.0560002
1.044 -0.72600001 4.0539999
1.069 -0.727 4.0510001
1.094 -0.72799999 4.0500002
1.117 -0.727 4.0409999
1.143 -0.72799999 4.0419998
1.17 -0.73100001 4.0479999
1.192 -0.72899997 4.0320001
1.217 -0.73000002 4.0300002
1.243 -0.73100001 4.0279999
1.2690001 -0.73199999 4.0300002
1.295 -0.73299998 4.0289998
1.324 -0.736 4.0359998
1.348 -0.736 4.0289998
1.3710001 -0.73500001 4.0190001
1.397 -0.736 4.0149999
1.424 -0.73799998 4.0170002
1.4529999 -0.74000001 4.0219998
1.476 -0.73900002 4.0089998
1.505 -0.741 4.0139999
1.533 -0.74299997 4.0159998
1.556 -0.74199998 4.0029998
1.5829999 -0.74299997 4
1.613 -0.74599999 4.0079999
1.636 -0.74599999 3.994
1.669 -0.74900001 4.006
1.694 -0.74900001 3.997
1.722 -0.75099999 3.997
1.75 -0.75300002 3.9949999
1.783 -0.75599998 4.0019999
1.801 -0.75300002 3.977
1.834 -0.75599998 3.9849999
1.865 -0.759 3.9890001
1.89 -0.759 3.9779999
1.92 -0.76099998 3.9790001
1.948 -0.76200002 3.974
1.974 -0.76300001 3.9660001
2.0139999 -0.76800001 3.983
2.0320001 -0.76499999 3.957
2.0680001 -0.76899999 3.967
2.099 -0.77200001 3.9679999
2.125 -0.77200001 3.9560001
2.1589999 -0.77499998 3.96
2.1919999 -0.77700001 3.961
2.22 -0.778 3.954
2.253 -0.78100002 3.9560001
-2.4519999 -0.82599998 4.3239999
-2.4119999 -0.82200003 4.316
-2.3670001 -0.81599998 4.2979999
-2.335 -0.815 4.303
-2.296 -0.81099999 4.2950001
-2.2750001 -0.81300002 4.3200002
-2.2290001 -0.80699998 4.2989998
-2.1949999 -0.80400002 4.2969999
-2.1659999 -0.80299997 4.3049998
-2.131 -0.801 4.303
-2.0940001 -0.79699999 4.2940001
-2.062 -0.79500002 4.296
-2.023 -0.79000002 4.2810001
-1.992 -0.78899997 4.2839999
-1.962 -0.78799999 4.2880001
-1.929 -0.78500003 4.2839999
-1.898 -0.78299999 4.2849998
-1.869 -0.78200001 4.2909999
-1.834 -0.77899998 4.2820001
-1.801 -0.77600002 4.276
-1.771 -0.77399999 4.2779999
-1.74 -0.77200001 4.2750001
-1.711 -0.77100003 4.277
-1.676 -0.76700002 4.2659998
-1.646 -0.76499999 4.2639999
-1.617 -0.76300001 4.2639999
-1.5880001 -0.76200002 4.2639999
-1.557 -0.75999999 4.2589998
-1.53 -0.759 4.2649999
-1.5 -0.75700003 4.2620001
-1.471 -0.755 4.2600002
-1.443 -0.75400001 4.2620001
-1.41 -0.75 4.2459998
-1.3839999 -0.75 4.2519999
-1.3559999 -0.74800003 4.2509999
-1.3279999 -0.74699998 4.2509999
-1.298 -0.74400002 4.243
-1.273 -0.745 4.2519999
-1.244 -0.74299997 4.2470002
-1.212 -0.73799998 4.23
-1.188 -0.73900002 4.2410002
-1.159 -0.73699999 4.2340002
-1.136 -0.73799998 4.244
-1.1059999 -0.73500001 4.2319999
-1.079 -0.73299998 4.2309999
-1.053 -0.73299998 4.2319999
-1.026 -0.73100001 4.23
-0.99800003 -0.72899997 4.2220001
-0.97399998 -0.73000002 4.2319999
-0.94700003 -0.72799999 4.2270002
-0.91900003 -0.72500002 4.2150002
-0.89099997 -0.72299999 4.2059999
-0.86799997 -0.72299999 4.2150002
-0.83999997 -0.72100002 4.2069998
-0.815 -0.72000003 4.2069998
-0.79000002 -0.72000003 4.2069998
-0.764 -0.71899998 4.2049999
-0.73900002 -0.71799999 4.2059999
-0.71100003 -0.71399999 4.1880002
-0.68800002 -0.71600002 4.2010002
-0.66299999 -0.71600002 4.2030001
-0.63700002 -0.713 4.1929998
-0.61199999 -0.71200001 4.1890001
-0.58600003 -0.71100003 4.1830001
-0.56099999 -0.70999998 4.1799998
-0.537 -0.70899999 4.1810002
-0.51200002 -0.708 4.178
-0.48899999 -0.70899999 4.1859999
-0.46399999 -0.708 4.184
-0.43900001 -0.70700002 4.1760001
-0.41499999 -0.70700002 4.1810002
-0.38999999 -0.70599997 4.1760001
-0.36399999 -0.70200002 4.158
-0.34099999 -0.70300001 4.1630001
-0.317 -0.70300001 4.1659999
-0.29300001 -0.704 4.1700001
-0.26899999 -0.70300001 4.1680002
-0.245 -0.70200002 4.1630001
-0.22 -0.69999999 4.1550002
-0.19599999 -0.699 4.151
-0.17200001 -0.699 4.1490002
-0.149 -0.699 4.1500001
-0.125 -0.69800001 4.1459999
-0.101 -0.69800001 4.1479998
-0.077 -0.699 4.152
-0.052999999 -0.69800001 4.1469998
-0.029999999 -0.69800001 4.1440001
-0.0060000001 -0.69800001 4.1469998
0.017000001 -0.69800001 4.145
0.039999999 -0.69599998 4.1350002
0.064000003 -0.69599998 4.1339998
0.088 -0.69599998 4.1360002
0.112 -0.69800001 4.1430001
0.13500001 -0.69499999 4.1279998
0.15899999 -0.69499999 4.1279998
0.183 -0.69599998 4.132
0.206 -0.69499999 4.1269999
0.23 -0.69499999 4.1269999
0.25299999 -0.69499999 4.1240001
0.27700001 -0.69599998 4.1300001
0.301 -0.69599998 4.125
0.324 -0.69400001 4.1139998
0.347 -0.69400001 4.1110001
0.37099999 -0.69499999 4.1139998
0.39500001 -0.69400001 4.1090002
0.41800001 -0.69300002 4.1030002
0.44100001 -0.69400001 4.1009998
0.465 -0.69400001 4.099
0.48800001 -0.69300002 4.0939999
0.51200002 -0.69300002 4.0910001
0.537 -0.69499999 4.1020002
0.56 -0.69499999 4.0949998
0.58399999 -0.69499999 4.092
0.60799998 -0.69499999 4.0900002
0.63099998 -0.69499999 4.085
0.65799999 -0.69800001 4.0999999
0.68000001 -0.69700003 4.0910001
0.70200002 -0.69499999 4.0770001
0.72799999 -0.69700003 4.085
0.75 -0.69499999 4.072
0.77600002 -0.69700003 4.0809999
0.80000001 -0.69700003 4.0770001
0.82300001 -0.69700003 4.072
0.84799999 -0.69800001 4.072
0.87099999 -0.69700003 4.0630002
0.89700001 -0.699 4.0700002
0.91900003 -0.69800001 4.059
0.94499999 -0.69999999 4.0630002
0.97000003 -0.69999999 4.0609999
0.99299997 -0.69999999 4.0539999
1.018 -0.69999999 4.052
1.044 -0.70200002 4.0570002
1.0700001 -0.704 4.059
1.092 -0.70200002 4.0450001
1.12 -0.70499998 4.0549998
1.1440001 -0.70499998 4.0489998
1.166 -0.704 4.0370002
1.191 -0.704 4.0339999
1.22 -0.70700002 4.0440001
1.245 -0.708 4.04
1.268 -0.70700002 4.0289998
1.293 -0.708 4.026
1.319 -0.70899999 4.0240002
1.349 -0.71200001 4.0339999
1.372 -0.71100003 4.026
1.398 -0.71200001 4.0229998
1.427 -0.71399999 4.027
1.452 -0.71499997 4.0219998
1.479 -0.71600002 4.0209999
1.505 -0.71700001 4.0180001
1.5319999 -0.71799999 4.0170002
1.556 -0.71799999 4.007
1.586 -0.72000003 4.0120001
1.61 -0.72000003 4.0040002
1.638 -0.722 4.0029998
1.665 -0.72299999 4.0009999
1.689 -0.72299999 3.99
1.7180001 -0.72399998 3.99
1.752 -0.72799999 4.0029998
1.773 -0.727 3.9849999
1.801 -0.72799999 3.9809999
1.835 -0.73199999 3.9909999
1.8559999 -0.73000002 3.973
1.895 -0.736 3.9920001
1.918 -0.73500001 3.9790001
1.949 -0.73699999 3.98
1.974 -0.73699999 3.97
2.01 -0.741 3.9790001
2.0420001 -0.74400002 3.983
2.066 -0.74299997 3.9679999
2.096 -0.745 3.9660001
2.131 -0.74800003 3.9719999
2.1589999 -0.74900001 3.9649999
2.1889999 -0.75099999 3.961
2.224 -0.75400001 3.9649999
2.2520001 -0.755 3.957
-2.45 -0.79699999 4.3249998
-2.408 -0.79299998 4.3130002
-2.3659999 -0.78799999 4.3010001
-2.336 -0.787 4.3099999
-2.302 -0.78500003 4.3109999
-2.266 -0.78200001 4.3080001
-2.23 -0.77999997 4.3049998
-2.198 -0.778 4.3070002
-2.1619999 -0.77499998 4.303
-2.1340001 -0.77399999 4.3130002
-2.0899999 -0.76800001 4.29
-2.0680001 -0.76999998 4.3119998
-2.0309999 -0.76599997 4.302
-1.994 -0.76300001 4.2930002
-1.96 -0.75999999 4.2880001
-1.931 -0.759 4.2940001
-1.901 -0.75800002 4.2969999
-1.862 -0.75300002 4.2789998
-1.83 -0.75 4.276
-1.802 -0.75 4.2820001
-1.774 -0.74900001 4.2880001
-1.738 -0.745 4.2740002
-1.7079999 -0.74299997 4.2740002
-1.681 -0.74299997 4.2810001
-1.65 -0.741 4.2789998
-1.617 -0.73799998 4.27
-1.591 -0.73799998 4.2779999
-1.564 -0.73699999 4.2839999
-1.529 -0.73299998 4.2670002
-1.4960001 -0.72899997 4.2550001
-1.471 -0.72899997 4.2639999
-1.441 -0.727 4.2600002
-1.411 -0.72500002 4.2529998
-1.3839999 -0.72399998 4.2579999
-1.3559999 -0.72299999 4.2579999
-1.327 -0.72100002 4.2519999
-1.2970001 -0.71899998 4.2449999
-1.271 -0.71799999 4.25
-1.243 -0.71700001 4.2470002
-1.217 -0.71600002 4.2519999
-1.189 -0.71499997 4.2480001
-1.16 -0.71200001 4.2389998
-1.131 -0.70999998 4.2329998
-1.108 -0.71100003 4.243
-1.079 -0.708 4.2340002
-1.053 -0.708 4.237
-1.024 -0.70499998 4.2249999
-0.99800003 -0.704 4.2280002
-0.97100002 -0.70200002 4.2210002
-0.94700003 -0.70300001 4.2309999
-0.91900003 -0.70099998 4.2220001
-0.89200002 -0.699 4.2160001
-0.866 -0.69700003 4.211
-0.84100002 -0.69700003 4.2150002
-0.81400001 -0.69499999 4.2080002
-0.79100001 -0.69700003 4.2199998
-0.764 -0.69400001 4.2059999
-0.73799998 -0.69300002 4.2030001
-0.71200001 -0.69099998 4.1989999
-0.68800002 -0.69099998 4.2030001
-0.66299999 -0.69 4.2010002
-0.63800001 -0.69 4.1999998
-0.61000001 -0.68599999 4.1820002
-0.588 -0.68800002 4.1999998
-0.56199998 -0.68599999 4.1859999
-0.537 -0.68599999 4.1880002
-0.51300001 -0.68599999 4.1929998
-0.48899999 -0.685 4.1890001
-0.46399999 -0.685 4.1900001
-0.43700001 -0.67900002 4.1589999
-0.414 -0.68099999 4.1750002
-0.389 -0.67900002 4.165
-0.366 -0.68099999 4.1739998
-0.34099999 -0.68000001 4.1729999
-0.317 -0.68000001 4.1719999
-0.292 -0.67699999 4.1599998
-0.26899999 -0.67900002 4.1719999
-0.245 -0.67699999 4.1630001
-0.221 -0.67699999 4.1609998
-0.197 -0.67699999 4.164
-0.17299999 -0.67699999 4.1609998
-0.149 -0.676 4.1599998
-0.125 -0.67699999 4.1669998
-0.101 -0.67500001 4.1560001
-0.077 -0.676 4.158
-0.054000001 -0.67500001 4.158
-0.029999999 -0.67299998 4.1459999
-0.0060000001 -0.67500001 4.1570001
0.017000001 -0.67299998 4.1430001
0.039999999 -0.67199999 4.1360002
0.064000003 -0.67299998 4.1459999
0.088 -0.67299998 4.1440001
0.111 -0.67199999 4.1339998
0.13500001 -0.671 4.131
0.15800001 -0.67000002 4.125
0.183 -0.67199999 4.1360002
0.206 -0.67199999 4.132
0.229 -0.671 4.1259999
0.25400001 -0.67199999 4.132
0.27700001 -0.67199999 4.132
0.301 -0.67199999 4.131
0.32300001 -0.66900003 4.1079998
0.34799999 -0.67199999 4.1230001
0.37099999 -0.671 4.1170001
0.39500001 -0.671 4.1129999
0.419 -0.671 4.1149998
0.442 -0.671 4.1090002
0.46599999 -0.67199999 4.112
0.48899999 -0.671 4.1059999
0.51300001 -0.671 4.1040001
0.53600001 -0.67000002 4.099
0.56 -0.671 4.099
0.58499998 -0.67199999 4.1020002
0.60799998 -0.671 4.0929999
0.63099998 -0.67000002 4.086
0.65499997 -0.67199999 4.0900002
0.67799997 -0.67000002 4.079
0.70300001 -0.67199999 4.086
0.72799999 -0.67299998 4.0869999
0.75199997 -0.67299998 4.085
0.77700001 -0.67400002 4.0879998
0.79900002 -0.67299998 4.0760002
0.82499999 -0.67400002 4.0809999
0.847 -0.67299998 4.0710001
0.87400001 -0.676 4.0819998
0.89600003 -0.67500001 4.0710001
0.92199999 -0.676 4.0739999
0.94499999 -0.676 4.0650001
0.97299999 -0.67799997 4.0770001
0.99400002 -0.67699999 4.0619998
1.02 -0.67799997 4.0630002
1.048 -0.68099999 4.0739999
1.069 -0.67900002 4.0570002
1.0930001 -0.67900002 4.0539999
1.117 -0.67900002 4.0479999
1.143 -0.68000001 4.0510001
1.1670001 -0.68000001 4.0440001
1.191 -0.68000001 4.0359998
1.217 -0.68099999 4.0370002
1.245 -0.68400002 4.0440001
1.27 -0.68400002 4.0409999
1.295 -0.68400002 4.0359998
1.319 -0.685 4.0300002
1.346 -0.68599999 4.0320001
1.372 -0.68699998 4.0289998
1.399 -0.68800002 4.0300002
1.427 -0.69 4.0320001
1.451 -0.69 4.0229998
1.478 -0.69099998 4.0229998
1.499 -0.69 4.007
1.53 -0.69300002 4.0170002
1.556 -0.69300002 4.0120001
1.589 -0.69700003 4.0240002
1.609 -0.69499999 4.0050001
1.6390001 -0.69800001 4.0089998
1.665 -0.69800001 4.0050001
1.696 -0.70099998 4.0110002
1.724 -0.70200002 4.0089998
1.75 -0.70300001 4.0019999
1.777 -0.704 3.9979999
1.804 -0.704 3.9920001
1.834 -0.70599997 3.993
1.86 -0.70700002 3.9860001
1.8890001 -0.70899999 3.9849999
1.918 -0.70999998 3.9820001
1.947 -0.71100003 3.98
1.979 -0.71399999 3.9820001
2.006 -0.71499997 3.9760001
2.0369999 -0.71700001 3.9760001
2.063 -0.71700001 3.9660001
2.096 -0.71899998 3.9690001
2.128 -0.722 3.97
2.1559999 -0.72299999 3.9630001
2.1919999 -0.72600001 3.97
2.2190001 -0.727 3.961
2.25 -0.72799999 3.9579999
-2.45 -0.76899999 4.329
-2.4030001 -0.76300001 4.3080001
-2.3699999 -0.76200002 4.3130002
-2.3410001 -0.76099998 4.323
-2.3039999 -0.75800002 4.3189998
-2.2690001 -0.75599998 4.3179998
-2.2309999 -0.75199997 4.3109999
-2.198 -0.75 4.3130002
-2.164 -0.74800003 4.3109999
-2.1329999 -0.74699998 4.3150001
-2.095 -0.74299997 4.3039999
-2.062 -0.741 4.3039999
-2.027 -0.73799998 4.2989998
-1.999 -0.73799998 4.3080001
-1.967 -0.73500001 4.3060002
-1.934 -0.73299998 4.3039999
-1.899 -0.73000002 4.2969999
-1.86 -0.72500002 4.2779999
-1.83 -0.72399998 4.2789998
-1.8049999 -0.72399998 4.2930002
-1.77 -0.72100002 4.2820001
-1.744 -0.72100002 4.2919998
-1.707 -0.71700001 4.276
-1.674 -0.71399999 4.2670002
-1.645 -0.713 4.27
-1.617 -0.71100003 4.2719998
-1.586 -0.70899999 4.2680001
-1.557 -0.708 4.2690001
-1.531 -0.708 4.2750001
-1.501 -0.70599997 4.2719998
-1.474 -0.70499998 4.2779999
-1.4400001 -0.70099998 4.2610002
-1.413 -0.69999999 4.2639999
-1.385 -0.699 4.263
-1.355 -0.69700003 4.2589998
-1.326 -0.69499999 4.2540002
-1.299 -0.69400001 4.2540002
-1.273 -0.69400001 4.2600002
-1.242 -0.69099998 4.2490001
-1.215 -0.68900001 4.2470002
-1.187 -0.68800002 4.244
-1.16 -0.68699998 4.2420001
-1.133 -0.68599999 4.243
-1.108 -0.68599999 4.2490001
-1.0779999 -0.68300003 4.2360001
-1.05 -0.68099999 4.2280002
-1.027 -0.68199998 4.2399998
-1.002 -0.68199998 4.2470002
-0.97299999 -0.67900002 4.2340002
-0.94499999 -0.67699999 4.2259998
-0.917 -0.67400002 4.2160001
-0.89300001 -0.67500001 4.2210002
-0.86699998 -0.67299998 4.2189999
-0.84299999 -0.67400002 4.2259998
-0.815 -0.671 4.2129998
-0.79000002 -0.671 4.2179999
-0.76300001 -0.66900003 4.2059999
-0.73699999 -0.66799998 4.2030001
-0.713 -0.66799998 4.21
-0.68699998 -0.66600001 4.2020001
-0.662 -0.66600001 4.2030001
-0.63700002 -0.66399997 4.1989999
-0.611 -0.66299999 4.191
-0.58600003 -0.662 4.1900001
-0.56099999 -0.66100001 4.1859999
-0.53600001 -0.66000003 4.184
-0.514 -0.662 4.2010002
-0.48899999 -0.662 4.1999998
-0.46399999 -0.66000003 4.1880002
-0.43900001 -0.65799999 4.1830001
-0.414 -0.65700001 4.1799998
-0.389 -0.65499997 4.1669998
-0.36500001 -0.65600002 4.1719999
-0.34200001 -0.65700001 4.1820002
-0.317 -0.65600002 4.1760001
-0.29300001 -0.65499997 4.1729999
-0.26800001 -0.653 4.165
-0.245 -0.65399998 4.171
-0.221 -0.65399998 4.1719999
-0.19599999 -0.65200001 4.1570001
-0.17200001 -0.65100002 4.1529999
-0.148 -0.64999998 4.152
-0.125 -0.65200001 4.1609998
-0.101 -0.65200001 4.1609998
-0.077 -0.65200001 4.1659999
-0.052999999 -0.64999998 4.151
-0.029999999 -0.653 4.1690001
-0.0060000001 -0.64999998 4.151
0.017000001 -0.64999998 4.152
0.041000001 -0.64899999 4.1469998
0.064000003 -0.64899999 4.1469998
0.088 -0.64899999 4.145
0.112 -0.64999998 4.151
0.13500001 -0.64700001 4.1279998
0.15899999 -0.648 4.138
0.182 -0.648 4.1350002
0.206 -0.64700001 4.132
0.23 -0.648 4.131
0.25299999 -0.64600003 4.1199999
0.27700001 -0.64700001 4.1259999
0.301 -0.64899999 4.1360002
0.324 -0.64700001 4.125
0.34799999 -0.648 4.125
0.37099999 -0.64700001 4.1170001
0.39500001 -0.64700001 4.1170001
0.41800001 -0.64700001 4.112
0.44299999 -0.648 4.1209998
0.465 -0.64600003 4.1020002
0.49000001 -0.648 4.112
0.514 -0.64899999 4.1170001
0.53600001 -0.64700001 4.1009998
0.56 -0.64700001 4.0999999
0.58499998 -0.64899999 4.1100001
0.60799998 -0.648 4.098
0.63300002 -0.64899999 4.1020002
0.65399998 -0.64600003 4.0830002
0.67900002 -0.648 4.092
0.70300001 -0.648 4.0869999
0.72799999 -0.64899999 4.0910001
0.75 -0.648 4.0799999
0.77700001 -0.64999998 4.092
0.79900002 -0.64899999 4.0819998
0.82300001 -0.64999998 4.079
0.84899998 -0.65100002 4.0809999
0.87400001 -0.65200001 4.085
0.898 -0.65200001 4.0799999
0.91900003 -0.64999998 4.0640001
0.94499999 -0.65200001 4.0710001
0.96899998 -0.65200001 4.0630002
0.99299997 -0.65200001 4.0609999
1.02 -0.65399998 4.0689998
1.045 -0.65399998 4.0650001
1.068 -0.65399998 4.0580001
1.096 -0.65700001 4.0669999
1.118 -0.65499997 4.053
1.142 -0.65600002 4.0489998
1.166 -0.65600002 4.0430002
1.1950001 -0.65799999 4.0539999
1.215 -0.65600002 4.0349998
1.248 -0.66100001 4.0570002
1.267 -0.65899998 4.0359998
1.295 -0.66000003 4.039
1.322 -0.662 4.0409999
1.346 -0.662 4.0349998
1.375 -0.66399997 4.04
1.398 -0.66399997 4.0310001
1.424 -0.66500002 4.0289998
1.4529999 -0.66600001 4.033
1.476 -0.66600001 4.0209999
1.505 -0.66799998 4.027
1.5319999 -0.66900003 4.0240002
1.561 -0.671 4.0279999
1.59 -0.67299998 4.0310001
1.615 -0.67299998 4.0229998
1.638 -0.67199999 4.0110002
1.6670001 -0.67400002 4.0120001
1.694 -0.67500001 4.0089998
1.7180001 -0.67500001 3.9990001
1.748 -0.67699999 4.0019999
1.777 -0.67900002 4
1.807 -0.68099999 4.0040002
1.836 -0.68199998 4.0019999
1.8609999 -0.68199998 3.993
1.89 -0.68400002 3.99
1.918 -0.685 3.9860001
1.95 -0.68699998 3.99
1.979 -0.68900001 3.9879999
2.0120001 -0.69099998 3.9909999
2.0350001 -0.69099998 3.977
2.0650001 -0.69199997 3.9749999
2.1029999 -0.69599998 3.987
2.1289999 -0.69700003 3.9760001
2.1530001 -0.69599998 3.9619999
2.188 -0.699 3.967
2.2219999 -0.70200002 3.97
2.25 -0.70300001 3.9619999
-2.451 -0.741 4.336
-2.4170001 -0.74000001 4.3379998
-2.372 -0.73400003 4.3200002
-2.3329999 -0.73100001 4.3130002
-2.3080001 -0.73199999 4.3319998
-2.2620001 -0.72600001 4.309
-2.2279999 -0.72399998 4.309
-2.204 -0.72500002 4.3270001
-2.1630001 -0.72000003 4.3140001
-2.128 -0.71799999 4.3099999
-2.0940001 -0.71499997 4.3060002
-2.056 -0.71200001 4.296
-2.0309999 -0.71200001 4.3099999
-2 -0.71100003 4.3140001
-1.966 -0.708 4.3099999
-1.929 -0.70499998 4.2969999
-1.899 -0.70300001 4.3010001
-1.865 -0.70099998 4.2950001
-1.834 -0.699 4.2930002
-1.802 -0.69700003 4.29
-1.773 -0.69599998 4.2930002
-1.74 -0.69300002 4.2880001
-1.712 -0.69199997 4.2930002
-1.677 -0.68900001 4.2800002
-1.65 -0.68800002 4.2849998
-1.619 -0.68599999 4.2820001
-1.586 -0.68300003 4.2719998
-1.561 -0.68400002 4.2820001
-1.526 -0.68000001 4.2670002
-1.502 -0.68000001 4.2789998
-1.472 -0.67799997 4.2750001
-1.444 -0.67699999 4.276
-1.414 -0.67500001 4.27
-1.3839999 -0.67299998 4.263
-1.354 -0.671 4.2579999
-1.3279999 -0.67000002 4.2620001
-1.301 -0.67000002 4.2639999
-1.271 -0.667 4.2550001
-1.243 -0.66600001 4.2550001
-1.215 -0.66399997 4.25
-1.1900001 -0.66500002 4.2600002
-1.161 -0.662 4.2509999
-1.1339999 -0.66100001 4.2509999
-1.1059999 -0.66000003 4.2449999
-1.079 -0.65799999 4.244
-1.052 -0.65700001 4.2410002
-1.025 -0.65600002 4.2389998
-0.99800003 -0.65399998 4.2329998
-0.972 -0.653 4.2329998
-0.94499999 -0.65200001 4.23
-0.917 -0.64899999 4.217
-0.89600003 -0.65200001 4.2379999
-0.86900002 -0.65100002 4.2340002
-0.84200001 -0.64899999 4.2270002
-0.81300002 -0.64499998 4.2080002
-0.79100001 -0.64700001 4.224
-0.764 -0.64499998 4.217
-0.73799998 -0.64399999 4.2119999
-0.713 -0.64300001 4.2090001
-0.68800002 -0.64300001 4.211
-0.66100001 -0.63999999 4.198
-0.639 -0.64200002 4.2129998
-0.61299998 -0.63999999 4.2049999
-0.58499998 -0.63700002 4.1859999
-0.56300002 -0.639 4.2049999
-0.53799999 -0.63800001 4.1999998
-0.51200002 -0.63599998 4.1880002
-0.48699999 -0.634 4.1830001
-0.46399999 -0.63599998 4.197
-0.43900001 -0.63499999 4.1929998
-0.41499999 -0.63499999 4.191
-0.38999999 -0.63300002 4.184
-0.36500001 -0.63200003 4.1789999
-0.34099999 -0.63200003 4.1820002
-0.317 -0.63099998 4.1719999
-0.292 -0.63 4.1680002
-0.26800001 -0.62900001 4.1680002
-0.245 -0.63 4.1750002
-0.22 -0.62900001 4.165
-0.197 -0.62900001 4.1659999
-0.17200001 -0.62800002 4.1609998
-0.148 -0.62699997 4.1550002
-0.125 -0.62800002 4.1659999
-0.101 -0.62800002 4.1669998
-0.077 -0.62599999 4.1560001
-0.052999999 -0.62599999 4.1550002
-0.029999999 -0.62599999 4.152
-0.0060000001 -0.62599999 4.1529999
0.017000001 -0.62699997 4.158
0.041000001 -0.62599999 4.152
0.064000003 -0.625 4.1459999
0.088 -0.625 4.1459999
0.112 -0.62599999 4.1550002
0.13500001 -0.62599999 4.151
0.15899999 -0.62400001 4.1370001
0.183 -0.625 4.1459999
0.206 -0.62300003 4.131
0.229 -0.62300003 4.132
0.25400001 -0.625 4.1389999
0.278 -0.625 4.1430001
0.301 -0.62400001 4.1339998
0.32499999 -0.625 4.138
0.34799999 -0.62400001 4.1279998
0.37099999 -0.62300003 4.1240001
0.39500001 -0.62400001 4.125
0.41800001 -0.62300003 4.119
0.442 -0.62300003 4.1139998
0.46599999 -0.62400001 4.1160002
0.49000001 -0.62400001 4.1199999
0.514 -0.625 4.118
0.537 -0.62400001 4.1139998
0.56099999 -0.62400001 4.1090002
0.58499998 -0.625 4.112
0.60799998 -0.62400001 4.105
