# .PCD v0.7 - Point Cloud Data file format
VERSION 0.7
FIELDS x y z
SIZE 4 4 4
TYPE F F F
COUNT 1 1 1
WIDTH 1793
HEIGHT 1
VIEWPOINT 0 0 0 1 0 0 0
POINTS 1793
DATA ascii
-0.95899999 0.43799999 3.7880001
-0.93300003 0.43599999 3.776
-0.912 0.43599999 3.7850001
-0.884 0.43399999 3.767
-0.86500001 0.435 3.7820001
-0.83899999 0.433 3.7690001
-0.81900001 0.43399999 3.7820001
-0.79500002 0.433 3.78
-0.77200001 0.43200001 3.7750001
-0.74599999 0.43000001 3.763
-0.72500002 0.43000001 3.7690001
-0.704 0.43099999 3.7739999
-0.68199998 0.43000001 3.776
-0.65899998 0.43000001 3.776
-0.63499999 0.42899999 3.767
-0.61400002 0.42899999 3.7720001
-0.58999997 0.42699999 3.763
-0.56599998 0.426 3.7520001
-0.54500002 0.426 3.757
-0.514 0.419 3.6919999
-0.46200001 0.39300001 3.464
-0.433 0.384 3.3889999
-0.412 0.382 3.3789999
-0.391 0.382 3.3740001
-0.373 0.38299999 3.385
-0.352 0.38100001 3.368
-0.33000001 0.37799999 3.3469999
-0.31 0.377 3.336
-0.29100001 0.377 3.3399999
-0.273 0.37799999 3.348
-0.252 0.37599999 3.335
-0.22499999 0.36199999 3.214
-0.18799999 0.33000001 2.925
-0.169 0.32600001 2.8889999
-0.152 0.32499999 2.8800001
-0.13500001 0.32300001 2.8699999
-0.119 0.324 2.8740001
-0.103 0.32300001 2.8699999
-0.086000003 0.32300001 2.8710001
-0.07 0.32300001 2.8670001
-0.052999999 0.32300001 2.8699999
-0.037 0.32300001 2.872
-0.021 0.32300001 2.8659999
-0.0040000002 0.32300001 2.865
0.011 0.32300001 2.865
0.027000001 0.32300001 2.868
0.044 0.322 2.8610001
0.059999999 0.32300001 2.8670001
0.075999998 0.322 2.8629999
0.092 0.322 2.8610001
0.109 0.32300001 2.8640001
0.125 0.32300001 2.862
0.141 0.32300001 2.862
0.15800001 0.32300001 2.8610001
0.17399999 0.322 2.8559999
0.19 0.32100001 2.848
0.206 0.322 2.849
0.222 0.322 2.8499999
0.23899999 0.32100001 2.846
0.255 0.322 2.846
0.271 0.322 2.845
0.28799999 0.32300001 2.8540001
0.30500001 0.32300001 2.8510001
0.31999999 0.322 2.845
0.33700001 0.322 2.842
0.354 0.32300001 2.849
0.37 0.32300001 2.848
0.38999999 0.32600001 2.872
0.44299999 0.35499999 3.1289999
0.50400001 0.38800001 3.414
0.52600002 0.389 3.428
0.551 0.39300001 3.46
0.57599998 0.39700001 3.4849999
0.60100001 0.40000001 3.5120001
0.62400001 0.40200001 3.527
0.64999998 0.405 3.552
0.67699999 0.40900001 3.5869999
0.71200001 0.417 3.652
0.76999998 0.43900001 3.8369999
0.81599998 0.45199999 3.9460001
0.84100002 0.45199999 3.95
0.866 0.454 3.9590001
0.89200002 0.45500001 3.967
0.91799998 0.45699999 3.974
0.94199997 0.45699999 3.9719999
0.96899998 0.45899999 3.9849999
0.99699998 0.461 3.997
1.022 0.46200001 3.9979999
1.048 0.463 4.0040002
1.073 0.46399999 4.006
1.095 0.463 3.994
1.1210001 0.465 3.9979999
1.145 0.465 3.993
1.166 0.46399999 3.9779999
1.197 0.46700001 3.9990001
1.228 0.46900001 4.0149999
1.251 0.46900001 4.006
1.28 0.47099999 4.0149999
1.312 0.47400001 4.033
1.3329999 0.47299999 4.0180001
1.359 0.47400001 4.0180001
1.383 0.47400001 4.0110002
1.414 0.47600001 4.0229998
1.438 0.47600001 4.0159998
1.466 0.477 4.0180001
1.495 0.479 4.0229998
1.524 0.47999999 4.0289998
1.545 0.479 4.0110002
1.575 0.48100001 4.0180001
1.6059999 0.48300001 4.026
1.6390001 0.486 4.0380001
1.666 0.486 4.0339999
1.694 0.48699999 4.0349998
1.724 0.48899999 4.0370002
1.756 0.491 4.0450001
1.783 0.49200001 4.04
1.8099999 0.49200001 4.0349998
1.839 0.493 4.0349998
1.869 0.49399999 4.033
1.898 0.49599999 4.0320001
1.928 0.49700001 4.0320001
1.959 0.498 4.033
1.9910001 0.5 4.0370002
2.0190001 0.50099999 4.0310001
2.0469999 0.50099999 4.0250001
2.082 0.50400001 4.033
2.1059999 0.50300002 4.0190001
2.1440001 0.50599998 4.0289998
2.175 0.50800002 4.0289998
2.214 0.51099998 4.04
2.2620001 0.51599997 4.0679998
2.3399999 0.52700001 4.1469998
-2.161 0.51300001 3.839
-2.098 0.50400001 3.7820001
-2.073 0.50400001 3.7920001
-2.0699999 0.509 3.8440001
-2.05 0.50999999 3.8629999
-2.01 0.50599998 3.845
-1.988 0.50700003 3.8610001
-1.9960001 0.51499999 3.937
-1.9680001 0.51499999 3.941
-1.933 0.51200002 3.9319999
-1.905 0.51099998 3.9349999
-1.886 0.51300001 3.957
-1.845 0.50800002 3.9330001
-1.811 0.50599998 3.9230001
-1.783 0.50400001 3.924
-1.773 0.50800002 3.9660001
-1.745 0.50800002 3.9679999
-1.716 0.50599998 3.9679999
-1.689 0.50599998 3.9719999
-1.66 0.50400001 3.9679999
-1.624 0.50099999 3.95
-1.5829999 0.495 3.9170001
-1.528 0.48500001 3.846
-1.456 0.47 3.7290001
-1.415 0.46399999 3.6889999
-1.396 0.465 3.7060001
-1.363 0.461 3.6860001
-1.3430001 0.46200001 3.7
-1.3200001 0.46200001 3.7030001
-1.299 0.46200001 3.714
-1.279 0.463 3.7290001
-1.25 0.461 3.714
-1.23 0.46200001 3.7290001
-1.21 0.46200001 3.7409999
-1.1900001 0.463 3.7550001
-1.159 0.46000001 3.734
-1.137 0.46000001 3.74
-1.1160001 0.46000001 3.7509999
-1.0880001 0.458 3.7379999
-1.059 0.45500001 3.72
-1.0369999 0.45500001 3.724
-1.0190001 0.45699999 3.743
-0.99199998 0.45500001 3.7309999
-0.97000003 0.454 3.734
-0.94300002 0.45199999 3.72
-0.92400002 0.454 3.7379999
-0.89899999 0.45199999 3.73
-0.87300003 0.44999999 3.7179999
-0.852 0.44999999 3.724
-0.82700002 0.449 3.7149999
-0.80299997 0.447 3.7079999
-0.77899998 0.44600001 3.7
-0.75700003 0.44600001 3.7019999
-0.73799998 0.447 3.7149999
-0.71700001 0.447 3.723
-0.69400001 0.44600001 3.7179999
-0.671 0.44600001 3.717
-0.65200001 0.447 3.734
-0.62800002 0.44499999 3.723
-0.60299999 0.44299999 3.7060001
-0.583 0.44400001 3.7130001
-0.55699998 0.44 3.687
-0.53299999 0.43799999 3.668
-0.48500001 0.41499999 3.4809999
-0.44800001 0.40000001 3.3540001
-0.42699999 0.39899999 3.346
-0.405 0.39500001 3.319
-0.38600001 0.396 3.3280001
-0.368 0.39700001 3.339
-0.34799999 0.39500001 3.326
-0.32699999 0.39300001 3.3099999
-0.30599999 0.391 3.2909999
-0.28600001 0.389 3.279
-0.26699999 0.389 3.277
-0.24600001 0.38499999 3.2479999
-0.227 0.38499999 3.2479999
-0.20299999 0.37400001 3.1530001
-0.18099999 0.366 3.0899999
-0.162 0.36199999 3.0569999
-0.142 0.35600001 3.0090001
-0.12 0.34200001 2.8870001
-0.102 0.33899999 2.865
-0.086000003 0.34 2.8729999
-0.07 0.34 2.868
-0.052999999 0.33899999 2.865
-0.037 0.33899999 2.8610001
-0.021 0.338 2.859
-0.0040000002 0.33899999 2.862
0.011 0.33899999 2.8610001
0.027000001 0.33899999 2.8610001
0.044 0.33899999 2.8610001
0.059999999 0.33899999 2.862
0.075999998 0.338 2.858
0.092 0.338 2.8570001
0.109 0.338 2.8559999
0.125 0.33700001 2.848
0.141 0.338 2.852
0.15700001 0.338 2.8510001
0.17399999 0.338 2.849
0.189 0.33700001 2.842
0.206 0.338 2.8499999
0.223 0.338 2.852
0.23899999 0.338 2.845
0.255 0.338 2.8469999
0.27200001 0.338 2.8469999
0.287 0.338 2.842
0.30399999 0.338 2.8440001
0.32100001 0.33899999 2.8499999
0.338 0.34 2.8529999
0.354 0.34 2.852
0.37200001 0.34099999 2.859
0.398 0.34900001 2.925
0.46000001 0.38699999 3.243
0.491 0.39700001 3.3239999
0.514 0.40000001 3.3469999
0.53600001 0.40200001 3.365
0.55699998 0.40400001 3.3729999
0.58099997 0.40599999 3.3929999
0.60299999 0.40799999 3.404
0.62800002 0.412 3.4330001
0.65499997 0.41600001 3.4630001
0.68599999 0.42300001 3.5179999
0.74299997 0.44499999 3.7
0.80000001 0.465 3.868
0.82800001 0.46799999 3.8889999
0.852 0.46900001 3.892
0.87599999 0.47 3.892
0.90200001 0.472 3.902
0.92500001 0.472 3.898
0.95300001 0.47400001 3.915
0.98100001 0.477 3.931
1.01 0.47999999 3.9489999
1.0319999 0.479 3.941
1.057 0.47999999 3.9419999
1.077 0.479 3.925
1.098 0.47799999 3.9130001
1.128 0.48100001 3.9289999
1.151 0.48100001 3.9260001
1.177 0.48199999 3.9289999
1.206 0.484 3.9400001
1.239 0.48800001 3.9660001
1.2640001 0.48899999 3.964
1.295 0.49200001 3.9809999
1.319 0.49200001 3.974
1.341 0.491 3.9619999
1.372 0.49399999 3.9749999
1.395 0.49399999 3.967
1.423 0.495 3.971
1.454 0.498 3.983
1.478 0.498 3.9749999
1.498 0.49599999 3.957
1.521 0.49599999 3.947
1.5599999 0.50099999 3.9760001
1.586 0.50099999 3.973
1.62 0.50400001 3.987
1.656 0.50800002 4.007
1.676 0.50700003 3.9879999
1.699 0.50599998 3.9749999
1.737 0.50999999 3.9979999
1.768 0.51200002 4.0040002
1.791 0.51200002 3.99
1.821 0.51300001 3.99
1.853 0.51499999 3.9960001
1.876 0.51499999 3.983
1.9119999 0.51800001 3.9949999
1.942 0.51899999 3.9960001
1.97 0.51999998 3.9920001
2 0.52100003 3.9909999
2.0239999 0.52100003 3.9760001
2.0599999 0.52399999 3.9860001
2.092 0.52499998 3.9879999
2.119 0.52600002 3.98
2.168 0.53200001 4.0120001
2.2360001 0.542 4.0780001
2.296 0.55000001 4.1269999
2.3889999 0.56599998 4.2319999
-2.102 0.523 3.7309999
-2.075 0.523 3.737
-2.076 0.52899998 3.796
-2.0420001 0.52700001 3.7880001
-2.023 0.528 3.8099999
-1.9859999 0.52499998 3.7969999
-1.983 0.52999997 3.849
-1.971 0.53399998 3.8840001
-1.926 0.528 3.855
-1.89 0.52499998 3.8410001
-1.869 0.52600002 3.859
-1.834 0.523 3.845
-1.781 0.514 3.7939999
-1.784 0.52200001 3.862
-1.7640001 0.523 3.8789999
-1.738 0.523 3.885
-1.715 0.523 3.8970001
-1.683 0.52100003 3.888
-1.659 0.52100003 3.8970001
-1.6160001 0.514 3.8599999
-1.579 0.50999999 3.8369999
-1.521 0.49900001 3.7609999
-1.4529999 0.484 3.654
-1.416 0.479 3.6240001
-1.4 0.48100001 3.6459999
-1.373 0.479 3.641
-1.348 0.47799999 3.641
-1.318 0.47499999 3.6259999
-1.288 0.472 3.6099999
-1.263 0.47099999 3.609
-1.25 0.47400001 3.6400001
-1.225 0.47400001 3.6400001
-1.205 0.47400001 3.6489999
-1.187 0.47600001 3.668
-1.156 0.472 3.645
-1.1339999 0.472 3.6500001
-1.113 0.472 3.6600001
-1.09 0.472 3.6619999
-1.064 0.47 3.6530001
-1.041 0.46900001 3.654
-1.015 0.46700001 3.6429999
-0.99299997 0.46700001 3.6459999
-0.97000003 0.46599999 3.6470001
-0.94800001 0.46599999 3.648
-0.926 0.46599999 3.652
-0.90399998 0.465 3.652
-0.87699997 0.463 3.6370001
-0.85699999 0.463 3.6470001
-0.829 0.45899999 3.6210001
-0.81099999 0.461 3.6370001
-0.79000002 0.461 3.642
-0.76499999 0.45899999 3.6300001
-0.74400002 0.45899999 3.6370001
-0.72399998 0.46000001 3.645
-0.70300001 0.46000001 3.648
-0.68400002 0.461 3.6619999
-0.66100001 0.46000001 3.6570001
-0.63800001 0.45899999 3.651
-0.616 0.458 3.648
-0.59399998 0.45699999 3.6429999
-0.56999999 0.45500001 3.631
-0.54400003 0.45100001 3.598
-0.50099999 0.43099999 3.444
-0.46399999 0.41600001 3.325
-0.44400001 0.41600001 3.325
-0.426 0.417 3.336
-0.40700001 0.41600001 3.3329999
-0.38499999 0.414 3.3139999
-0.36700001 0.414 3.322
-0.34599999 0.412 3.306
-0.324 0.40799999 3.276
-0.29899999 0.40000001 3.2149999
-0.27700001 0.39500001 3.1730001
-0.259 0.39399999 3.1689999
-0.23999999 0.39399999 3.1700001
-0.223 0.39500001 3.1760001
-0.205 0.39700001 3.1919999
-0.18700001 0.39700001 3.1919999
-0.168 0.39500001 3.177
-0.147 0.38800001 3.125
-0.12 0.36000001 2.8929999
-0.103 0.35600001 2.8659999
-0.086000003 0.35600001 2.8629999
-0.07 0.35600001 2.868
-0.052999999 0.35600001 2.865
-0.037 0.35600001 2.8629999
-0.021 0.35499999 2.855
-0.0040000002 0.354 2.8529999
0.011 0.35499999 2.855
0.027000001 0.35499999 2.8610001
0.044 0.35499999 2.8610001
0.059999999 0.35499999 2.858
0.075999998 0.35499999 2.855
0.092 0.354 2.849
0.108 0.354 2.846
0.124 0.35299999 2.8429999
0.141 0.354 2.846
0.15700001 0.354 2.8469999
0.17299999 0.35299999 2.8380001
0.189 0.35299999 2.8399999
0.205 0.35299999 2.8380001
0.221 0.35299999 2.8340001
0.23800001 0.354 2.8380001
0.25400001 0.354 2.8380001
0.27000001 0.35299999 2.8329999
0.287 0.354 2.835
0.30399999 0.35499999 2.8469999
0.32699999 0.36199999 2.8989999
0.36000001 0.37900001 3.0350001
0.37900001 0.38100001 3.05
0.39899999 0.38299999 3.063
0.42699999 0.39199999 3.1370001
0.46000001 0.40599999 3.244
0.47999999 0.40700001 3.247
0.5 0.40799999 3.2579999
0.52200001 0.41 3.2709999
0.54699999 0.41499999 3.3069999
0.56800002 0.41600001 3.3150001
0.58999997 0.419 3.329
0.61400002 0.42199999 3.355
0.63800001 0.42500001 3.3759999
0.667 0.43099999 3.4170001
0.71700001 0.44999999 3.566
0.778 0.47400001 3.7579999
0.80900002 0.47999999 3.799
0.83200002 0.47999999 3.7969999
0.85699999 0.48199999 3.8069999
0.884 0.48500001 3.822
0.90600002 0.484 3.816
0.93000001 0.486 3.8199999
0.95899999 0.48899999 3.8399999
0.986 0.491 3.8540001
1.011 0.49200001 3.8559999
1.034 0.493 3.855
1.0599999 0.49399999 3.8599999
1.081 0.493 3.8499999
1.1109999 0.49700001 3.868
1.1339999 0.49700001 3.8629999
1.1619999 0.49900001 3.8759999
1.187 0.5 3.875
1.212 0.50099999 3.8770001
1.237 0.50099999 3.8759999
1.271 0.50599998 3.902
1.299 0.50800002 3.9100001
1.317 0.50599998 3.888
1.342 0.50599998 3.8840001
1.376 0.51099998 3.9100001
1.396 0.509 3.891
1.429 0.51200002 3.9100001
1.454 0.51300001 3.908
1.484 0.51499999 3.9159999
1.5140001 0.51700002 3.924
1.538 0.51800001 3.9170001
1.5599999 0.51700002 3.905
1.591 0.51899999 3.9130001
1.619 0.52100003 3.915
1.645 0.52100003 3.911
1.674 0.523 3.914
1.709 0.52600002 3.9300001
1.734 0.52700001 3.924
1.766 0.52899998 3.931
1.796 0.53100002 3.934
1.8200001 0.53100002 3.9230001
1.852 0.53299999 3.928
1.886 0.53500003 3.938
1.9119999 0.53600001 3.931
1.942 0.537 3.9319999
1.97 0.53799999 3.928
2.003 0.54100001 3.934
2.0320001 0.542 3.9289999
2.063 0.54299998 3.9289999
2.1029999 0.54699999 3.9460001
2.1670001 0.55699998 4.007
2.2639999 0.57499999 4.1259999
2.3429999 0.588 4.2080002
2.3989999 0.59600002 4.2470002
-2.1010001 0.54699999 3.727
-2.0580001 0.542 3.704
-2.0469999 0.546 3.7390001
-2.0050001 0.54100001 3.717
-1.997 0.54500002 3.757
-1.976 0.546 3.7739999
-1.9579999 0.54799998 3.7980001
-1.927 0.546 3.7939999
-1.883 0.54000002 3.7639999
-1.852 0.53799999 3.7609999
-1.8150001 0.53399998 3.743
-1.822 0.54299998 3.8169999
-1.796 0.542 3.822
-1.743 0.53399998 3.77
-1.728 0.53600001 3.7980001
-1.698 0.53399998 3.7909999
-1.664 0.53100002 3.7780001
-1.645 0.53200001 3.7980001
-1.615 0.52999997 3.789
-1.558 0.51899999 3.7190001
-1.493 0.505 3.6240001
-1.449 0.49700001 3.579
-1.414 0.493 3.552
-1.387 0.491 3.546
-1.37 0.493 3.5680001
-1.346 0.49200001 3.569
-1.3200001 0.49000001 3.563
-1.289 0.486 3.543
-1.265 0.48500001 3.5439999
-1.243 0.48500001 3.5480001
-1.226 0.48699999 3.5680001
-1.211 0.48899999 3.5929999
-1.1900001 0.49000001 3.6029999
-1.155 0.484 3.5680001
-1.135 0.48500001 3.5780001
-1.109 0.48300001 3.5680001
-1.087 0.48300001 3.572
-1.064 0.48199999 3.572
-1.043 0.48199999 3.5780001
-1.012 0.477 3.549
-0.99299997 0.47799999 3.562
-0.97000003 0.477 3.559
-0.949 0.477 3.5650001
-0.93099999 0.47799999 3.579
-0.91100001 0.479 3.589
-0.88599998 0.477 3.5780001
-0.86299998 0.47600001 3.575
-0.838 0.47400001 3.563
-0.81800002 0.47400001 3.5669999
-0.79799998 0.47499999 3.5780001
-0.778 0.47499999 3.586
-0.75199997 0.472 3.566
-0.72600001 0.46799999 3.5420001
-0.70700002 0.47 3.556
-0.68900001 0.472 3.5739999
-0.667 0.47099999 3.5710001
-0.64700001 0.47099999 3.5769999
-0.625 0.47 3.5739999
-0.60399997 0.47 3.5739999
-0.58700001 0.472 3.5969999
-0.55800003 0.46599999 3.5510001
-0.51499999 0.44600001 3.401
-0.45899999 0.41299999 3.1530001
-0.44100001 0.414 3.1600001
-0.42899999 0.41999999 3.2049999
-0.41299999 0.42199999 3.224
-0.396 0.42399999 3.2460001
-0.37900001 0.42500001 3.2550001
-0.35800001 0.42300001 3.237
-0.33700001 0.41999999 3.2190001
-0.31299999 0.412 3.1600001
-0.289 0.40400001 3.098
-0.27000001 0.403 3.0899999
-0.25099999 0.40099999 3.0739999
-0.23100001 0.39700001 3.049
-0.214 0.39700001 3.05
-0.19599999 0.396 3.046
-0.178 0.39500001 3.0369999
-0.162 0.398 3.0599999
-0.142 0.391 3.006
-0.12 0.377 2.895
-0.103 0.373 2.8699999
-0.086000003 0.37400001 2.875
-0.07 0.37400001 2.875
-0.054000001 0.373 2.8710001
-0.037 0.373 2.8710001
-0.021 0.373 2.8670001
-0.0040000002 0.373 2.8659999
0.011 0.373 2.8729999
0.027000001 0.373 2.8729999
0.044 0.37400001 2.8770001
0.059999999 0.37400001 2.8789999
0.077 0.37400001 2.878
0.093000002 0.37200001 2.8629999
0.109 0.37400001 2.8729999
0.125 0.37200001 2.858
0.141 0.37099999 2.855
0.15800001 0.373 2.865
0.17399999 0.37099999 2.846
0.19 0.37099999 2.845
0.206 0.37099999 2.8440001
0.222 0.37099999 2.8440001
0.23800001 0.37 2.8399999
0.255 0.37 2.8369999
0.27000001 0.37 2.832
0.287 0.37 2.832
0.30599999 0.373 2.8559999
0.331 0.38299999 2.9349999
0.373 0.41100001 3.1429999
0.39500001 0.41499999 3.1760001
0.41299999 0.41499999 3.171
0.43200001 0.41499999 3.1700001
0.45199999 0.417 3.1860001
0.47099999 0.417 3.184
0.49200001 0.41999999 3.2019999
0.51599997 0.42399999 3.2320001
0.54100001 0.43000001 3.2709999
0.56699997 0.435 3.306
0.588 0.43599999 3.3150001
0.61299998 0.44 3.3429999
0.63700002 0.44400001 3.3640001
0.66299999 0.44800001 3.398
0.69599998 0.45699999 3.46
0.75300002 0.47999999 3.6329999
0.79299998 0.49200001 3.7179999
0.81800002 0.49399999 3.7320001
0.84299999 0.49599999 3.743
0.86799997 0.498 3.7509999
0.89300001 0.49900001 3.757
0.91799998 0.50099999 3.767
0.94599998 0.50400001 3.786
0.97000003 0.505 3.7880001
0.99199998 0.50599998 3.7850001
1.0140001 0.505 3.7780001
1.039 0.50700003 3.78
1.066 0.509 3.7920001
1.091 0.50999999 3.796
1.117 0.51200002 3.803
1.141 0.51300001 3.803
1.173 0.51700002 3.829
1.196 0.51700002 3.8210001
1.22 0.51700002 3.819
1.249 0.51999998 3.8329999
1.275 0.52100003 3.8340001
1.3 0.52200001 3.835
1.321 0.52100003 3.822
1.346 0.52200001 3.8210001
1.367 0.52100003 3.8069999
1.397 0.52399999 3.8199999
1.423 0.52499998 3.8199999
1.459 0.52999997 3.8469999
1.4809999 0.52999997 3.8369999
1.508 0.53100002 3.8380001
1.533 0.53100002 3.8329999
1.558 0.53200001 3.8299999
1.5930001 0.53600001 3.848
1.613 0.53500003 3.832
1.642 0.537 3.8369999
1.67 0.53799999 3.836
1.701 0.54000002 3.845
1.733 0.54299998 3.8540001
1.76 0.54400003 3.8510001
1.788 0.54500002 3.8510001
1.825 0.54900002 3.869
1.851 0.55000001 3.8629999
1.887 0.55299997 3.878
1.9119999 0.55400002 3.868
1.947 0.55599999 3.878
1.972 0.55699998 3.869
2.006 0.55900002 3.8759999
2.0439999 0.56300002 3.8900001
2.076 0.565 3.8929999
2.1400001 0.57599998 3.9549999
2.2309999 0.59299999 4.0609999
2.319 0.60900003 4.1620002
2.358 0.61299998 4.171
-2.0480001 0.55699998 3.6289999
-1.994 0.54900002 3.585
-1.9910001 0.55400002 3.6329999
-1.9859999 0.55900002 3.678
-1.998 0.56999999 3.756
-1.97 0.56800002 3.7590001
-1.927 0.56300002 3.734
-1.877 0.55500001 3.6919999
-1.8200001 0.54500002 3.6340001
-1.798 0.54500002 3.648
-1.7920001 0.55000001 3.691
-1.761 0.54799998 3.6860001
-1.752 0.55299997 3.7249999
-1.727 0.55199999 3.7309999
-1.702 0.551 3.7360001
-1.664 0.54699999 3.7119999
-1.637 0.546 3.714
-1.568 0.52999997 3.615
-1.53 0.52399999 3.5869999
-1.465 0.50999999 3.494
-1.4299999 0.505 3.4690001
-1.413 0.50599998 3.4860001
-1.3940001 0.50700003 3.5
-1.369 0.50599998 3.4990001
-1.341 0.50300002 3.487
-1.326 0.50599998 3.5109999
-1.301 0.50400001 3.51
-1.281 0.505 3.52
-1.253 0.50199997 3.507
-1.224 0.49900001 3.4920001
-1.205 0.5 3.503
-1.187 0.50099999 3.52
-1.168 0.50199997 3.5309999
-1.1390001 0.49900001 3.5150001
-1.1210001 0.5 3.5309999
-1.092 0.49599999 3.5090001
-1.067 0.49399999 3.503
-1.041 0.49200001 3.49
-1.0190001 0.491 3.493
-1.003 0.49399999 3.5150001
-0.977 0.491 3.5020001
-0.95200002 0.48899999 3.4879999
-0.935 0.491 3.51
-0.91000003 0.48899999 3.4979999
-0.89099997 0.48899999 3.506
-0.87 0.48899999 3.5120001
-0.847 0.48699999 3.503
-0.82599998 0.48699999 3.507
-0.80500001 0.48699999 3.5090001
-0.78399998 0.48699999 3.5120001
-0.76200002 0.486 3.5079999
-0.736 0.48199999 3.4879999
-0.713 0.48100001 3.4779999
-0.69400001 0.48100001 3.4849999
-0.676 0.48300001 3.5039999
-0.65399998 0.48199999 3.4990001
-0.63099998 0.47999999 3.4860001
-0.611 0.47999999 3.4909999
-0.58999997 0.479 3.487
-0.56699997 0.47600001 3.471
-0.53799999 0.46900001 3.418
-0.44800001 0.405 2.9560001
-0.41600001 0.391 2.8540001
-0.39899999 0.391 2.852
-0.384 0.39199999 2.8670001
-0.37200001 0.39700001 2.8989999
-0.35800001 0.40000001 2.9289999
-0.345 0.405 2.9619999
-0.32699999 0.40400001 2.9590001
-0.31099999 0.405 2.9679999
-0.292 0.40200001 2.9489999
-0.27500001 0.40099999 2.9449999
-0.257 0.40000001 2.9349999
-0.23999999 0.40000001 2.9349999
-0.222 0.39700001 2.918
-0.205 0.39700001 2.915
-0.18799999 0.396 2.9089999
-0.171 0.396 2.9100001
-0.154 0.39500001 2.9030001
-0.13600001 0.39199999 2.885
-0.119 0.389 2.8599999
-0.102 0.38699999 2.849
-0.086000003 0.38699999 2.848
-0.07 0.38699999 2.852
-0.052999999 0.38699999 2.852
-0.037 0.38699999 2.852
-0.021 0.38800001 2.8540001
-0.0040000002 0.38600001 2.845
0.011 0.38699999 2.8499999
0.027000001 0.38699999 2.852
0.044 0.38800001 2.855
0.059999999 0.38800001 2.859
0.075999998 0.38800001 2.858
0.092 0.38699999 2.852
0.109 0.38800001 2.858
0.125 0.38800001 2.8529999
0.142 0.38800001 2.8570001
0.15800001 0.389 2.8570001
0.17399999 0.38699999 2.8440001
0.19 0.38699999 2.8469999
0.206 0.38699999 2.842
0.223 0.38699999 2.8440001
0.23899999 0.38699999 2.8440001
0.255 0.38800001 2.8440001
0.271 0.38699999 2.8399999
0.289 0.38800001 2.848
0.30700001 0.391 2.8640001
0.33000001 0.39899999 2.9189999
0.35699999 0.41100001 3.007
0.37599999 0.412 3.017
0.39500001 0.414 3.0309999
0.41499999 0.417 3.046
0.43599999 0.41999999 3.0680001
0.454 0.421 3.0710001
0.477 0.426 3.1040001
0.51099998 0.43900001 3.2030001
0.54100001 0.44800001 3.266
0.56800002 0.45500001 3.3139999
0.59399998 0.46000001 3.3469999
0.61500001 0.461 3.3529999
0.64200002 0.46700001 3.391
0.66900003 0.47299999 3.427
0.68900001 0.472 3.4230001
0.72000003 0.47999999 3.474
0.77700001 0.50300002 3.641
0.80599999 0.50800002 3.674
0.82999998 0.50999999 3.681
0.85500002 0.51200002 3.6919999
0.88099998 0.51499999 3.7049999
0.903 0.51499999 3.704
0.92199999 0.514 3.6889999
0.949 0.51599997 3.7019999
0.97299999 0.51800001 3.707
0.99599999 0.51800001 3.7060001
1.024 0.52100003 3.7219999
1.049 0.523 3.73
1.071 0.523 3.724
1.095 0.52399999 3.727
1.126 0.528 3.7479999
1.152 0.52999997 3.757
1.1799999 0.53200001 3.767
1.199 0.53100002 3.7520001
1.227 0.53299999 3.7620001
1.256 0.53600001 3.777
1.277 0.53600001 3.7650001
1.304 0.53799999 3.77
1.311 0.53100002 3.7179999
1.336 0.53200001 3.7179999
1.363 0.53399998 3.7249999
1.39 0.53600001 3.73
1.4220001 0.53899997 3.7460001
1.45 0.54100001 3.753
1.477 0.54299998 3.7550001
1.499 0.54299998 3.7449999
1.524 0.54299998 3.7420001
1.552 0.54500002 3.747
1.575 0.54500002 3.7379999
1.601 0.54699999 3.7379999
1.636 0.551 3.757
1.655 0.54900002 3.7379999
1.6950001 0.55500001 3.766
1.715 0.55299997 3.7490001
1.752 0.55800003 3.77
1.7819999 0.56 3.773
1.807 0.56099999 3.7679999
1.842 0.56400001 3.7809999
1.87 0.565 3.78
1.903 0.56800002 3.7869999
1.933 0.56999999 3.789
1.974 0.57499999 3.8110001
2 0.57499999 3.8039999
2.036 0.579 3.8139999
2.0369999 0.57200003 3.7609999
2.105 0.58399999 3.829
2.217 0.60799998 3.974
2.3150001 0.62800002 4.0910001
-1.9680001 0.55800003 3.483
-1.943 0.55699998 3.49
-1.9299999 0.56 3.517
-1.925 0.565 3.562
-1.9450001 0.57800001 3.6530001
-1.909 0.574 3.6400001
-1.853 0.56400001 3.5869999
-1.812 0.55900002 3.5610001
-1.804 0.56300002 3.5999999
-1.776 0.56199998 3.599
-1.755 0.56199998 3.612
-1.714 0.55599999 3.5829999
-1.696 0.55699998 3.602
-1.681 0.56 3.628
-1.648 0.55699998 3.615
-1.6160001 0.55299997 3.6029999
-1.559 0.54100001 3.5320001
-1.5 0.528 3.4549999
-1.444 0.51599997 3.382
-1.414 0.51300001 3.368
-1.402 0.51599997 3.3959999
-1.3890001 0.51899999 3.424
-1.357 0.51499999 3.4030001
-1.327 0.51099998 3.388
-1.307 0.51200002 3.3970001
-1.293 0.514 3.4219999
-1.272 0.514 3.427
-1.2589999 0.51700002 3.4549999
-1.23 0.514 3.441
-1.2079999 0.51300001 3.4419999
-1.187 0.51300001 3.4489999
-1.161 0.51099998 3.4389999
-1.146 0.51300001 3.464
-1.123 0.51200002 3.4619999
-1.098 0.50999999 3.454
-1.069 0.50700003 3.4349999
-1.048 0.50599998 3.4360001
-1.025 0.505 3.4360001
-1.007 0.50599998 3.448
-0.98500001 0.505 3.448
-0.963 0.50400001 3.4460001
-0.93699998 0.50099999 3.431
-0.912 0.49900001 3.4200001
-0.89300001 0.5 3.428
-0.87699997 0.50199997 3.45
-0.85299999 0.5 3.4389999
-0.82999998 0.498 3.434
-0.80800003 0.49700001 3.428
-0.787 0.49599999 3.4289999
-0.76599997 0.49599999 3.427
-0.74599999 0.49599999 3.4349999
-0.727 0.49599999 3.4389999
-0.70300001 0.49399999 3.4260001
-0.68300003 0.49399999 3.4289999
-0.65899998 0.491 3.4119999
-0.639 0.491 3.4159999
-0.61799997 0.49000001 3.4130001
-0.59799999 0.49000001 3.415
-0.57599998 0.48800001 3.4030001
-0.55599999 0.48699999 3.404
-0.52600002 0.47799999 3.3410001
-0.43700001 0.412 2.8770001
-0.40400001 0.396 2.767
-0.38699999 0.39500001 2.7609999
-0.37099999 0.39500001 2.7650001
-0.354 0.39399999 2.7609999
-0.33899999 0.39500001 2.767
-0.32100001 0.39300001 2.756
-0.30599999 0.39399999 2.763
-0.29100001 0.39399999 2.7679999
-0.27399999 0.39399999 2.767
-0.25799999 0.39300001 2.7620001
-0.242 0.39300001 2.767
-0.226 0.39300001 2.7620001
-0.211 0.39300001 2.7690001
-0.19499999 0.39300001 2.7679999
-0.178 0.39199999 2.7620001
-0.163 0.39300001 2.77
-0.147 0.39399999 2.7739999
-0.131 0.39300001 2.7720001
-0.115 0.39300001 2.7690001
-0.098999999 0.39300001 2.7690001
-0.083999999 0.39399999 2.776
-0.068000004 0.39199999 2.7690001
-0.052000001 0.39399999 2.783
-0.035999998 0.39399999 2.7820001
-0.02 0.39300001 2.776
-0.0040000002 0.39399999 2.7839999
0.011 0.39399999 2.783
0.027000001 0.39500001 2.789
0.041999999 0.39500001 2.7880001
0.057999998 0.39500001 2.7909999
0.074000001 0.396 2.7920001
0.090000004 0.396 2.7939999
0.107 0.398 2.806
0.123 0.396 2.796
0.139 0.398 2.803
0.154 0.396 2.7939999
0.171 0.398 2.8039999
0.18799999 0.39899999 2.809
0.20299999 0.398 2.803
0.22 0.39899999 2.809
0.236 0.398 2.803
0.252 0.39899999 2.8050001
0.26800001 0.39899999 2.8080001
0.28400001 0.39899999 2.802
0.30199999 0.40099999 2.8180001
0.322 0.405 2.846
0.34099999 0.40900001 2.872
0.35800001 0.40900001 2.872
0.37799999 0.414 2.9000001
0.398 0.417 2.9189999
0.41600001 0.41800001 2.925
0.43799999 0.42300001 2.961
0.45899999 0.426 2.9809999
0.48699999 0.43599999 3.046
0.51999998 0.44999999 3.1389999
0.54799998 0.458 3.194
0.58099997 0.46900001 3.2720001
0.60100001 0.47 3.276
0.61900002 0.46900001 3.2650001
0.63499999 0.46700001 3.247
0.65700001 0.46900001 3.2590001
0.67500001 0.46900001 3.253
0.73500001 0.49599999 3.441
0.78600001 0.51700002 3.5780001
0.81 0.51899999 3.5899999
0.83399999 0.52100003 3.5969999
0.85699999 0.52200001 3.6040001
0.88099998 0.523 3.608
0.90799999 0.52700001 3.6289999
0.93000001 0.52700001 3.6259999
0.95300001 0.528 3.6270001
0.977 0.52999997 3.632
1.002 0.53200001 3.641
1.026 0.53299999 3.645
1.05 0.53399998 3.6470001
1.075 0.53600001 3.654
1.102 0.53899997 3.668
1.127 0.54000002 3.6719999
1.15 0.54100001 3.6689999
1.176 0.54299998 3.677
1.2029999 0.54500002 3.6849999
1.227 0.546 3.6849999
1.252 0.54799998 3.688
1.278 0.54900002 3.691
1.293 0.546 3.665
1.301 0.54000002 3.618
1.321 0.54000002 3.6070001
1.35 0.542 3.618
1.382 0.546 3.6370001
1.4069999 0.54799998 3.6389999
1.433 0.54900002 3.642
1.464 0.55199999 3.655
1.493 0.55500001 3.664
1.517 0.55500001 3.658
1.541 0.55599999 3.655
1.567 0.55800003 3.655
1.594 0.55900002 3.6559999
1.623 0.56099999 3.6619999
1.6569999 0.565 3.678
1.6720001 0.56199998 3.652
1.709 0.56699997 3.6730001
1.739 0.56900001 3.6789999
1.771 0.57300001 3.6900001
1.808 0.57700002 3.7079999
1.831 0.57700002 3.697
1.869 0.58099997 3.7160001
1.891 0.58099997 3.704
1.92 0.583 3.704
1.9529999 0.58499998 3.711
1.976 0.58499998 3.6989999
1.978 0.579 3.648
1.974 0.57099998 3.5869999
2.059 0.58899999 3.688
2.22 0.62800002 3.9189999
-1.914 0.565 3.3829999
-1.887 0.56300002 3.3859999
-1.855 0.56 3.378
-1.851 0.56599998 3.421
-1.812 0.56 3.3989999
-1.7970001 0.56199998 3.4219999
-1.781 0.56400001 3.4430001
-1.772 0.56800002 3.4779999
-1.763 0.57300001 3.5150001
-1.7640001 0.57999998 3.572
-1.743 0.58099997 3.585
-1.702 0.574 3.5539999
-1.669 0.57099998 3.5420001
-1.661 0.57599998 3.5829999
-1.623 0.56999999 3.5569999
-1.553 0.55299997 3.4579999
-1.482 0.53600001 3.355
-1.449 0.53100002 3.3340001
-1.421 0.528 3.325
-1.39 0.52399999 3.3069999
-1.383 0.52899998 3.3469999
-1.363 0.52999997 3.3570001
-1.339 0.528 3.3559999
-1.319 0.52899998 3.3640001
-1.286 0.52399999 3.3399999
-1.268 0.52499998 3.352
-1.245 0.523 3.352
-1.226 0.52399999 3.3610001
-1.202 0.52200001 3.358
-1.188 0.52499998 3.382
-1.165 0.52399999 3.382
-1.145 0.52399999 3.3889999
-1.125 0.52399999 3.3959999
-1.105 0.52399999 3.4030001
-1.08 0.52200001 3.395
-1.048 0.51599997 3.362
-1.028 0.51700002 3.3699999
-1.002 0.514 3.355
-0.98500001 0.51499999 3.369
-0.96200001 0.51300001 3.3629999
-0.93900001 0.51200002 3.3570001
-0.917 0.51099998 3.3570001
-0.90200001 0.51300001 3.378
-0.88300002 0.514 3.388
-0.861 0.51300001 3.3829999
-0.83899999 0.51099998 3.378
-0.81699997 0.50999999 3.375
-0.796 0.509 3.375
-0.77600002 0.509 3.3789999
-0.75300002 0.50700003 3.365
-0.73400003 0.50800002 3.3740001
-0.713 0.50700003 3.3710001
-0.69199997 0.505 3.368
-0.67000002 0.50400001 3.3629999
-0.653 0.50599998 3.375
-0.63 0.50300002 3.365
-0.60699999 0.5 3.3469999
-0.58700001 0.5 3.346
-0.56699997 0.5 3.348
-0.546 0.498 3.3380001
-0.51899999 0.491 3.293
-0.44299999 0.435 2.9189999
-0.40400001 0.41299999 2.77
-0.38800001 0.412 2.7709999
-0.37200001 0.412 2.7720001
-0.35499999 0.41100001 2.767
-0.33899999 0.41100001 2.767
-0.324 0.412 2.7780001
-0.31 0.414 2.7920001
-0.294 0.41499999 2.8
-0.278 0.41600001 2.8050001
-0.26100001 0.414 2.7939999
-0.244 0.412 2.7839999
-0.228 0.412 2.783
-0.212 0.41100001 2.7780001
-0.19499999 0.41 2.7720001
-0.178 0.40799999 2.7590001
-0.162 0.40700001 2.757
-0.147 0.40799999 2.7590001
-0.13 0.40599999 2.7520001
-0.115 0.40599999 2.75
-0.098999999 0.40599999 2.75
-0.082999997 0.405 2.7449999
-0.067000002 0.405 2.7420001
-0.050999999 0.405 2.7449999
-0.035999998 0.40400001 2.7379999
-0.02 0.40400001 2.7379999
-0.0040000002 0.40400001 2.7349999
0.0099999998 0.403 2.733
0.026000001 0.403 2.733
0.041999999 0.40400001 2.737
0.057 0.40400001 2.7390001
0.072999999 0.403 2.7309999
0.088 0.403 2.73
0.104 0.40400001 2.7349999
0.12 0.403 2.733
0.13600001 0.40400001 2.733
0.15099999 0.40400001 2.737
0.167 0.40400001 2.734
0.183 0.40400001 2.7349999
0.198 0.40400001 2.7320001
0.214 0.40400001 2.733
0.23 0.405 2.7390001
0.24600001 0.40599999 2.7390001
0.26199999 0.40599999 2.743
0.278 0.405 2.7360001
0.294 0.40700001 2.744
0.30899999 0.40599999 2.7360001
0.32699999 0.40799999 2.747
0.34299999 0.40799999 2.7479999
0.359 0.40799999 2.747
0.375 0.40900001 2.753
0.39300001 0.41100001 2.7590001
0.41100001 0.41299999 2.7750001
0.42899999 0.41499999 2.786
0.447 0.417 2.7980001
0.46799999 0.421 2.8199999
0.48800001 0.42500001 2.8429999
0.50700003 0.42699999 2.8529999
0.52499998 0.42699999 2.8559999
0.54299998 0.42899999 2.865
0.56199998 0.43000001 2.8699999
0.58200002 0.433 2.8840001
0.60299999 0.43599999 2.9030001
0.66100001 0.465 3.0929999
0.759 0.51999998 3.4549999
0.78899997 0.52600002 3.494
0.815 0.52899998 3.513
0.838 0.53100002 3.5209999
0.86500001 0.53500003 3.5420001
0.88599998 0.53500003 3.5380001
0.90799999 0.53600001 3.536
0.93000001 0.53600001 3.536
0.954 0.53799999 3.5439999
0.98299998 0.54299998 3.569
1.006 0.54400003 3.572
1.028 0.54500002 3.569
1.05 0.54500002 3.5680001
1.079 0.54900002 3.5869999
1.103 0.55000001 3.5910001
1.118 0.54699999 3.5639999
1.143 0.54900002 3.5710001
1.17 0.55199999 3.5810001
1.1950001 0.55299997 3.586
1.22 0.55500001 3.5899999
1.238 0.55400002 3.5739999
1.267 0.55699998 3.5880001
1.274 0.551 3.5409999
1.2869999 0.54699999 3.51
1.311 0.54799998 3.5120001
1.344 0.55299997 3.5350001
1.373 0.55599999 3.5469999
1.398 0.55699998 3.5480001
1.416 0.55599999 3.5309999
1.449 0.56 3.552
1.478 0.56300002 3.562
1.503 0.56400001 3.5610001
1.528 0.565 3.559
1.5470001 0.56400001 3.5450001
1.5829999 0.56900001 3.5680001
1.615 0.57300001 3.5810001
1.645 0.57599998 3.5910001
1.679 0.57999998 3.6070001
1.698 0.579 3.5899999
1.74 0.58499998 3.6199999
1.763 0.58499998 3.612
1.795 0.588 3.6199999
1.8329999 0.59299999 3.641
1.858 0.59399998 3.6359999
1.887 0.59600002 3.6359999
1.903 0.59399998 3.6129999
1.9349999 0.59600002 3.619
1.944 0.59200001 3.5810001
1.949 0.58700001 3.5380001
1.962 0.58399999 3.5109999
2.029 0.597 3.5780001
-1.845 0.56599998 3.2590001
-1.844 0.57200003 3.3050001
-1.7920001 0.56199998 3.2590001
-1.762 0.55900002 3.253
-1.742 0.56 3.2650001
-1.7589999 0.57200003 3.346
-1.748 0.57499999 3.3759999
-1.734 0.57800001 3.401
-1.691 0.57099998 3.3670001
-1.7029999 0.58200002 3.4430001
-1.691 0.58600003 3.4749999
-1.665 0.58399999 3.4749999
-1.627 0.57800001 3.448
-1.5829999 0.56999999 3.4100001
-1.522 0.55599999 3.3310001
-1.4630001 0.542 3.2539999
-1.444 0.542 3.2650001
-1.42 0.54100001 3.2639999
-1.4069999 0.54400003 3.289
-1.372 0.53799999 3.2620001
-1.352 0.53799999 3.2690001
-1.33 0.537 3.2709999
-1.309 0.53600001 3.276
-1.29 0.537 3.2869999
-1.266 0.53500003 3.283
-1.242 0.53399998 3.279
-1.2180001 0.53200001 3.2750001
-1.204 0.53500003 3.299
-1.182 0.53399998 3.3
-1.1670001 0.53600001 3.3199999
-1.15 0.53799999 3.336
-1.131 0.53799999 3.3440001
-1.1109999 0.53799999 3.352
-1.089 0.537 3.3499999
-1.068 0.537 3.355
-1.038 0.53200001 3.3280001
-1.0140001 0.52899998 3.3199999
-0.98699999 0.52499998 3.3
-0.96799999 0.52600002 3.3099999
-0.94499999 0.52399999 3.303
-0.92000002 0.52100003 3.2869999
-0.89899999 0.51999998 3.2850001
-0.88 0.52100003 3.2939999
-0.86000001 0.51999998 3.2950001
-0.84399998 0.52200001 3.3150001
-0.81999999 0.51999998 3.3010001
-0.80299997 0.52100003 3.3139999
-0.77999997 0.51800001 3.302
-0.76200002 0.51999998 3.3139999
-0.74199998 0.51899999 3.3139999
-0.72100002 0.51800001 3.313
-0.699 0.51599997 3.3010001
-0.67400002 0.51200002 3.279
-0.65899998 0.51499999 3.3010001
-0.64099997 0.51599997 3.3110001
-0.61900002 0.514 3.3010001
-0.597 0.51200002 3.2909999
-0.574 0.50800002 3.2709999
-0.55500001 0.50800002 3.2739999
-0.53500003 0.50700003 3.2679999
-0.509 0.5 3.2279999
-0.44499999 0.454 2.931
-0.40700001 0.43099999 2.7850001
-0.38999999 0.43000001 2.78
-0.373 0.42899999 2.7750001
-0.35600001 0.428 2.7720001
-0.34 0.42899999 2.7750001
-0.32600001 0.43099999 2.7939999
-0.32100001 0.44600001 2.891
-0.31900001 0.46799999 3.0409999
-0.30500001 0.47299999 3.0739999
-0.287 0.47299999 3.0710001
-0.26899999 0.47099999 3.063
-0.25099999 0.47099999 3.062
-0.233 0.46900001 3.0550001
-0.214 0.46799999 3.0450001
-0.19499999 0.46399999 3.023
-0.177 0.461 3.0020001
-0.15899999 0.458 2.9849999
-0.14 0.45500001 2.9649999
-0.122 0.45100001 2.9419999
-0.105 0.449 2.928
-0.088 0.44600001 2.9059999
-0.071000002 0.44299999 2.8889999
-0.054000001 0.44 2.8699999
-0.037 0.43700001 2.8529999
-0.021 0.435 2.836
-0.0040000002 0.42899999 2.796
0.0099999998 0.42199999 2.7539999
0.026000001 0.41999999 2.7349999
0.041999999 0.41999999 2.7390001
0.057 0.419 2.734
0.072999999 0.41999999 2.7379999
0.088 0.419 2.7290001
0.104 0.41999999 2.733
0.12 0.41800001 2.7249999
0.13500001 0.419 2.7260001
0.152 0.421 2.74
0.168 0.42199999 2.747
0.184 0.42199999 2.7460001
0.199 0.421 2.737
0.215 0.421 2.737
0.23 0.41999999 2.7320001
0.24600001 0.421 2.733
0.26100001 0.421 2.7309999
0.27700001 0.41999999 2.7249999
0.292 0.419 2.72
0.308 0.419 2.7179999
0.32300001 0.419 2.7160001
0.33899999 0.419 2.714
0.35499999 0.41999999 2.7190001
0.36899999 0.419 2.7060001
0.38499999 0.41800001 2.7030001
0.40200001 0.419 2.7079999
0.41800001 0.41999999 2.7090001
0.433 0.41999999 2.707
0.449 0.41999999 2.7049999
0.465 0.41999999 2.704
0.48100001 0.41999999 2.7019999
0.49599999 0.41999999 2.6960001
0.51300001 0.421 2.701
0.52999997 0.42199999 2.7079999
0.546 0.42199999 2.7060001
0.56300002 0.42300001 2.7079999
0.611 0.447 2.8559999
0.74000001 0.52600002 3.362
0.77499998 0.537 3.4300001
0.79699999 0.53799999 3.434
0.81800002 0.53899997 3.4349999
0.84100002 0.54000002 3.4389999
0.86400002 0.542 3.448
0.88499999 0.54299998 3.444
0.90700001 0.54400003 3.4489999
0.92900002 0.54500002 3.4489999
0.95300001 0.54699999 3.457
0.97799999 0.54900002 3.467
1.003 0.55199999 3.4779999
1.022 0.551 3.47
1.045 0.55199999 3.471
1.063 0.551 3.4560001
1.085 0.55199999 3.454
1.105 0.55199999 3.448
1.132 0.55500001 3.461
1.1569999 0.55699998 3.467
1.1900001 0.56199998 3.497
1.2130001 0.56300002 3.497
1.2359999 0.56400001 3.4960001
1.253 0.56199998 3.4779999
1.265 0.55800003 3.4460001
1.284 0.55800003 3.4349999
1.317 0.56300002 3.46
1.3430001 0.565 3.4679999
1.367 0.56599998 3.467
1.393 0.56900001 3.473
1.4119999 0.56699997 3.457
1.437 0.56900001 3.4590001
1.475 0.57599998 3.4920001
1.4960001 0.57599998 3.484
1.516 0.57499999 3.47
1.5420001 0.57700002 3.474
1.573 0.57999998 3.484
1.6109999 0.58600003 3.513
1.638 0.588 3.516
1.659 0.58700001 3.5039999
1.6849999 0.58899999 3.5039999
1.721 0.59399998 3.5220001
1.756 0.59799999 3.539
1.796 0.60399997 3.5639999
1.819 0.60399997 3.5550001
1.847 0.60600001 3.5550001
1.872 0.60699999 3.549
1.9170001 0.61400002 3.582
1.939 0.61400002 3.569
1.939 0.60699999 3.517
1.943 0.60100001 3.4719999
1.954 0.597 3.441
-1.786 0.56800002 3.151
-1.737 0.55900002 3.109
-1.72 0.56 3.125
-1.726 0.56800002 3.1819999
-1.7309999 0.57700002 3.2409999
-1.751 0.59100002 3.3269999
-1.721 0.588 3.3210001
-1.681 0.58099997 3.293
-1.64 0.574 3.2620001
-1.664 0.58999997 3.362
-1.6390001 0.58899999 3.3629999
-1.605 0.58399999 3.346
-1.5369999 0.56699997 3.2550001
-1.48 0.55299997 3.184
-1.442 0.546 3.152
-1.424 0.54699999 3.164
-1.403 0.546 3.168
-1.382 0.546 3.174
-1.36 0.54500002 3.1760001
-1.336 0.54299998 3.1730001
-1.314 0.542 3.174
-1.298 0.54400003 3.1889999
-1.28 0.54500002 3.201
-1.262 0.54500002 3.211
-1.245 0.54699999 3.227
-1.228 0.54699999 3.2390001
-1.21 0.54799998 3.25
-1.186 0.546 3.2449999
-1.169 0.54799998 3.2590001
-1.147 0.546 3.2590001
-1.128 0.54699999 3.2690001
-1.104 0.54500002 3.2609999
-1.079 0.542 3.25
-1.0549999 0.54000002 3.244
-1.039 0.542 3.26
-1.01 0.53600001 3.234
-0.98900002 0.53600001 3.2360001
-0.97100002 0.53600001 3.243
-0.95099998 0.53600001 3.2479999
-0.93099999 0.53500003 3.2479999
-0.90899998 0.53399998 3.2460001
-0.88999999 0.53399998 3.2509999
-0.86799997 0.53299999 3.247
-0.85100001 0.53399998 3.2579999
-0.829 0.53200001 3.2509999
-0.81199998 0.53299999 3.2639999
-0.78799999 0.52999997 3.2490001
-0.76300001 0.52700001 3.23
-0.74699998 0.528 3.243
-0.73000002 0.52999997 3.256
-0.70499998 0.52499998 3.233
-0.685 0.52399999 3.2320001
-0.66600001 0.52499998 3.237
-0.64399999 0.52200001 3.2249999
-0.62400001 0.52100003 3.2190001
-0.60500002 0.52100003 3.2219999
-0.58700001 0.52200001 3.233
-0.56599998 0.51999998 3.2219999
-0.54699999 0.51899999 3.2219999
-0.528 0.51899999 3.224
-0.50300002 0.51200002 3.1830001
-0.44499999 0.47 2.924
-0.40700001 0.447 2.7809999
-0.38999999 0.44600001 2.779
-0.373 0.44600001 2.777
-0.35699999 0.44600001 2.779
-0.34099999 0.44499999 2.7750001
-0.32699999 0.449 2.8010001
-0.324 0.46700001 2.918
-0.32100001 0.48800001 3.053
-0.31 0.49900001 3.125
-0.29100001 0.498 3.1159999
-0.27399999 0.498 3.1210001
-0.255 0.498 3.118
-0.23800001 0.49900001 3.1300001
-0.221 0.5 3.1370001
-0.20299999 0.5 3.138
-0.184 0.49900001 3.132
-0.16599999 0.49900001 3.1289999
-0.149 0.49900001 3.1359999
-0.13 0.49900001 3.1329999
-0.112 0.498 3.128
-0.094999999 0.50099999 3.1470001
-0.077 0.49900001 3.138
-0.057999998 0.49599999 3.118
-0.041000001 0.498 3.132
-0.023 0.495 3.109
-0.0049999999 0.47999999 3.0150001
0.011 0.44400001 2.7850001
0.026000001 0.43599999 2.7409999
0.041999999 0.43599999 2.74
0.057999998 0.43700001 2.7449999
0.072999999 0.43700001 2.7409999
0.089000002 0.43599999 2.7379999
0.105 0.43700001 2.74
0.12 0.43599999 2.7379999
0.13600001 0.43799999 2.7479999
0.15700001 0.45199999 2.8340001
0.182 0.47499999 2.98
0.20100001 0.47799999 2.9960001
0.21799999 0.477 2.9909999
0.234 0.47600001 2.984
0.25 0.47400001 2.9679999
0.26699999 0.47299999 2.964
0.28299999 0.472 2.9549999
0.29800001 0.47 2.937
0.315 0.46900001 2.931
0.33000001 0.46700001 2.9170001
0.34599999 0.46599999 2.9070001
0.359 0.461 2.878
0.377 0.46200001 2.8829999
0.391 0.45899999 2.8629999
0.40599999 0.458 2.8529999
0.421 0.456 2.8380001
0.435 0.454 2.8199999
0.44999999 0.45199999 2.8069999
0.46000001 0.44600001 2.77
0.47099999 0.442 2.7390001
0.48199999 0.43700001 2.7090001
0.49700001 0.43700001 2.7019999
0.51300001 0.43700001 2.701
0.52999997 0.43799999 2.7030001
0.54500002 0.43700001 2.697
0.56199998 0.43799999 2.701
0.61900002 0.46900001 2.8889999
0.72899997 0.53799999 3.3110001
0.759 0.54500002 3.3529999
0.77999997 0.54699999 3.358
0.80199999 0.54799998 3.3640001
0.82300001 0.54900002 3.3629999
0.83999997 0.54699999 3.348
0.861 0.54799998 3.3499999
0.88599998 0.551 3.3640001
0.90799999 0.55199999 3.3659999
0.93099999 0.55400002 3.375
0.95700002 0.55800003 3.3900001
0.97600001 0.55800003 3.3840001
0.995 0.55699998 3.3740001
1.013 0.55500001 3.3599999
1.0369999 0.55800003 3.368
1.0599999 0.55900002 3.3729999
1.082 0.56 3.372
1.104 0.56099999 3.3729999
1.128 0.56300002 3.378
1.155 0.56599998 3.391
1.177 0.56699997 3.391
1.2 0.56900001 3.392
1.219 0.56800002 3.382
1.243 0.56900001 3.3840001
1.263 0.56900001 3.3770001
1.291 0.57300001 3.3889999
1.318 0.57499999 3.398
1.341 0.57599998 3.398
1.37 0.57999998 3.411
1.3940001 0.58099997 3.4100001
1.415 0.58099997 3.4030001
1.447 0.58600003 3.421
1.462 0.583 3.3989999
1.489 0.58600003 3.4070001
1.515 0.588 3.4089999
1.543 0.58999997 3.4159999
1.5779999 0.59500003 3.437
1.602 0.59600002 3.434
1.631 0.59899998 3.4419999
1.651 0.59899998 3.4289999
1.6900001 0.60500002 3.4549999
1.732 0.61199999 3.4879999
1.766 0.616 3.5009999
1.8049999 0.62199998 3.5239999
1.826 0.62199998 3.5120001
1.849 0.62199998 3.503
1.867 0.62 3.484
1.92 0.63 3.5309999
1.943 0.63 3.52
1.944 0.62400001 3.471
1.95 0.61900002 3.4319999
-1.722 0.56699997 3.0339999
-1.698 0.56599998 3.0350001
-1.717 0.579 3.1170001
-1.717 0.58600003 3.1630001
-1.711 0.59100002 3.2
-1.691 0.59100002 3.2090001
-1.66 0.58700001 3.1989999
-1.625 0.58200002 3.1789999
-1.63 0.59100002 3.2379999
-1.63 0.59899998 3.289
-1.5930001 0.59299999 3.2650001
-1.5319999 0.57800001 3.1889999
-1.4529999 0.55500001 3.0739999
-1.425 0.55199999 3.0610001
-1.4069999 0.55299997 3.073
-1.383 0.55000001 3.0680001
-1.368 0.55199999 3.086
-1.344 0.55000001 3.082
-1.321 0.54799998 3.0799999
-1.302 0.54900002 3.0880001
-1.281 0.54799998 3.092
-1.267 0.55000001 3.1110001
-1.245 0.54900002 3.1110001
-1.227 0.54900002 3.119
-1.205 0.54799998 3.118
-1.188 0.54900002 3.132
-1.1670001 0.54799998 3.132
-1.149 0.54799998 3.141
-1.132 0.55000001 3.154
-1.117 0.55199999 3.1719999
-1.096 0.551 3.1730001
-1.072 0.54799998 3.1619999
-1.048 0.546 3.155
-1.024 0.54299998 3.1440001
-1.0039999 0.542 3.145
-0.98500001 0.54299998 3.1530001
-0.963 0.54100001 3.1470001
-0.949 0.54299998 3.1670001
-0.935 0.546 3.1900001
-0.912 0.54400003 3.1800001
-0.89300001 0.54400003 3.1849999
-0.875 0.54400003 3.194
-0.86400002 0.54900002 3.227
-0.83999997 0.546 3.211
-0.82099998 0.546 3.217
-0.79900002 0.54400003 3.2079999
-0.77999997 0.54400003 3.211
-0.759 0.542 3.2079999
-0.73500001 0.53899997 3.191
-0.71200001 0.53500003 3.1719999
-0.69199997 0.53399998 3.171
-0.67199999 0.53299999 3.168
-0.653 0.53299999 3.1689999
-0.63599998 0.53399998 3.181
-0.61299998 0.52999997 3.1619999
-0.59399998 0.52999997 3.161
-0.57200003 0.52700001 3.1470001
-0.55500001 0.528 3.158
-0.53500003 0.52700001 3.151
-0.51700002 0.52600002 3.151
-0.49700001 0.52499998 3.145
-0.44600001 0.48899999 2.9300001
-0.40799999 0.465 2.786
-0.38999999 0.463 2.779
-0.37400001 0.463 2.7809999
-0.35800001 0.463 2.7839999
-0.34200001 0.463 2.7850001
-0.32699999 0.465 2.7980001
-0.324 0.48300001 2.9119999
-0.32100001 0.505 3.0469999
-0.30500001 0.50800002 3.063
-0.28600001 0.505 3.05
-0.26899999 0.50599998 3.0580001
-0.25299999 0.50999999 3.079
-0.235 0.50999999 3.085
-0.21799999 0.51099998 3.0869999
-0.2 0.51099998 3.0910001
-0.182 0.50999999 3.0869999
-0.164 0.51099998 3.0910001
-0.147 0.51099998 3.0940001
-0.12899999 0.51099998 3.095
-0.111 0.50999999 3.0910001
-0.093999997 0.51200002 3.099
-0.075999998 0.51300001 3.109
-0.057999998 0.51099998 3.099
-0.039999999 0.50999999 3.0880001
-0.022 0.51099998 3.0940001
-0.0049999999 0.498 3.0190001
0.011 0.46200001 2.799
0.026000001 0.454 2.7509999
0.041999999 0.454 2.7479999
0.057999998 0.454 2.75
0.074000001 0.454 2.7509999
0.089000002 0.454 2.747
0.105 0.45500001 2.753
0.121 0.454 2.7449999
0.13699999 0.456 2.7609999
0.161 0.47999999 2.9030001
0.189 0.50999999 3.0829999
0.208 0.51300001 3.105
0.226 0.51300001 3.102
0.244 0.514 3.1099999
0.26300001 0.51499999 3.1129999
0.28 0.51499999 3.109
0.29800001 0.51499999 3.108
0.31600001 0.51499999 3.1099999
0.33399999 0.51499999 3.1029999
0.35100001 0.514 3.0969999
0.37 0.51499999 3.102
0.38800001 0.51599997 3.1059999
0.40599999 0.51499999 3.0999999
0.42300001 0.51499999 3.0940001
0.44100001 0.51499999 3.095
0.45899999 0.514 3.0880001
0.47299999 0.51099998 3.0650001
0.491 0.51099998 3.062
0.5 0.50300002 3.0090001
0.48199999 0.46900001 2.8010001
0.48500001 0.456 2.721
0.49900001 0.454 2.71
0.51499999 0.45500001 2.71
0.53100002 0.45500001 2.7090001
0.54699999 0.45500001 2.7060001
0.565 0.456 2.711
0.634 0.498 2.9579999
0.722 0.55199999 3.276
0.741 0.55199999 3.2709999
0.76700002 0.55699998 3.2969999
0.78899997 0.55800003 3.303
0.80699998 0.55800003 3.2950001
0.829 0.55900002 3.3
0.85399997 0.56300002 3.3180001
0.875 0.56400001 3.3199999
0.898 0.56599998 3.329
0.91399997 0.56400001 3.3110001
0.93699998 0.56599998 3.319
0.954 0.565 3.3039999
0.97500002 0.565 3.303
0.99800003 0.56699997 3.3069999
1.02 0.56900001 3.3110001
1.041 0.56900001 3.3110001
1.066 0.57200003 3.319
1.084 0.57099998 3.309
1.108 0.57300001 3.3169999
1.128 0.574 3.3110001
1.158 0.579 3.3340001
1.176 0.57800001 3.322
1.197 0.57800001 3.3180001
1.224 0.58099997 3.329
1.239 0.579 3.309
1.268 0.583 3.325
1.2920001 0.58499998 3.3299999
1.3099999 0.58399999 3.316
1.339 0.58700001 3.3299999
1.365 0.58999997 3.336
1.39 0.59200001 3.3399999
1.419 0.59500003 3.3529999
1.438 0.59500003 3.3410001
1.47 0.59899998 3.3599999
1.4910001 0.59899998 3.352
1.512 0.59899998 3.3440001
1.5420001 0.60299999 3.3559999
1.571 0.60600001 3.3640001
1.597 0.60799998 3.3659999
1.636 0.61500001 3.3940001
1.661 0.616 3.3929999
1.693 0.62 3.405
1.727 0.62400001 3.4200001
1.7589999 0.62800002 3.431
1.795 0.63300002 3.448
1.8099999 0.63099998 3.4260001
1.841 0.634 3.4319999
1.878 0.639 3.45
1.91 0.64200002 3.4579999
1.924 0.63999999 3.4319999
1.959 0.64399999 3.444
-1.683 0.574 2.9619999
-1.6849999 0.58099997 3.0090001
-1.692 0.59100002 3.0669999
-1.679 0.59299999 3.0899999
-1.6619999 0.59399998 3.1040001
-1.6440001 0.59500003 3.1170001
-1.623 0.59399998 3.1240001
-1.615 0.59899998 3.1559999
-1.602 0.602 3.181
-1.562 0.59399998 3.1489999
-1.497 0.57700002 3.0639999
-1.439 0.56099999 2.9909999
-1.4170001 0.56 2.993
-1.3940001 0.55900002 2.9909999
-1.37 0.55699998 2.9890001
-1.353 0.55699998 2.9990001
-1.332 0.55699998 3.003
-1.306 0.55299997 2.9909999
-1.2869999 0.55299997 2.9990001
-1.268 0.55299997 3.0050001
-1.256 0.55599999 3.0280001
-1.24 0.55699998 3.0409999
-1.221 0.55699998 3.0480001
-1.2 0.55599999 3.049
-1.186 0.55800003 3.0669999
-1.176 0.56199998 3.095
-1.154 0.56099999 3.0940001
-1.131 0.55900002 3.0880001
-1.112 0.55900002 3.095
-1.092 0.55800003 3.096
-1.077 0.56 3.115
-1.0470001 0.55400002 3.086
-1.025 0.55199999 3.082
-1 0.54900002 3.0669999
-0.98199999 0.54900002 3.075
-0.96499997 0.55000001 3.0829999
-0.94700003 0.55000001 3.0899999
-0.92500001 0.54799998 3.085
-0.91299999 0.55199999 3.1099999
-0.89700001 0.55400002 3.1259999
-0.88200003 0.55599999 3.142
-0.86799997 0.55900002 3.164
-0.84399998 0.55500001 3.1500001
-0.82700002 0.55599999 3.158
-0.80699998 0.55500001 3.158
-0.78799999 0.55500001 3.161
-0.76999998 0.55599999 3.1689999
-0.74599999 0.55199999 3.151
-0.72799999 0.55199999 3.158
-0.704 0.54799998 3.1370001
-0.68400002 0.546 3.131
-0.66299999 0.54500002 3.1240001
-0.64200002 0.542 3.115
-0.62300003 0.54100001 3.1110001
-0.602 0.53899997 3.1040001
-0.58200002 0.53799999 3.0969999
-0.56199998 0.53500003 3.085
-0.54100001 0.53299999 3.0739999
-0.52399999 0.53299999 3.0799999
-0.505 0.53299999 3.079
-0.486 0.53100002 3.075
-0.44499999 0.50400001 2.918
-0.40900001 0.48199999 2.79
-0.38999999 0.479 2.7750001
-0.375 0.47999999 2.7850001
-0.35800001 0.47799999 2.776
-0.34099999 0.47799999 2.777
-0.32800001 0.48199999 2.802
-0.322 0.498 2.8940001
-0.317 0.51700002 3.01
-0.29899999 0.51599997 3.0079999
-0.28200001 0.51700002 3.0109999
-0.266 0.51899999 3.023
-0.249 0.51999998 3.0320001
-0.23100001 0.51899999 3.0280001
-0.214 0.51999998 3.0339999
-0.197 0.51999998 3.039
