# .PCD v0.7 - Point Cloud Data file format
VERSION 0.7
FIELDS x y z
SIZE 4 4 4
TYPE F F F
COUNT 1 1 1
WIDTH 1789
HEIGHT 1
VIEWPOINT 0 0 0 1 0 0 0
POINTS 1789
DATA ascii
0.26100001 0.676 2.0190001
0.273 0.67500001 2.0139999
0.285 0.67500001 2.013
0.296 0.67299998 2.003
0.30899999 0.67500001 2.0090001
0.32100001 0.67500001 2.006
0.33500001 0.67900002 2.017
0.34400001 0.67299998 1.998
0.359 0.67900002 2.013
0.37099999 0.67799997 2.007
0.382 0.676 2.0009999
0.396 0.67900002 2.007
0.40799999 0.68000001 2.0079999
0.41800001 0.676 1.993
0.43099999 0.67699999 1.995
0.44400001 0.67799997 1.9960001
0.456 0.67799997 1.994
0.46900001 0.68000001 1.997
0.48100001 0.67900002 1.9910001
0.49200001 0.67799997 1.985
0.50599998 0.68000001 1.988
0.51499999 0.676 1.974
0.53299999 0.68400002 1.994
0.542 0.68000001 1.979
0.55599999 0.68199998 1.984
0.57099998 0.685 1.989
0.57800001 0.67900002 1.969
0.59299999 0.68300003 1.975
0.60500002 0.68199998 1.971
0.61799997 0.68300003 1.971
0.62699997 0.68000001 1.9579999
0.64399999 0.685 1.969
0.65700001 0.68599999 1.9680001
0.66799998 0.685 1.961
0.68199998 0.68599999 1.96
0.68800002 0.68000001 1.939
0.70700002 0.68699998 1.956
0.72100002 0.68800002 1.955
0.73100001 0.68699998 1.947
0.74400002 0.68699998 1.942
0.75800002 0.68800002 1.943
0.77100003 0.68900001 1.942
0.78299999 0.68900001 1.937
0.80000001 0.69300002 1.942
0.80400002 0.68599999 1.918
0.82099998 0.69 1.926
0.833 0.69 1.921
0.84500003 0.68900001 1.915
0.86199999 0.69300002 1.9220001
0.87599999 0.69400001 1.918
0.88300002 0.69099998 1.904
0.903 0.69599998 1.914
0.91500002 0.69499999 1.9069999
0.92699999 0.69499999 1.901
0.93599999 0.69300002 1.89
0.94999999 0.69400001 1.887
0.96100003 0.69300002 1.8789999
0.97500002 0.69400001 1.878
0.98900002 0.69599998 1.876
1.01 0.70099998 1.886
1.0190001 0.699 1.874
1.038 0.70300001 1.88
1.044 0.699 1.862
1.05 0.69400001 1.845
1.074 0.70200002 1.859
1.084 0.69999999 1.849
1.09 0.69599998 1.832
-1.051 0.685 1.765
-1.039 0.685 1.771
-1.026 0.68400002 1.774
-1.002 0.676 1.7589999
-0.99800003 0.68099999 1.778
-0.98799998 0.68199998 1.7869999
-0.97299999 0.68099999 1.789
-0.96100003 0.68099999 1.794
-0.94199997 0.676 1.786
-0.93900001 0.68199998 1.808
-0.92400002 0.68000001 1.807
-0.91100001 0.67900002 1.8099999
-0.898 0.67799997 1.813
-0.88200003 0.67500001 1.8099999
-0.87599999 0.68000001 1.8279999
-0.85900003 0.676 1.821
-0.847 0.67500001 1.824
-0.83600003 0.676 1.831
-0.82300001 0.67500001 1.834
-0.80699998 0.67199999 1.829
-0.79900002 0.67500001 1.841
-0.787 0.67500001 1.846
-0.77600002 0.676 1.854
-0.76200002 0.67400002 1.852
-0.75300002 0.676 1.862
-0.74199998 0.67699999 1.869
-0.72500002 0.67199999 1.86
-0.71399999 0.67299998 1.8660001
-0.70200002 0.67400002 1.8710001
-0.68900001 0.67199999 1.87
-0.676 0.671 1.87
-0.667 0.67299998 1.882
-0.65100002 0.67000002 1.876
-0.64099997 0.671 1.882
-0.63200003 0.67400002 1.8940001
-0.61799997 0.67199999 1.893
-0.611 0.67699999 1.91
-0.597 0.67500001 1.9069999
-0.58200002 0.67199999 1.901
-0.57200003 0.67400002 1.91
-0.56 0.67400002 1.913
-0.546 0.671 1.908
-0.53399998 0.67000002 1.91
-0.52499998 0.67400002 1.9220001
-0.514 0.676 1.931
-0.50199997 0.67500001 1.931
-0.48699999 0.671 1.924
-0.47799999 0.67500001 1.938
-0.46399999 0.67199999 1.929
-0.45300001 0.67199999 1.934
-0.442 0.67400002 1.941
-0.428 0.67000002 1.934
-0.419 0.67500001 1.948
-0.40400001 0.671 1.938
-0.39399999 0.67299998 1.948
-0.382 0.67299998 1.948
-0.37099999 0.67400002 1.956
-0.35800001 0.671 1.948
-0.34599999 0.67199999 1.954
-0.33500001 0.67400002 1.959
-0.322 0.671 1.954
-0.30899999 0.66900003 1.95
-0.29800001 0.671 1.957
-0.287 0.67199999 1.96
-0.27599999 0.67299998 1.967
-0.264 0.67400002 1.971
-0.252 0.67299998 1.969
-0.23999999 0.67400002 1.972
-0.228 0.67199999 1.97
-0.21699999 0.67299998 1.974
-0.205 0.67500001 1.98
-0.19400001 0.67500001 1.982
-0.182 0.67500001 1.982
-0.17 0.67500001 1.983
-0.15800001 0.67699999 1.99
-0.146 0.676 1.988
-0.134 0.67500001 1.985
-0.123 0.67799997 1.994
-0.112 0.68199998 2.006
-0.098999999 0.68000001 2.0020001
-0.086999997 0.68000001 2.0020001
-0.075000003 0.67799997 1.9960001
-0.064000003 0.68099999 2.0050001
-0.052000001 0.68000001 2.003
-0.039999999 0.67900002 2.0009999
-0.028000001 0.68000001 2.003
-0.016000001 0.67799997 1.997
-0.0040000002 0.68000001 2.003
0.0070000002 0.67799997 1.999
0.018999999 0.68099999 2.0090001
0.030999999 0.67799997 1.999
0.043000001 0.67900002 2
0.055 0.67799997 1.999
0.067000002 0.67799997 1.9960001
0.079000004 0.68199998 2.0079999
0.090999998 0.68000001 2.0039999
0.103 0.68300003 2.0109999
0.115 0.68199998 2.006
0.126 0.67900002 1.998
0.139 0.68000001 2
0.15000001 0.68000001 1.999
0.162 0.67900002 1.997
0.17399999 0.67900002 1.9960001
0.186 0.68000001 1.9960001
0.198 0.67799997 1.9910001
0.211 0.68300003 2.0020001
0.223 0.68300003 2.003
0.235 0.68199998 1.998
0.24600001 0.68099999 1.994
0.25799999 0.67900002 1.988
0.27000001 0.68099999 1.992
0.28099999 0.67799997 1.98
0.294 0.68199998 1.99
0.30599999 0.68099999 1.988
0.31600001 0.67699999 1.973
0.331 0.68300003 1.99
0.34099999 0.68000001 1.977
0.35299999 0.67900002 1.974
0.36700001 0.68300003 1.983
0.37799999 0.68199998 1.979
0.39300001 0.68599999 1.989
0.40200001 0.68099999 1.972
0.414 0.68199998 1.972
0.426 0.68199998 1.971
0.43900001 0.68300003 1.969
0.449 0.68000001 1.959
0.46200001 0.68199998 1.9630001
0.47600001 0.685 1.97
0.48699999 0.68300003 1.961
0.5 0.685 1.962
0.50999999 0.68199998 1.952
0.52499998 0.68599999 1.962
0.537 0.685 1.956
0.54900002 0.685 1.9529999
0.56199998 0.68699998 1.954
0.57300001 0.685 1.947
0.58499998 0.68599999 1.946
0.59799999 0.68699998 1.9450001
0.61000001 0.68599999 1.9400001
0.62199998 0.68599999 1.937
0.63700002 0.69 1.943
0.64700001 0.68800002 1.934
0.65499997 0.68400002 1.919
0.67299998 0.68900001 1.931
0.68199998 0.68699998 1.92
0.69800001 0.69099998 1.927
0.708 0.68900001 1.918
0.72600001 0.69400001 1.929
0.73699999 0.69199997 1.92
0.75400001 0.69700003 1.9299999
0.75999999 0.69099998 1.909
0.77100003 0.69099998 1.904
0.787 0.69400001 1.908
0.79799998 0.69300002 1.9
0.81900001 0.69999999 1.9170001
0.82300001 0.69400001 1.8940001
0.838 0.69599998 1.895
0.84899998 0.69499999 1.888
0.86000001 0.69400001 1.881
0.87199998 0.69400001 1.875
0.88800001 0.69700003 1.877
0.90799999 0.70300001 1.89
0.912 0.69599998 1.867
0.93000001 0.70099998 1.873
0.94300002 0.70099998 1.87
0.94800001 0.69599998 1.85
0.95999998 0.69599998 1.845
0.97799999 0.69999999 1.85
0.995 0.704 1.855
1.001 0.699 1.837
1.017 0.70099998 1.8380001
1.034 0.70499998 1.84
1.048 0.70599997 1.839
1.052 0.69999999 1.817
1.076 0.708 1.831
1.0829999 0.704 1.816
-1.04 0.69 1.743
-1.029 0.69 1.75
-1.013 0.68699998 1.748
-0.99699998 0.68400002 1.7460001
-0.98699999 0.68599999 1.756
-0.96799999 0.68000001 1.747
-0.963 0.685 1.766
-0.94599998 0.68199998 1.761
-0.93699998 0.68400002 1.772
-0.92500001 0.68400002 1.777
-0.91100001 0.68199998 1.777
-0.903 0.685 1.789
-0.889 0.68300003 1.79
-0.87900001 0.685 1.799
-0.861 0.68000001 1.7920001
-0.85399997 0.68400002 1.807
-0.84200001 0.68400002 1.811
-0.82800001 0.68099999 1.8099999
-0.81199998 0.67799997 1.804
-0.80000001 0.67799997 1.8099999
-0.79500002 0.68400002 1.83
-0.77200001 0.67400002 1.808
-0.764 0.67699999 1.8200001
-0.75599998 0.68000001 1.8329999
-0.74199998 0.67799997 1.832
-0.73000002 0.67900002 1.836
-0.71600002 0.676 1.8329999
-0.704 0.676 1.8380001
-0.69400001 0.67699999 1.845
-0.68199998 0.67699999 1.848
-0.67400002 0.68099999 1.862
-0.65899998 0.67799997 1.857
-0.64700001 0.67799997 1.86
-0.63300002 0.67500001 1.857
-0.62599999 0.68000001 1.874
-0.611 0.676 1.8660001
-0.60100001 0.67799997 1.875
-0.59100002 0.68099999 1.886
-0.57800001 0.67799997 1.883
-0.56800002 0.68000001 1.892
-0.55400002 0.67799997 1.887
-0.542 0.67699999 1.8890001
-0.52899998 0.676 1.888
-0.51800001 0.67699999 1.895
-0.50700003 0.67799997 1.899
-0.49599999 0.67900002 1.905
-0.484 0.67799997 1.906
-0.47099999 0.67699999 1.905
-0.461 0.67900002 1.914
-0.44800001 0.67699999 1.911
-0.43700001 0.67900002 1.9170001
-0.42500001 0.67699999 1.916
-0.412 0.676 1.913
-0.40099999 0.676 1.916
-0.38800001 0.67500001 1.916
-0.37599999 0.67400002 1.915
-0.36399999 0.67400002 1.916
-0.354 0.67500001 1.923
-0.34299999 0.67799997 1.931
-0.331 0.67699999 1.931
-0.31999999 0.67799997 1.9349999
-0.30700001 0.67500001 1.929
-0.296 0.676 1.934
-0.28400001 0.676 1.936
-0.27399999 0.68000001 1.95
-0.26100001 0.67799997 1.9450001
-0.249 0.67799997 1.944
-0.23800001 0.67699999 1.944
-0.22499999 0.67500001 1.939
-0.214 0.676 1.9450001
-0.20299999 0.67799997 1.95
-0.191 0.67699999 1.948
-0.18000001 0.68099999 1.962
-0.168 0.67900002 1.957
-0.15700001 0.68099999 1.9630001
-0.145 0.68300003 1.971
-0.133 0.68000001 1.962
-0.122 0.68199998 1.9680001
-0.11 0.685 1.977
-0.097999997 0.68400002 1.976
-0.086000003 0.68199998 1.97
-0.075000003 0.68599999 1.9809999
-0.063000001 0.68400002 1.976
-0.050999999 0.68099999 1.969
-0.039000001 0.68300003 1.975
-0.027000001 0.68400002 1.977
-0.016000001 0.68599999 1.982
-0.0040000002 0.68800002 1.989
0.0070000002 0.685 1.9809999
0.018999999 0.68599999 1.983
0.030999999 0.68900001 1.992
0.041999999 0.68300003 1.974
0.054000001 0.68599999 1.982
0.066 0.68300003 1.974
0.078000002 0.685 1.978
0.090000004 0.68400002 1.976
0.102 0.68800002 1.988
0.114 0.68699998 1.984
0.125 0.68300003 1.97
0.13699999 0.68300003 1.971
0.148 0.68099999 1.964
0.161 0.68599999 1.978
0.17299999 0.685 1.974
0.184 0.68300003 1.967
0.19599999 0.68400002 1.9680001
0.20900001 0.68800002 1.98
0.22 0.68599999 1.974
0.23199999 0.68699998 1.975
0.244 0.68599999 1.969
0.255 0.685 1.965
0.26699999 0.68599999 1.967
0.27900001 0.685 1.9630001
0.292 0.68699998 1.969
0.303 0.685 1.96
0.315 0.68599999 1.96
0.32600001 0.685 1.956
0.338 0.68400002 1.9529999
0.34999999 0.685 1.9529999
0.361 0.68300003 1.946
0.373 0.68400002 1.946
0.38499999 0.685 1.948
0.39700001 0.685 1.944
0.40900001 0.68599999 1.9450001
0.421 0.68599999 1.943
0.43200001 0.68400002 1.934
0.44600001 0.68800002 1.944
0.46000001 0.69 1.949
0.47099999 0.68900001 1.942
0.48199999 0.68800002 1.938
0.49200001 0.685 1.926
0.50599998 0.68900001 1.933
0.52100003 0.69199997 1.941
0.528 0.68599999 1.921
0.542 0.68900001 1.925
0.55199999 0.68699998 1.9170001
0.565 0.68800002 1.9170001
0.583 0.69499999 1.934
0.59200001 0.69199997 1.92
0.60399997 0.69199997 1.918
0.616 0.69199997 1.915
0.62800002 0.69199997 1.9119999
0.63800001 0.69099998 1.904
0.65200001 0.69199997 1.906
0.66399997 0.69300002 1.902
0.67699999 0.69400001 1.902
0.69 0.69400001 1.899
0.69999999 0.69199997 1.891
0.713 0.69400001 1.891
0.73000002 0.69800001 1.899
0.74199998 0.69800001 1.8940001
0.75099999 0.69499999 1.882
0.75999999 0.69300002 1.872
0.778 0.69800001 1.882
0.78799999 0.69700003 1.874
0.80299997 0.699 1.876
0.80599999 0.69199997 1.851
0.82300001 0.69599998 1.857
0.83999997 0.69999999 1.865
0.85299999 0.69999999 1.86
0.86500001 0.69999999 1.8559999
0.87699997 0.70099998 1.852
0.88499999 0.69700003 1.837
0.90200001 0.70099998 1.8430001
0.917 0.70300001 1.8430001
0.92799997 0.70200002 1.836
0.93900001 0.70200002 1.83
0.95499998 0.70499998 1.831
0.96499997 0.70300001 1.823
0.97500002 0.70200002 1.813
0.99599999 0.708 1.824
1.005 0.70499998 1.812
1.011 0.70099998 1.795
1.029 0.70499998 1.8
1.0420001 0.70599997 1.796
1.053 0.70499998 1.788
1.049 0.69400001 1.755
-1.03 0.69499999 1.722
-1.01 0.68900001 1.7130001
-1.005 0.69400001 1.7309999
-0.97399998 0.68000001 1.702
-0.98000002 0.69300002 1.739
-0.96200001 0.68800002 1.733
-0.949 0.68699998 1.735
-0.93599999 0.68599999 1.739
-0.93099999 0.69099998 1.757
-0.917 0.69 1.757
-0.90200001 0.68699998 1.756
-0.89200002 0.68800002 1.7640001
-0.87099999 0.68099999 1.751
-0.86400002 0.685 1.765
-0.852 0.685 1.7690001
-0.84100002 0.685 1.774
-0.829 0.685 1.779
-0.81599998 0.68300003 1.78
-0.80400002 0.68300003 1.783
-0.79400003 0.685 1.793
-0.77999997 0.68199998 1.791
-0.76599997 0.68099999 1.79
-0.76099998 0.68599999 1.808
-0.74900001 0.68599999 1.814
-0.73100001 0.68000001 1.8
-0.72000003 0.68099999 1.807
-0.70999998 0.68199998 1.8150001
-0.69400001 0.67699999 1.806
-0.68099999 0.676 1.8049999
-0.67400002 0.68099999 1.822
-0.66299999 0.68199998 1.829
-0.65499997 0.685 1.842
-0.64399999 0.685 1.845
-0.62800002 0.68099999 1.837
-0.61699998 0.68199998 1.8430001
-0.60699999 0.68300003 1.85
-0.59100002 0.67799997 1.839
-0.583 0.68300003 1.855
-0.57099998 0.68199998 1.8559999
-0.55800003 0.68000001 1.854
-0.54900002 0.68300003 1.8660001
-0.53600001 0.68199998 1.867
-0.52600002 0.68300003 1.872
-0.51200002 0.68000001 1.867
-0.50099999 0.68099999 1.873
-0.48899999 0.68099999 1.874
-0.479 0.68300003 1.882
-0.46900001 0.685 1.89
-0.45500001 0.68099999 1.882
-0.44400001 0.68300003 1.891
-0.433 0.68300003 1.892
-0.41999999 0.68099999 1.8890001
-0.40799999 0.68000001 1.8890001
-0.39700001 0.68099999 1.8940001
-0.38699999 0.68400002 1.904
-0.373 0.67900002 1.8940001
-0.361 0.68000001 1.897
-0.34999999 0.68000001 1.899
-0.338 0.68000001 1.9
-0.32699999 0.68000001 1.903
-0.31600001 0.68099999 1.909
-0.30500001 0.68199998 1.913
-0.292 0.68000001 1.909
-0.28099999 0.68199998 1.914
-0.26800001 0.67699999 1.904
-0.25799999 0.68199998 1.918
-0.248 0.68400002 1.926
-0.235 0.68099999 1.919
-0.22400001 0.68400002 1.927
-0.212 0.68099999 1.92
-0.20100001 0.68199998 1.925
-0.189 0.68400002 1.9299999
-0.178 0.68400002 1.932
-0.16599999 0.68300003 1.932
-0.154 0.68199998 1.928
-0.14300001 0.68599999 1.9400001
-0.132 0.68599999 1.941
-0.121 0.69 1.9529999
-0.108 0.68599999 1.942
-0.097000003 0.68800002 1.948
-0.085000001 0.685 1.942
-0.074000001 0.68599999 1.944
-0.061999999 0.68800002 1.949
-0.050000001 0.68800002 1.949
-0.039000001 0.68699998 1.949
-0.027000001 0.68800002 1.951
-0.015 0.68599999 1.946
-0.0040000002 0.69 1.957
0.0070000002 0.69199997 1.9630001
0.018999999 0.69300002 1.964
0.029999999 0.69 1.957
0.041999999 0.69199997 1.962
0.054000001 0.69400001 1.967
0.066 0.69199997 1.961
0.077 0.69 1.955
0.089000002 0.69400001 1.966
0.101 0.69400001 1.967
0.112 0.69 1.954
0.124 0.69 1.9529999
0.13600001 0.69 1.954
0.147 0.68800002 1.947
0.15899999 0.68800002 1.9450001
0.17 0.68699998 1.942
0.182 0.69 1.949
0.19499999 0.69099998 1.952
0.206 0.68900001 1.944
0.21799999 0.69 1.946
0.23 0.69099998 1.948
0.241 0.69099998 1.9450001
0.252 0.68800002 1.936
0.26499999 0.69 1.942
0.27500001 0.68800002 1.9349999
0.28799999 0.68900001 1.937
0.301 0.69300002 1.9450001
0.31099999 0.68900001 1.933
0.322 0.68800002 1.927
0.333 0.68699998 1.923
0.347 0.69199997 1.9349999
0.359 0.69099998 1.931
0.368 0.68699998 1.919
0.382 0.69 1.925
0.39199999 0.68900001 1.918
0.405 0.69099998 1.9220001
0.41499999 0.68800002 1.911
0.428 0.68900001 1.9119999
0.442 0.69400001 1.924
0.45199999 0.69 1.91
0.465 0.69300002 1.915
0.477 0.69199997 1.911
0.48800001 0.69199997 1.908
0.5 0.69300002 1.908
0.50999999 0.69 1.898
0.52399999 0.69300002 1.904
0.53799999 0.69599998 1.908
0.54900002 0.69499999 1.901
0.56 0.69400001 1.898
0.57200003 0.69400001 1.895
0.58700001 0.69800001 1.901
0.59600002 0.69499999 1.89
0.60500002 0.69099998 1.876
0.62 0.69499999 1.882
0.63 0.69300002 1.874
0.64700001 0.699 1.886
0.65499997 0.69499999 1.872
0.66799998 0.69599998 1.8710001
0.68099999 0.69800001 1.873
0.69599998 0.69999999 1.876
0.70700002 0.69999999 1.87
0.72100002 0.70200002 1.8710001
0.73400003 0.70300001 1.8710001
0.74299997 0.70099998 1.86
0.75199997 0.69700003 1.848
0.76800001 0.70099998 1.853
0.78399998 0.70499998 1.859
0.79400003 0.70300001 1.851
0.80599999 0.70300001 1.846
0.81999999 0.70499998 1.846
0.82700002 0.70099998 1.83
0.84600002 0.70599997 1.841
0.85299999 0.70300001 1.827
0.86299998 0.70200002 1.818
0.875 0.70099998 1.812
0.89200002 0.70499998 1.818
0.90399998 0.70499998 1.813
0.91399997 0.704 1.804
0.93000001 0.70700002 1.807
0.93900001 0.70499998 1.7970001
0.95499998 0.708 1.8
0.96399999 0.70599997 1.788
0.98000002 0.708 1.79
0.99299997 0.70899999 1.786
1.003 0.708 1.777
1.016 0.708 1.774
1.03 0.70999998 1.771
1.027 0.699 1.739
1.049 0.70700002 1.752
-1.008 0.69099998 1.6799999
-0.99800003 0.69199997 1.688
-0.99299997 0.69700003 1.705
-0.977 0.69400001 1.704
-0.96399999 0.69300002 1.706
-0.94800001 0.69 1.704
-0.93800002 0.69099998 1.712
-0.93000001 0.69300002 1.723
-0.91500002 0.69099998 1.723
-0.90700001 0.69400001 1.735
-0.89300001 0.69199997 1.734
-0.88099998 0.69199997 1.739
-0.86799997 0.69 1.74
-0.85299999 0.68800002 1.738
-0.83999997 0.68599999 1.74
-0.83099997 0.68900001 1.75
-0.82200003 0.69 1.7589999
-0.80699998 0.68699998 1.756
-0.79000002 0.68199998 1.748
-0.78600001 0.68900001 1.77
-0.76800001 0.68300003 1.758
-0.76099998 0.68800002 1.774
-0.75199997 0.69 1.785
-0.74000001 0.68900001 1.786
-0.72000003 0.68099999 1.7690001
-0.71600002 0.68800002 1.7920001
-0.70300001 0.68599999 1.7920001
-0.69499999 0.69 1.8049999
-0.67900002 0.68599999 1.798
-0.66799998 0.68599999 1.801
-0.65499997 0.68400002 1.801
-0.63800001 0.67900002 1.789
-0.63300002 0.68599999 1.812
-0.62400001 0.68800002 1.821
-0.61199999 0.68699998 1.823
-0.60100001 0.68800002 1.8279999
-0.588 0.68599999 1.827
-0.57499999 0.685 1.827
-0.56400001 0.685 1.829
-0.55199999 0.68400002 1.831
-0.542 0.68699998 1.841
-0.52899998 0.68400002 1.836
-0.51999998 0.68699998 1.847
-0.50599998 0.68400002 1.842
-0.49599999 0.68599999 1.85
-0.48300001 0.68400002 1.848
-0.472 0.68400002 1.849
-0.461 0.685 1.8559999
-0.45199999 0.68800002 1.8660001
-0.43900001 0.68599999 1.863
-0.428 0.68699998 1.869
-0.41299999 0.68199998 1.855
-0.405 0.68699998 1.872
-0.39300001 0.68599999 1.872
-0.38100001 0.685 1.873
-0.36899999 0.68400002 1.8710001
-0.35699999 0.68199998 1.868
-0.347 0.68599999 1.88
-0.33500001 0.685 1.88
-0.324 0.68599999 1.883
-0.31099999 0.68199998 1.875
-0.301 0.685 1.8839999
-0.289 0.68300003 1.881
-0.27599999 0.68099999 1.876
-0.26699999 0.68599999 1.892
-0.25600001 0.68599999 1.895
-0.244 0.68599999 1.8940001
-0.23199999 0.68599999 1.895
-0.221 0.68599999 1.899
-0.20900001 0.68400002 1.892
-0.199 0.68699998 1.903
-0.18700001 0.68800002 1.905
-0.175 0.685 1.9
-0.164 0.68699998 1.904
-0.153 0.68699998 1.905
-0.142 0.68900001 1.914
-0.131 0.69199997 1.921
-0.119 0.69300002 1.926
-0.108 0.69300002 1.925
-0.096000001 0.69 1.918
-0.083999999 0.68900001 1.915
-0.072999999 0.68900001 1.915
-0.061000001 0.68900001 1.9170001
-0.050000001 0.69 1.919
-0.037999999 0.68900001 1.916
-0.027000001 0.69199997 1.925
-0.015 0.69 1.921
-0.0040000002 0.69099998 1.924
0.0070000002 0.69 1.919
0.017999999 0.69300002 1.928
0.029999999 0.69199997 1.926
0.041999999 0.69499999 1.933
0.052999999 0.69300002 1.929
0.064999998 0.69300002 1.928
0.075999998 0.69400001 1.929
0.088 0.69499999 1.933
0.1 0.69599998 1.934
0.112 0.69800001 1.939
0.122 0.69099998 1.92
0.13500001 0.69599998 1.933
0.146 0.69599998 1.933
0.15800001 0.69499999 1.929
0.169 0.69300002 1.921
0.18099999 0.69499999 1.926
0.192 0.69300002 1.92
0.204 0.69400001 1.9220001
0.215 0.69499999 1.924
0.227 0.69499999 1.921
0.23800001 0.69300002 1.916
0.25 0.69300002 1.916
0.25999999 0.68900001 1.902
0.273 0.69400001 1.913
0.285 0.69499999 1.915
0.29499999 0.69 1.902
0.30599999 0.69099998 1.901
0.31799999 0.69099998 1.899
0.329 0.69099998 1.898
0.34200001 0.69300002 1.901
0.352 0.69099998 1.8940001
0.366 0.69499999 1.902
0.37799999 0.69499999 1.901
0.38800001 0.69300002 1.895
0.40099999 0.69499999 1.896
0.41 0.69199997 1.885
0.42300001 0.69300002 1.888
0.43399999 0.69300002 1.8839999
0.44800001 0.69599998 1.89
0.45899999 0.69499999 1.886
0.47099999 0.69599998 1.885
0.48199999 0.69499999 1.88
0.49599999 0.69800001 1.886
0.505 0.69499999 1.875
0.51700002 0.69499999 1.873
0.52899998 0.69599998 1.873
0.54100001 0.69700003 1.8710001
0.551 0.69400001 1.8609999
0.56400001 0.69599998 1.863
0.57700002 0.69800001 1.865
0.59100002 0.69999999 1.869
0.60100001 0.69800001 1.86
0.61299998 0.69999999 1.86
0.62300003 0.69700003 1.85
0.63999999 0.70300001 1.862
0.64999998 0.70099998 1.854
0.66600001 0.70599997 1.862
0.67699999 0.70499998 1.8559999
0.68599999 0.70200002 1.845
0.69599998 0.70099998 1.837
0.70999998 0.70300001 1.8380001
0.72500002 0.70599997 1.844
0.73400003 0.70300001 1.832
0.741 0.699 1.818
0.75800002 0.704 1.826
0.773 0.70700002 1.8279999
0.78399998 0.70599997 1.822
0.79699999 0.70700002 1.821
0.81 0.708 1.8200001
0.81999999 0.70700002 1.811
0.83200002 0.70700002 1.808
0.847 0.70899999 1.809
0.85699999 0.708 1.8
0.866 0.70599997 1.791
0.87699997 0.70599997 1.785
0.89099997 0.70700002 1.783
0.912 0.71399999 1.796
0.91900003 0.71100003 1.783
0.93199998 0.71100003 1.779
0.94700003 0.71399999 1.779
0.96100003 0.71499997 1.778
0.963 0.708 1.756
0.99000001 0.71899998 1.777
0.98900002 0.70999998 1.748
1.005 0.713 1.75
1.012 0.70899999 1.7359999
1.017 0.70499998 1.719
1.029 0.70499998 1.714
-1.0089999 0.704 1.679
-0.99800003 0.704 1.6849999
-0.97799999 0.69800001 1.676
-0.96600002 0.69800001 1.681
-0.96200001 0.70300001 1.699
-0.94700003 0.69999999 1.697
-0.93000001 0.69599998 1.693
-0.91799998 0.69599998 1.698
-0.90200001 0.69300002 1.694
-0.89700001 0.69700003 1.71
-0.88 0.69300002 1.704
-0.87 0.69400001 1.712
-0.85500002 0.69099998 1.71
-0.84399998 0.69199997 1.716
-0.838 0.69599998 1.732
-0.81999999 0.69 1.722
-0.81400001 0.69499999 1.738
-0.79400003 0.68800002 1.725
-0.78600001 0.69099998 1.7359999
-0.77200001 0.68800002 1.734
-0.75800002 0.685 1.7309999
-0.74800003 0.68699998 1.74
-0.74299997 0.69199997 1.757
-0.727 0.68900001 1.752
-0.71600002 0.68900001 1.756
-0.704 0.68800002 1.758
-0.69999999 0.69499999 1.781
-0.685 0.69199997 1.777
-0.67500001 0.69300002 1.784
-0.66399997 0.69300002 1.7869999
-0.65200001 0.69300002 1.789
-0.63800001 0.69 1.785
-0.62699997 0.69 1.79
-0.616 0.69099998 1.796
-0.60600001 0.69300002 1.803
-0.59100002 0.68800002 1.794
-0.58399999 0.69300002 1.8099999
-0.56900001 0.68900001 1.803
-0.55900002 0.69 1.809
-0.54799998 0.69099998 1.814
-0.53399998 0.68699998 1.807
-0.52200001 0.68699998 1.809
-0.51300001 0.68900001 1.818
-0.50199997 0.68900001 1.822
-0.48800001 0.68599999 1.8150001
-0.479 0.69 1.8279999
-0.46799999 0.69099998 1.8329999
-0.45500001 0.68800002 1.8279999
-0.44400001 0.68800002 1.83
-0.43399999 0.68900001 1.837
-0.41999999 0.68599999 1.829
-0.41 0.68800002 1.8380001
-0.39700001 0.685 1.832
-0.38600001 0.685 1.835
-0.375 0.68599999 1.839
-0.368 0.69300002 1.8609999
-0.35499999 0.69 1.854
-0.34200001 0.68699998 1.848
-0.331 0.68800002 1.851
-0.31999999 0.68800002 1.855
-0.308 0.68699998 1.852
-0.29899999 0.69099998 1.8660001
-0.28600001 0.68800002 1.86
-0.27599999 0.69099998 1.868
-0.26300001 0.68800002 1.8609999
-0.252 0.68699998 1.8609999
-0.241 0.68900001 1.868
-0.229 0.68699998 1.865
-0.21799999 0.68599999 1.863
-0.208 0.69099998 1.876
-0.19599999 0.68900001 1.872
-0.185 0.68900001 1.874
-0.17399999 0.69300002 1.886
-0.162 0.69099998 1.881
-0.15099999 0.69 1.8789999
-0.14 0.69300002 1.887
-0.12899999 0.69499999 1.895
-0.118 0.69700003 1.901
-0.107 0.69599998 1.899
-0.094999999 0.69599998 1.899
-0.083999999 0.69599998 1.899
-0.071999997 0.69700003 1.903
-0.061000001 0.69300002 1.893
-0.048999999 0.69400001 1.896
-0.037999999 0.69400001 1.896
-0.026000001 0.69300002 1.893
-0.015 0.69400001 1.895
-0.0040000002 0.69700003 1.903
0.0070000002 0.69599998 1.902
0.017999999 0.699 1.909
0.029999999 0.69700003 1.903
0.041000001 0.699 1.909
0.052000001 0.69700003 1.903
0.064000003 0.69700003 1.903
0.075000003 0.69599998 1.9
0.086999997 0.69599998 1.9
0.097999997 0.69800001 1.905
0.11 0.69999999 1.908
0.122 0.69999999 1.908
0.133 0.69999999 1.9069999
0.145 0.69999999 1.908
0.156 0.69800001 1.901
0.167 0.69800001 1.9
0.17900001 0.699 1.903
0.189 0.69599998 1.893
0.20200001 0.699 1.901
0.212 0.69700003 1.893
0.22400001 0.69700003 1.8940001
0.236 0.69800001 1.895
0.24600001 0.69599998 1.887
0.25999999 0.70099998 1.899
0.27000001 0.69800001 1.891
0.28 0.69499999 1.881
0.29300001 0.69800001 1.886
0.30399999 0.69599998 1.88
0.31600001 0.69800001 1.885
0.32600001 0.69499999 1.874
0.338 0.69700003 1.876
0.34999999 0.69700003 1.877
0.361 0.69700003 1.874
0.375 0.70099998 1.883
0.38600001 0.69999999 1.8789999
0.39700001 0.699 1.873
0.40900001 0.70099998 1.875
0.419 0.69800001 1.865
0.43099999 0.69800001 1.864
0.44 0.69599998 1.855
0.45300001 0.69800001 1.859
0.46599999 0.69999999 1.862
0.477 0.699 1.855
0.48699999 0.69700003 1.849
0.5 0.69999999 1.853
0.51300001 0.70099998 1.854
0.52399999 0.70200002 1.852
0.53500003 0.69999999 1.845
0.54799998 0.70200002 1.846
0.55900002 0.70099998 1.8430001
0.57300001 0.704 1.847
0.58099997 0.69999999 1.834
0.59500003 0.704 1.839
0.60900003 0.70599997 1.841
0.61699998 0.70200002 1.8279999
0.62800002 0.70200002 1.824
0.64200002 0.704 1.8279999
0.65399998 0.704 1.824
0.66600001 0.70499998 1.823
0.67900002 0.70599997 1.821
0.68900001 0.70499998 1.814
0.70300001 0.70700002 1.816
0.713 0.70599997 1.809
0.72399998 0.70499998 1.803
0.74199998 0.71200001 1.817
0.74900001 0.708 1.801
0.76200002 0.70899999 1.799
0.77600002 0.70999998 1.8
0.78100002 0.70499998 1.78
0.80000001 0.71200001 1.794
0.81099999 0.71100003 1.788
0.82200003 0.71100003 1.783
0.83700001 0.713 1.785
0.847 0.71100003 1.775
0.86000001 0.713 1.774
0.87 0.71100003 1.765
0.87699997 0.708 1.751
0.90200001 0.71799999 1.773
0.90799999 0.71399999 1.757
0.91799998 0.71200001 1.748
0.93000001 0.713 1.744
0.94300002 0.71399999 1.7410001
0.95200002 0.71200001 1.7309999
0.97399998 0.71899998 1.744
0.97799999 0.71399999 1.725
0.98799998 0.713 1.717
1.013 0.722 1.735
1.013 0.71399999 1.709
1.01 0.704 1.679
-0.99900001 0.708 1.658
-0.98799998 0.70899999 1.665
-0.97299999 0.70599997 1.663
-0.95899999 0.704 1.665
-0.94400001 0.70200002 1.664
-0.93900001 0.70599997 1.6799999
-0.92400002 0.70300001 1.678
-0.912 0.70300001 1.682
-0.89300001 0.69700003 1.6720001
-0.88300002 0.69800001 1.679
-0.87 0.69599998 1.681
-0.85699999 0.69499999 1.684
-0.85000002 0.699 1.697
-0.838 0.69800001 1.699
-0.82099998 0.69300002 1.693
-0.81 0.69300002 1.698
-0.80299997 0.69700003 1.71
-0.79299998 0.69800001 1.7180001
-0.77600002 0.69300002 1.71
-0.76700002 0.69499999 1.72
-0.75400001 0.69300002 1.719
-0.74199998 0.69300002 1.722
-0.73199999 0.69400001 1.728
-0.722 0.69499999 1.735
-0.71200001 0.69599998 1.743
-0.69499999 0.69 1.732
-0.68599999 0.69199997 1.74
-0.67299998 0.69099998 1.74
-0.65899998 0.68800002 1.737
-0.65200001 0.69199997 1.752
-0.64099997 0.69199997 1.755
-0.62900001 0.69099998 1.755
-0.616 0.68900001 1.7539999
-0.60699999 0.69199997 1.765
-0.60100001 0.69800001 1.784
-0.58700001 0.69400001 1.777
-0.57700002 0.69599998 1.784
-0.565 0.69499999 1.785
-0.55400002 0.69599998 1.79
-0.53899997 0.69099998 1.781
-0.53100002 0.69499999 1.794
-0.51700002 0.69099998 1.786
-0.50599998 0.69199997 1.7920001
-0.49700001 0.69499999 1.803
-0.48500001 0.69300002 1.802
-0.47400001 0.69400001 1.8049999
-0.46200001 0.69199997 1.804
-0.45199999 0.69400001 1.8099999
-0.43799999 0.69 1.803
-0.42899999 0.69400001 1.814
-0.41800001 0.69300002 1.8150001
-0.405 0.69099998 1.812
-0.39399999 0.69 1.812
-0.384 0.69199997 1.8200001
-0.37400001 0.69499999 1.829
-0.361 0.69099998 1.8200001
-0.35100001 0.69300002 1.8279999
-0.33899999 0.69199997 1.827
-0.32800001 0.69199997 1.83
-0.317 0.69199997 1.831
-0.30500001 0.69199997 1.832
-0.294 0.69199997 1.834
-0.28299999 0.69199997 1.836
-0.27200001 0.69300002 1.839
-0.26100001 0.69199997 1.839
-0.25099999 0.69599998 1.851
-0.23899999 0.69300002 1.844
-0.228 0.69400001 1.849
-0.21600001 0.69199997 1.8430001
-0.205 0.69400001 1.851
-0.19400001 0.69499999 1.854
-0.184 0.69599998 1.859
-0.17200001 0.69499999 1.855
-0.161 0.69499999 1.857
-0.149 0.69499999 1.857
-0.139 0.69800001 1.867
-0.127 0.69499999 1.8609999
-0.117 0.69999999 1.873
-0.105 0.69599998 1.864
-0.093999997 0.69700003 1.8660001
-0.082000002 0.69700003 1.867
-0.071000002 0.699 1.873
-0.059999999 0.699 1.873
-0.048999999 0.699 1.874
-0.037999999 0.70099998 1.8789999
-0.026000001 0.69700003 1.87
-0.015 0.69599998 1.865
-0.0040000002 0.70200002 1.883
0.0070000002 0.69800001 1.8710001
0.017999999 0.699 1.875
0.028999999 0.699 1.874
0.039999999 0.69999999 1.877
0.052000001 0.699 1.873
0.063000001 0.699 1.874
0.075000003 0.70300001 1.8839999
0.086000003 0.70099998 1.8789999
0.097000003 0.70099998 1.8789999
0.108 0.70099998 1.876
0.12 0.70300001 1.881
0.131 0.70200002 1.878
0.14300001 0.704 1.883
0.154 0.70300001 1.8789999
0.16500001 0.70099998 1.873
0.176 0.69999999 1.8710001
0.18799999 0.70200002 1.875
0.2 0.70499998 1.882
0.20999999 0.699 1.865
0.222 0.70200002 1.872
0.23199999 0.699 1.863
0.245 0.70200002 1.869
0.255 0.69999999 1.862
0.26800001 0.70300001 1.868
0.278 0.70200002 1.863
0.28999999 0.70099998 1.8609999
0.301 0.70099998 1.858
0.31200001 0.70099998 1.857
0.32100001 0.69700003 1.845
0.333 0.69800001 1.847
0.345 0.699 1.846
0.35699999 0.70099998 1.85
0.36700001 0.699 1.842
0.38100001 0.70300001 1.85
0.39199999 0.70200002 1.846
0.40200001 0.69999999 1.84
0.41299999 0.70099998 1.8380001
0.42699999 0.704 1.845
0.43900001 0.70599997 1.847
0.449 0.704 1.839
0.46200001 0.70599997 1.842
0.47299999 0.70599997 1.84
0.48300001 0.70300001 1.829
0.49700001 0.70599997 1.835
0.50700003 0.70499998 1.831
0.51800001 0.70499998 1.826
0.52899998 0.704 1.821
0.53899997 0.70200002 1.814
0.55400002 0.70599997 1.821
0.565 0.70599997 1.819
0.57800001 0.708 1.8200001
0.588 0.70599997 1.812
0.597 0.704 1.803
0.611 0.70599997 1.8049999
0.61799997 0.70200002 1.7920001
0.63200003 0.70499998 1.796
0.648 0.70999998 1.8049999
0.65799999 0.708 1.796
0.671 0.70999998 1.798
0.68300003 0.71100003 1.795
0.69400001 0.70999998 1.789
0.70499998 0.70999998 1.786
0.70999998 0.704 1.766
0.73000002 0.71100003 1.781
0.74400002 0.71399999 1.784
0.75 0.70899999 1.768
0.76999998 0.71600002 1.781
0.773 0.70899999 1.758
0.79000002 0.71399999 1.767
0.79900002 0.71200001 1.758
0.81199998 0.713 1.756
0.82300001 0.713 1.751
0.83600003 0.71399999 1.75
0.84299999 0.70999998 1.735
0.85699999 0.713 1.7359999
0.866 0.70999998 1.725
0.88499999 0.71700001 1.7359999
0.89700001 0.71700001 1.732
0.90899998 0.71700001 1.727
0.92000002 0.71700001 1.721
0.93300003 0.71799999 1.7180001
0.94300002 0.71700001 1.711
0.96399999 0.72399998 1.723
0.96700001 0.71700001 1.702
0.97500002 0.71499997 1.6900001
0.98400003 0.713 1.681
0.98900002 0.708 1.663
1.005 0.71100003 1.665
-0.986 0.71100003 1.633
-0.97000003 0.70700002 1.6289999
-0.95499998 0.704 1.6289999
-0.94999999 0.70899999 1.645
-0.93000001 0.70200002 1.635
-0.926 0.70700002 1.652
-0.91000003 0.704 1.648
-0.90399998 0.708 1.664
-0.88999999 0.70599997 1.663
-0.875 0.70300001 1.661
-0.866 0.70499998 1.67
-0.85000002 0.70099998 1.666
-0.838 0.699 1.6670001
-0.824 0.69700003 1.6670001
-0.81800002 0.70200002 1.682
-0.80699998 0.70200002 1.687
-0.78899997 0.69599998 1.676
-0.77999997 0.69800001 1.6849999
-0.76599997 0.69499999 1.683
-0.75300002 0.69400001 1.684
-0.74699998 0.69800001 1.699
-0.73400003 0.69599998 1.699
-0.72299999 0.69599998 1.702
-0.71200001 0.69599998 1.706
-0.69999999 0.69499999 1.7079999
-0.68900001 0.69499999 1.712
-0.67400002 0.69199997 1.707
-0.667 0.69499999 1.72
-0.65399998 0.69400001 1.719
-0.64399999 0.69400001 1.725
-0.634 0.69499999 1.7309999
-0.62400001 0.69700003 1.737
-0.61199999 0.69599998 1.739
-0.59799999 0.69199997 1.733
-0.59200001 0.699 1.752
-0.579 0.69599998 1.75
-0.56599998 0.69400001 1.7460001
-0.55900002 0.69800001 1.761
-0.54500002 0.69499999 1.756
-0.53500003 0.69700003 1.7640001
-0.52499998 0.69800001 1.7690001
-0.51300001 0.69700003 1.77
-0.50199997 0.69700003 1.772
-0.493 0.69999999 1.7819999
-0.48100001 0.69800001 1.781
-0.47 0.699 1.785
-0.45500001 0.69300002 1.772
-0.44800001 0.699 1.79
-0.43399999 0.69499999 1.7819999
-0.42399999 0.69599998 1.789
-0.412 0.69499999 1.788
-0.403 0.69800001 1.7970001
-0.391 0.69700003 1.7970001
-0.382 0.69999999 1.807
-0.36700001 0.69300002 1.7920001
-0.35699999 0.69499999 1.799
-0.347 0.69700003 1.8049999
-0.336 0.69599998 1.806
-0.32499999 0.69700003 1.809
-0.31299999 0.69499999 1.807
-0.303 0.699 1.817
-0.29100001 0.69599998 1.811
-0.28099999 0.69700003 1.816
-0.26899999 0.69599998 1.816
-0.259 0.699 1.824
-0.248 0.69800001 1.824
-0.237 0.69800001 1.825
-0.22499999 0.69700003 1.822
-0.215 0.69999999 1.832
-0.204 0.69999999 1.832
-0.192 0.699 1.83
-0.182 0.70200002 1.841
-0.17 0.69999999 1.836
-0.15899999 0.699 1.834
-0.149 0.70200002 1.8430001
-0.13699999 0.70099998 1.842
-0.126 0.69999999 1.84
-0.115 0.70200002 1.845
-0.104 0.70099998 1.844
-0.093000002 0.704 1.851
-0.082000002 0.70599997 1.857
-0.071000002 0.70200002 1.847
-0.059 0.69999999 1.841
-0.048 0.704 1.853
-0.037 0.70099998 1.845
-0.026000001 0.70099998 1.846
-0.015 0.70300001 1.851
-0.0040000002 0.70300001 1.851
0.0060000001 0.70099998 1.846
0.017999999 0.70300001 1.852
0.028999999 0.704 1.854
0.039999999 0.70300001 1.851
0.050999999 0.70599997 1.86
0.063000001 0.70599997 1.858
0.074000001 0.70499998 1.8559999
0.085000001 0.704 1.853
0.096000001 0.70300001 1.848
0.107 0.70300001 1.849
0.119 0.70499998 1.855
0.13 0.70499998 1.854
0.141 0.704 1.85
0.152 0.70700002 1.8559999
0.163 0.70499998 1.85
0.175 0.708 1.8559999
0.186 0.70499998 1.848
0.198 0.708 1.8559999
0.20900001 0.70700002 1.852
0.22 0.70700002 1.85
0.23 0.70499998 1.8430001
0.243 0.70999998 1.855
0.25400001 0.70700002 1.847
0.26499999 0.708 1.848
0.27399999 0.70300001 1.8329999
0.285 0.70200002 1.83
0.29800001 0.70499998 1.835
0.30700001 0.70099998 1.824
0.31900001 0.70300001 1.8279999
0.33000001 0.70200002 1.822
0.34400001 0.708 1.836
0.352 0.70099998 1.817
0.36399999 0.704 1.822
0.375 0.70300001 1.817
0.389 0.70899999 1.831
0.40099999 0.70899999 1.829
0.41100001 0.70700002 1.822
0.42199999 0.70700002 1.8200001
0.43399999 0.708 1.819
0.44400001 0.70700002 1.8150001
0.456 0.708 1.8150001
0.46599999 0.70599997 1.806
0.47799999 0.70700002 1.807
0.48899999 0.70599997 1.802
0.50400001 0.713 1.816
0.514 0.70999998 1.807
0.52399999 0.70899999 1.801
0.53600001 0.70899999 1.798
0.546 0.70700002 1.791
0.55699998 0.708 1.789
0.56900001 0.708 1.786
0.57999998 0.70899999 1.785
0.59500003 0.713 1.7920001
0.60299999 0.70899999 1.778
0.61500001 0.70999998 1.779
0.62400001 0.70700002 1.7690001
0.63599998 0.708 1.767
0.64999998 0.71200001 1.772
0.66399997 0.71399999 1.775
0.67199999 0.71100003 1.763
0.68699998 0.71399999 1.768
0.69400001 0.70999998 1.753
0.70899999 0.713 1.758
0.72299999 0.71600002 1.761
0.73500001 0.71700001 1.758
0.745 0.71600002 1.751
0.75400001 0.713 1.7410001
0.76800001 0.71600002 1.743
0.77700001 0.71399999 1.735
0.792 0.71700001 1.737
0.80199999 0.71600002 1.73
0.81300002 0.71600002 1.725
0.82200003 0.71399999 1.716
0.83499998 0.71499997 1.7130001
0.84899998 0.71700001 1.715
0.86799997 0.72399998 1.726
0.87599999 0.72100002 1.714
0.88 0.71499997 1.6950001
0.89499998 0.71799999 1.697
0.91100001 0.72100002 1.701
0.91799998 0.71700001 1.686
0.93599999 0.72299999 1.694
0.94499999 0.72100002 1.6849999
0.963 0.72600001 1.6900001
0.96100003 0.71600002 1.6619999
0.97299999 0.71600002 1.6569999
0.98199999 0.71499997 1.649
0.98000002 0.70499998 1.62
-0.96799999 0.708 1.598
-0.96200001 0.71200001 1.612
-0.95599997 0.71600002 1.626
-0.93699998 0.70999998 1.618
-0.92799997 0.71200001 1.627
-0.91600001 0.71100003 1.63
-0.90100002 0.708 1.6289999
-0.89099997 0.70899999 1.635
-0.87300003 0.704 1.628
-0.86199999 0.704 1.633
-0.84899998 0.70200002 1.633
-0.84799999 0.70999998 1.6569999
-0.83499998 0.70899999 1.659
-0.81900001 0.704 1.653
-0.80699998 0.70300001 1.655
-0.79400003 0.70200002 1.656
-0.78200001 0.70099998 1.658
-0.77399999 0.70300001 1.668
-0.76200002 0.70300001 1.6720001
-0.74900001 0.70099998 1.671
-0.741 0.704 1.682
-0.73000002 0.70300001 1.684
-0.71600002 0.70099998 1.683
-0.70099998 0.69700003 1.677
-0.69099998 0.69700003 1.682
-0.67900002 0.69599998 1.683
-0.67400002 0.70300001 1.7029999
-0.66299999 0.70300001 1.707
-0.648 0.69800001 1.698
-0.63700002 0.69800001 1.7029999
-0.62599999 0.69800001 1.706
-0.61900002 0.70200002 1.719
-0.60299999 0.69700003 1.71
-0.59399998 0.699 1.72
-0.583 0.699 1.721
-0.57200003 0.69800001 1.724
-0.56400001 0.70200002 1.7359999
-0.55000001 0.69800001 1.73
-0.542 0.70200002 1.743
-0.52999997 0.70099998 1.743
-0.51700002 0.69800001 1.739
-0.50700003 0.699 1.744
-0.498 0.70200002 1.753
-0.48300001 0.69700003 1.744
-0.47299999 0.69800001 1.75
-0.46599999 0.70300001 1.7640001
-0.45199999 0.699 1.756
-0.43799999 0.69400001 1.7460001
-0.42899999 0.69700003 1.757
-0.421 0.70300001 1.773
-0.40700001 0.69800001 1.762
-0.39899999 0.70200002 1.775
-0.38600001 0.699 1.77
-0.375 0.699 1.772
-0.36500001 0.69999999 1.778
-0.35600001 0.70300001 1.7869999
-0.34299999 0.699 1.779
-0.33199999 0.69999999 1.7819999
-0.31999999 0.699 1.781
-0.31 0.69999999 1.7869999
-0.30000001 0.70099998 1.79
-0.28799999 0.69999999 1.789
-0.27700001 0.699 1.788
-0.26699999 0.70200002 1.799
-0.25600001 0.70200002 1.798
-0.245 0.69999999 1.796
-0.234 0.70099998 1.799
-0.22400001 0.704 1.807
-0.212 0.70099998 1.801
-0.2 0.699 1.798
-0.19 0.70200002 1.806
-0.178 0.699 1.799
-0.168 0.70300001 1.8099999
-0.15700001 0.70200002 1.808
-0.147 0.704 1.816
-0.13500001 0.70300001 1.812
-0.125 0.70700002 1.825
-0.114 0.70599997 1.823
-0.103 0.70499998 1.821
-0.092 0.704 1.819
-0.081 0.70899999 1.832
-0.07 0.708 1.83
-0.059 0.70300001 1.817
-0.048 0.708 1.83
-0.037 0.708 1.831
-0.026000001 0.704 1.821
-0.015 0.704 1.8200001
-0.0040000002 0.708 1.8329999
0.0060000001 0.704 1.821
0.017000001 0.70499998 1.824
0.028000001 0.70599997 1.825
0.039999999 0.70999998 1.837
0.050999999 0.708 1.83
0.061999999 0.70700002 1.829
0.072999999 0.70999998 1.835
0.083999999 0.708 1.8279999
0.094999999 0.70700002 1.827
0.106 0.71100003 1.836
0.117 0.70599997 1.822
0.12800001 0.70700002 1.825
0.139 0.70899999 1.829
0.15000001 0.708 1.827
0.161 0.70899999 1.827
0.17299999 0.70899999 1.826
0.185 0.713 1.836
0.19599999 0.71200001 1.8329999
0.206 0.70999998 1.825
0.21699999 0.708 1.8200001
0.229 0.71200001 1.83
0.23999999 0.71100003 1.826
0.25099999 0.70999998 1.821
0.26100001 0.70899999 1.818
0.27200001 0.70700002 1.811
0.28299999 0.70700002 1.809
0.29499999 0.71100003 1.817
0.30599999 0.70899999 1.812
0.31600001 0.708 1.806
0.32800001 0.70899999 1.807
0.338 0.70700002 1.802
0.34799999 0.70499998 1.794
0.36000001 0.708 1.799
0.37099999 0.70599997 1.793
0.38299999 0.708 1.796
0.39500001 0.70999998 1.8
0.40599999 0.70899999 1.795
0.41600001 0.70899999 1.7920001
0.428 0.70899999 1.79
0.43900001 0.70999998 1.79
0.449 0.708 1.783
0.463 0.713 1.791
0.47400001 0.71200001 1.788
0.48199999 0.708 1.775
0.49700001 0.713 1.784
0.50700003 0.71200001 1.779
0.51800001 0.71200001 1.775
0.52899998 0.71200001 1.774
0.54100001 0.71200001 1.771
0.551 0.71100003 1.7640001
0.56400001 0.71399999 1.7690001
0.57599998 0.71499997 1.767
0.58499998 0.71200001 1.7589999
0.59500003 0.70999998 1.75
0.61199999 0.71700001 1.7640001
0.61699998 0.71100003 1.744
0.62699997 0.70999998 1.739
0.64499998 0.71700001 1.7539999
0.65200001 0.713 1.739
0.667 0.71700001 1.745
0.67799997 0.71700001 1.742
0.68699998 0.71399999 1.7309999
0.704 0.72000003 1.7410001
0.71600002 0.72100002 1.739
0.72100002 0.71499997 1.721
0.73400003 0.71700001 1.722
0.74699998 0.71799999 1.72
0.75800002 0.71799999 1.717
0.77200001 0.72000003 1.7180001
0.78100002 0.71899998 1.709
0.79299998 0.71899998 1.707
0.80299997 0.71799999 1.7
0.81599998 0.72000003 1.699
0.83200002 0.72299999 1.7029999
0.84100002 0.722 1.694
0.84799999 0.71799999 1.681
0.85399997 0.71399999 1.666
0.87 0.71799999 1.671
0.88800001 0.72399998 1.6799999
0.89499998 0.72000003 1.6670001
0.90700001 0.72100002 1.663
0.92299998 0.72500002 1.6670001
0.92500001 0.71700001 1.645
0.94499999 0.72399998 1.655
0.95599997 0.72299999 1.648
0.95099998 0.71100003 1.6160001
0.97799999 0.72299999 1.638
0.96200001 0.70300001 1.586
-0.96700001 0.71899998 1.592
-0.95099998 0.71499997 1.589
-0.94199997 0.71700001 1.598
-0.92699999 0.713 1.596
-0.91600001 0.713 1.601
-0.90899998 0.71700001 1.615
-0.898 0.71700001 1.619
-0.88499999 0.71499997 1.62
-0.87099999 0.713 1.62
-0.85699999 0.70999998 1.618
-0.83999997 0.70499998 1.612
-0.83399999 0.70999998 1.627
-0.82499999 0.71100003 1.635
-0.81699997 0.71399999 1.645
-0.80199999 0.70999998 1.641
-0.79299998 0.71200001 1.65
-0.778 0.708 1.645
-0.773 0.71399999 1.663
-0.75599998 0.708 1.654
-0.74400002 0.70700002 1.656
-0.72799999 0.70200002 1.648
-0.72399998 0.708 1.6670001
-0.70899999 0.704 1.661
-0.69599998 0.70300001 1.6619999
-0.69199997 0.70899999 1.6799999
-0.68000001 0.708 1.682
-0.66600001 0.70499998 1.678
-0.65499997 0.70499998 1.682
-0.64099997 0.70200002 1.678
-0.63099998 0.70200002 1.682
-0.62400001 0.70599997 1.696
-0.60900003 0.70200002 1.688
-0.59799999 0.70200002 1.691
-0.58600003 0.69999999 1.6900001
-0.57800001 0.704 1.7029999
-0.57099998 0.708 1.716
-0.55500001 0.70200002 1.705
-0.54400003 0.70099998 1.706
-0.53100002 0.699 1.704
-0.52200001 0.70200002 1.7130001
-0.51099998 0.70099998 1.7130001
-0.50099999 0.70200002 1.72
-0.48800001 0.699 1.715
-0.47999999 0.704 1.729
-0.47 0.704 1.733
-0.45699999 0.70200002 1.729
-0.44800001 0.704 1.738
-0.43599999 0.70200002 1.735
-0.42500001 0.70200002 1.737
-0.417 0.70599997 1.75
-0.40700001 0.708 1.757
-0.39399999 0.704 1.749
-0.38100001 0.70099998 1.743
-0.37099999 0.70200002 1.747
-0.36300001 0.708 1.766
-0.34900001 0.69999999 1.748
-0.338 0.69999999 1.75
-0.32800001 0.70300001 1.758
-0.31799999 0.70499998 1.765
-0.30599999 0.70200002 1.761
-0.29499999 0.70200002 1.76
-0.28600001 0.70599997 1.773
-0.273 0.69999999 1.76
-0.26300001 0.70099998 1.7640001
-0.252 0.70200002 1.768
-0.243 0.70599997 1.779
-0.23100001 0.70499998 1.777
-0.22 0.70300001 1.774
-0.211 0.708 1.7869999
-0.2 0.70700002 1.786
-0.18799999 0.70599997 1.784
-0.178 0.70599997 1.786
-0.167 0.70899999 1.794
-0.156 0.70499998 1.784
-0.145 0.70599997 1.789
-0.134 0.708 1.795
-0.123 0.70599997 1.79
-0.113 0.70999998 1.8
-0.102 0.71100003 1.804
-0.090999998 0.70700002 1.795
-0.079999998 0.70899999 1.8
-0.068999998 0.70999998 1.804
-0.057999998 0.70999998 1.802
-0.046999998 0.71100003 1.8049999
-0.035999998 0.708 1.799
-0.026000001 0.71100003 1.807
-0.015 0.70700002 1.796
-0.0040000002 0.70700002 1.796
0.0060000001 0.71200001 1.809
0.017000001 0.70999998 1.8049999
0.028000001 0.71399999 1.813
0.039000001 0.713 1.811
0.050000001 0.71200001 1.808
0.061000001 0.70899999 1.801
0.071999997 0.71100003 1.8049999
0.082999997 0.71399999 1.812
0.093999997 0.71200001 1.807
0.105 0.71499997 1.813
0.116 0.71499997 1.813
0.127 0.71200001 1.8049999
0.138 0.71200001 1.803
0.149 0.71100003 1.802
0.16 0.71499997 1.8099999
0.17 0.70999998 1.7970001
0.182 0.71499997 1.8099999
0.193 0.71499997 1.808
0.205 0.71600002 1.808
0.215 0.71399999 1.802
0.226 0.71499997 1.804
0.237 0.713 1.798
0.24699999 0.70999998 1.789
0.259 0.713 1.795
0.26899999 0.71200001 1.7920001
0.28 0.71200001 1.791
0.29100001 0.71200001 1.789
0.30000001 0.70700002 1.775
0.31299999 0.713 1.7869999
0.32300001 0.71100003 1.78
0.33500001 0.71100003 1.779
0.34599999 0.71200001 1.779
0.35699999 0.71200001 1.778
0.36899999 0.71399999 1.781
0.37900001 0.71200001 1.774
0.391 0.71499997 1.779
0.40000001 0.70999998 1.765
0.412 0.713 1.771
0.42300001 0.713 1.768
0.435 0.71399999 1.767
0.44499999 0.71200001 1.76
0.45899999 0.71799999 1.773
0.46700001 0.71200001 1.756
0.479 0.71399999 1.758
0.49200001 0.71700001 1.762
0.5 0.713 1.75
0.514 0.71700001 1.757
0.52200001 0.71399999 1.7460001
0.53399998 0.71399999 1.744
0.546 0.71600002 1.745
0.55900002 0.71899998 1.75
0.57099998 0.71899998 1.747
0.57999998 0.71700001 1.738
0.58899999 0.71499997 1.7309999
0.60600001 0.72100002 1.743
0.61699998 0.722 1.74
0.62599999 0.71899998 1.73
0.63599998 0.71799999 1.724
0.64700001 0.71799999 1.721
0.65899998 0.71899998 1.72
0.67199999 0.72100002 1.721
0.68099999 0.71899998 1.711
0.69499999 0.722 1.716
0.69999999 0.71600002 1.697
0.71499997 0.71899998 1.702
0.727 0.72000003 1.7
0.73900002 0.722 1.699
0.74900001 0.72000003 1.692
0.76200002 0.722 1.692
0.77399999 0.72299999 1.689
0.78500003 0.72399998 1.686
0.79799998 0.72500002 1.686
0.80400002 0.72000003 1.67
0.815 0.72100002 1.666
0.83099997 0.72399998 1.67
0.83899999 0.72100002 1.659
0.84799999 0.72000003 1.651
0.86199999 0.72299999 1.652
0.87699997 0.72600001 1.654
0.889 0.72600001 1.65
0.89399999 0.72100002 1.6339999
0.91500002 0.72899997 1.647
0.91299999 0.71899998 1.619
0.92400002 0.71899998 1.614
0.94599998 0.727 1.628
0.94499999 0.71799999 1.602
0.93800002 0.70499998 1.566
0.93900001 0.69700003 1.544
-0.95999998 0.72500002 1.577
-0.93900001 0.71700001 1.566
-0.93199998 0.72000003 1.577
-0.92500001 0.72299999 1.59
-0.90600002 0.71600002 1.58
-0.89399999 0.71600002 1.584
-0.88800001 0.71899998 1.596
-0.87099999 0.71499997 1.59
-0.85600001 0.71100003 1.587
-0.84399998 0.70999998 1.589
-0.83499998 0.71200001 1.598
-0.82599998 0.71399999 1.607
-0.81099999 0.70999998 1.603
-0.80000001 0.70999998 1.607
-0.79000002 0.70999998 1.613
-0.787 0.71799999 1.6339999
-0.764 0.70599997 1.6109999
-0.76200002 0.71399999 1.635
-0.745 0.708 1.625
-0.736 0.70999998 1.633
-0.727 0.71200001 1.642
-0.713 0.70899999 1.638
-0.704 0.71100003 1.647
-0.69800001 0.71499997 1.661
-0.68099999 0.70899999 1.651
-0.671 0.70999998 1.656
-0.66000003 0.70899999 1.659
-0.64999998 0.70999998 1.665
-0.63499999 0.70599997 1.658
-0.62699997 0.70899999 1.669
-0.61699998 0.70899999 1.673
-0.60299999 0.70499998 1.6670001
-0.59299999 0.70599997 1.673
-0.57700002 0.69999999 1.661
-0.574 0.70999998 1.687
-0.56099999 0.70700002 1.684
-0.55000001 0.70599997 1.684
-0.53899997 0.70599997 1.688
-0.52899998 0.70700002 1.692
-0.51599997 0.704 1.688
-0.50599998 0.704 1.692
-0.49700001 0.70700002 1.701
-0.48800001 0.70899999 1.709
-0.47499999 0.70599997 1.704
-0.465 0.708 1.711
-0.45500001 0.70999998 1.7180001
-0.44299999 0.70700002 1.715
-0.43200001 0.70700002 1.716
-0.41999999 0.704 1.7130001
-0.41 0.70499998 1.715
-0.39899999 0.70499998 1.72
-0.38800001 0.70300001 1.717
-0.377 0.70300001 1.7180001
-0.36899999 0.708 1.733
-0.35600001 0.704 1.725
-0.347 0.708 1.735
-0.33399999 0.70300001 1.726
-0.324 0.704 1.73
-0.31400001 0.70599997 1.7359999
-0.303 0.70599997 1.739
-0.292 0.70499998 1.739
-0.28099999 0.704 1.737
-0.27200001 0.70700002 1.747
-0.25999999 0.704 1.74
-0.252 0.71200001 1.76
-0.23999999 0.70999998 1.757
-0.229 0.708 1.7539999
-0.219 0.70899999 1.758
-0.208 0.70899999 1.7589999
-0.198 0.713 1.7690001
-0.185 0.70499998 1.751
-0.175 0.70899999 1.761
-0.16500001 0.708 1.761
-0.154 0.70899999 1.763
-0.14300001 0.708 1.763
-0.133 0.71399999 1.777
-0.123 0.713 1.777
-0.112 0.71200001 1.775
-0.101 0.71499997 1.781
-0.090000004 0.713 1.777
-0.079000004 0.71200001 1.776
-0.068999998 0.713 1.779
-0.057999998 0.713 1.779
-0.046999998 0.71200001 1.778
-0.035999998 0.70999998 1.771
-0.025 0.71100003 1.774
-0.014 0.713 1.78
-0.0040000002 0.71200001 1.778
0.0060000001 0.71200001 1.778
0.017000001 0.71399999 1.783
0.028000001 0.71399999 1.784
0.039000001 0.71799999 1.7920001
0.050000001 0.71499997 1.784
0.059999999 0.71499997 1.784
0.071000002 0.71600002 1.785
0.082000002 0.71499997 1.783
0.093000002 0.71799999 1.791
0.104 0.71799999 1.79
0.115 0.71799999 1.79
0.126 0.72000003 1.793
0.13699999 0.71899998 1.789
0.147 0.71700001 1.784
0.15800001 0.71799999 1.786
0.169 0.71700001 1.784
0.18000001 0.71700001 1.781
0.192 0.71899998 1.7869999
0.20100001 0.71399999 1.773
0.213 0.71700001 1.779
0.22400001 0.71799999 1.781
0.235 0.71799999 1.779
0.245 0.71600002 1.774
0.257 0.71799999 1.777
0.26699999 0.71600002 1.77
0.278 0.71700001 1.771
0.287 0.713 1.76
0.29800001 0.71399999 1.76
0.308 0.71100003 1.751
0.32100001 0.71700001 1.7640001
0.33000001 0.713 1.753
0.34200001 0.71600002 1.758
0.35299999 0.71600002 1.756
0.36399999 0.71600002 1.7539999
0.37400001 0.71399999 1.748
0.38699999 0.71899998 1.757
0.39700001 0.71600002 1.748
0.40700001 0.71399999 1.742
0.41800001 0.71600002 1.743
0.42899999 0.71600002 1.742
0.44100001 0.71799999 1.744
0.45300001 0.71899998 1.744
0.46200001 0.71600002 1.735
0.47299999 0.71700001 1.733
0.48300001 0.71499997 1.727
0.495 0.71700001 1.728
0.505 0.71600002 1.724
0.51599997 0.71600002 1.721
0.528 0.71799999 1.722
0.537 0.71499997 1.711
