# .PCD v0.7 - Point Cloud Data file format
VERSION 0.7
FIELDS x y z
SIZE 4 4 4
TYPE F F F
COUNT 1 1 1
WIDTH 1730
HEIGHT 1
VIEWPOINT 0 0 0 1 0 0 0
POINTS 1730
DATA ascii
-0.030999999 0.63200003 2.302
-0.017999999 0.63499999 2.313
-0.0040000002 0.63300002 2.3050001
0.0080000004 0.63300002 2.3039999
0.022 0.63599998 2.3139999
0.035999998 0.63499999 2.3139999
0.048999999 0.63700002 2.3199999
0.063000001 0.63499999 2.313
0.075999998 0.63599998 2.3150001
0.090000004 0.63700002 2.3199999
0.103 0.63499999 2.3099999
0.117 0.63499999 2.309
0.131 0.63800001 2.319
0.14399999 0.63700002 2.3139999
0.15800001 0.63599998 2.313
0.17200001 0.639 2.3199999
0.186 0.639 2.322
0.199 0.63700002 2.3110001
0.211 0.634 2.3
0.22499999 0.63599998 2.306
0.23999999 0.63800001 2.312
0.25299999 0.63700002 2.3080001
0.26699999 0.63800001 2.309
0.28200001 0.63999999 2.316
0.294 0.63700002 2.303
0.30700001 0.63599998 2.296
0.32300001 0.63999999 2.312
0.33500001 0.639 2.3039999
0.34799999 0.63800001 2.299
0.36300001 0.639 2.302
0.37799999 0.64099997 2.3080001
0.39300001 0.64300001 2.313
0.405 0.64099997 2.303
0.41999999 0.64300001 2.3080001
0.433 0.64200002 2.303
0.447 0.64200002 2.3
0.463 0.64600003 2.3110001
0.47499999 0.64399999 2.302
0.49200001 0.648 2.3139999
0.505 0.64700001 2.3080001
0.51700002 0.64499998 2.2969999
0.53299999 0.64700001 2.3039999
0.546 0.64600003 2.2969999
0.55900002 0.64499998 2.2909999
0.57800001 0.65100002 2.3069999
0.58700001 0.64600003 2.286
0.60600001 0.65200001 2.3039999
0.61900002 0.65100002 2.2969999
0.634 0.65100002 2.296
0.64499998 0.64899999 2.283
0.65799999 0.648 2.2780001
0.67500001 0.65100002 2.286
0.68900001 0.65100002 2.28
0.70599997 0.65399998 2.2869999
0.72100002 0.65499997 2.2850001
0.72899997 0.64999998 2.2639999
0.75 0.65600002 2.2820001
0.76300001 0.65499997 2.276
0.77700001 0.65499997 2.27
0.79699999 0.66000003 2.283
0.80500001 0.65600002 2.2639999
0.829 0.66299999 2.286
0.83700001 0.65799999 2.2650001
0.85299999 0.66000003 2.267
0.861 0.65499997 2.244
0.88 0.65899998 2.253
0.898 0.662 2.2579999
0.91000003 0.66000003 2.247
0.926 0.662 2.2490001
0.94199997 0.66299999 2.247
0.95200002 0.66100001 2.233
0.972 0.66399997 2.24
0.98500001 0.66399997 2.233
1.008 0.67000002 2.2479999
1.026 0.67199999 2.25
1.0319999 0.66600001 2.2249999
1.043 0.66399997 2.2119999
1.0650001 0.67000002 2.224
1.082 0.671 2.224
1.097 0.67199999 2.2179999
1.114 0.67299998 2.2179999
1.138 0.67900002 2.23
1.147 0.676 2.214
1.1670001 0.67900002 2.2179999
1.177 0.67699999 2.2030001
1.194 0.67799997 2.2019999
1.216 0.68199998 2.2090001
1.232 0.68300003 2.204
1.2410001 0.68000001 2.188
1.279 0.69199997 2.221
1.3150001 0.704 2.25
-1.179 0.64600003 2.017
-1.159 0.64300001 2.013
-1.151 0.64499998 2.0280001
-1.14 0.64700001 2.039
-1.1160001 0.64099997 2.027
-1.109 0.64499998 2.0450001
-1.09 0.64200002 2.0409999
-1.075 0.64099997 2.0439999
-1.061 0.63999999 2.0480001
-1.049 0.64099997 2.0569999
-1.034 0.63999999 2.0599999
-1.012 0.63499999 2.0480001
-1.01 0.64200002 2.076
-1 0.64399999 2.0880001
-0.97899997 0.639 2.079
-0.96399999 0.63800001 2.0799999
-0.94800001 0.63599998 2.0799999
-0.94499999 0.64300001 2.109
-0.92799997 0.64099997 2.105
-0.90799999 0.63599998 2.0940001
-0.89600003 0.63700002 2.1040001
-0.88499999 0.639 2.1140001
-0.866 0.63499999 2.105
-0.85500002 0.63599998 2.1140001
-0.84200001 0.63599998 2.1199999
-0.833 0.63999999 2.1370001
-0.81400001 0.63599998 2.1270001
-0.80299997 0.63700002 2.135
-0.78299999 0.63200003 2.122
-0.77200001 0.63300002 2.132
-0.76200002 0.63700002 2.148
-0.74699998 0.63499999 2.1440001
-0.73299998 0.634 2.148
-0.72000003 0.634 2.151
-0.70599997 0.634 2.155
-0.69499999 0.63599998 2.164
-0.67699999 0.63099998 2.152
-0.67000002 0.63800001 2.178
-0.65700001 0.63800001 2.1819999
-0.64099997 0.63499999 2.1760001
-0.62599999 0.63300002 2.1730001
-0.611 0.63200003 2.1719999
-0.60100001 0.63499999 2.1849999
-0.58600003 0.63300002 2.1830001
-0.57200003 0.63200003 2.1819999
-0.55400002 0.62699997 2.1689999
-0.54500002 0.63200003 2.1889999
-0.53200001 0.63200003 2.191
-0.51899999 0.63200003 2.1949999
-0.50700003 0.634 2.204
-0.491 0.63099998 2.1949999
-0.479 0.63099998 2.1989999
-0.46799999 0.63499999 2.2149999
-0.454 0.634 2.214
-0.44100001 0.63300002 2.214
-0.426 0.63200003 2.211
-0.41299999 0.63099998 2.2119999
-0.40000001 0.63200003 2.2160001
-0.38800001 0.63300002 2.223
-0.375 0.634 2.2279999
-0.36000001 0.63200003 2.2219999
-0.347 0.63200003 2.2260001
-0.33500001 0.63300002 2.2309999
-0.322 0.63499999 2.237
-0.308 0.63200003 2.2309999
-0.29499999 0.63300002 2.233
-0.28200001 0.634 2.2390001
-0.26800001 0.63300002 2.2379999
-0.255 0.634 2.2420001
-0.243 0.63499999 2.247
-0.23 0.63599998 2.253
-0.21600001 0.63499999 2.25
-0.20299999 0.63499999 2.2520001
-0.189 0.63300002 2.247
-0.176 0.634 2.25
-0.163 0.63499999 2.2550001
-0.15000001 0.63700002 2.2639999
-0.13699999 0.63599998 2.26
-0.124 0.63700002 2.2639999
-0.11 0.63700002 2.263
-0.097000003 0.639 2.2739999
-0.083999999 0.63700002 2.2639999
-0.071000002 0.63800001 2.2690001
-0.057 0.63599998 2.2639999
-0.044 0.63800001 2.2690001
-0.030999999 0.639 2.2750001
-0.017000001 0.63999999 2.279
-0.0040000002 0.639 2.276
0.0080000004 0.63800001 2.2709999
0.022 0.63800001 2.2709999
0.035 0.64099997 2.28
0.048999999 0.64099997 2.283
0.061999999 0.63999999 2.277
0.075000003 0.63999999 2.276
0.089000002 0.64099997 2.2809999
0.102 0.64099997 2.28
0.115 0.639 2.273
0.12899999 0.64099997 2.2780001
0.142 0.64099997 2.2780001
0.156 0.64200002 2.28
0.169 0.64099997 2.277
0.183 0.64200002 2.279
0.19599999 0.64099997 2.276
0.20900001 0.64099997 2.2750001
0.223 0.64200002 2.277
0.237 0.64300001 2.2780001
0.25 0.64300001 2.276
0.26300001 0.64099997 2.2690001
0.27700001 0.64200002 2.2709999
0.289 0.63999999 2.2620001
0.30199999 0.63999999 2.2609999
0.317 0.64200002 2.267
0.329 0.63999999 2.257
0.34599999 0.64600003 2.2780001
0.35699999 0.64200002 2.2620001
0.37099999 0.64300001 2.2609999
0.384 0.64300001 2.2590001
0.39899999 0.64600003 2.2679999
0.414 0.64700001 2.27
0.428 0.648 2.273
0.44100001 0.64700001 2.266
0.45500001 0.64899999 2.27
0.46900001 0.64899999 2.2690001
0.48300001 0.64899999 2.2650001
0.49700001 0.64999998 2.2679999
0.51099998 0.65100002 2.2679999
0.52200001 0.64700001 2.2509999
0.54100001 0.65399998 2.2709999
0.55299997 0.65200001 2.2609999
0.565 0.65100002 2.2539999
0.579 0.65100002 2.2509999
0.597 0.65600002 2.266
0.60799998 0.65200001 2.25
0.62199998 0.653 2.2479999
0.634 0.65200001 2.2420001
0.65200001 0.65499997 2.2509999
0.66000003 0.65100002 2.2309999
0.67799997 0.65499997 2.2409999
0.69099998 0.65399998 2.2360001
0.70700002 0.65600002 2.2379999
0.72000003 0.65499997 2.2309999
0.73199999 0.65399998 2.2219999
0.75199997 0.66000003 2.2390001
0.764 0.65799999 2.2290001
0.773 0.65399998 2.2119999
0.79500002 0.66100001 2.2320001
0.80599999 0.65899998 2.2190001
0.833 0.66900003 2.25
0.83700001 0.66100001 2.2179999
0.84500003 0.65700001 2.2
0.866 0.66299999 2.2130001
0.884 0.66600001 2.22
0.89700001 0.66500002 2.2130001
0.91299999 0.66600001 2.211
0.92900002 0.66799998 2.211
0.94 0.66600001 2.2
0.95499998 0.667 2.1960001
0.96600002 0.66500002 2.1849999
0.98500001 0.66799998 2.191
0.99699998 0.667 2.1819999
1.008 0.66500002 2.1689999
1.025 0.667 2.171
1.0420001 0.66900003 2.171
1.052 0.667 2.1570001
1.0700001 0.66900003 2.1600001
1.098 0.67799997 2.181
1.099 0.67000002 2.151
1.1289999 0.67900002 2.174
1.1440001 0.68000001 2.1700001
1.153 0.67699999 2.154
1.165 0.676 2.1440001
1.1799999 0.676 2.1389999
1.2130001 0.68699998 2.1670001
1.224 0.685 2.154
1.251 0.69199997 2.1689999
1.294 0.708 2.2119999
-1.154 0.64600003 1.971
-1.145 0.648 1.984
-1.136 0.64999998 1.998
-1.122 0.64999998 2.003
-1.1 0.64499998 1.993
-1.0880001 0.64499998 2.0009999
-1.073 0.64499998 2.0039999
-1.064 0.64700001 2.0179999
-1.0470001 0.64499998 2.0179999
-1.039 0.648 2.033
-1.026 0.648 2.039
-1.012 0.648 2.0439999
-0.99000001 0.64200002 2.0320001
-0.98199999 0.64600003 2.0469999
-0.96899998 0.64600003 2.0539999
-0.954 0.64499998 2.0550001
-0.93699998 0.64200002 2.0510001
-0.926 0.64300001 2.0610001
-0.912 0.64300001 2.0650001
-0.89200002 0.63800001 2.0539999
-0.889 0.64600003 2.0840001
-0.87 0.64099997 2.075
-0.85699999 0.64099997 2.079
-0.84299999 0.63999999 2.0799999
-0.83099997 0.64099997 2.089
-0.81400001 0.63800001 2.0829999
-0.80199999 0.639 2.0910001
-0.79000002 0.63999999 2.099
-0.77700001 0.63999999 2.102
-0.76300001 0.63999999 2.105
-0.75400001 0.64300001 2.1199999
-0.73400003 0.63700002 2.1029999
-0.72100002 0.63700002 2.108
-0.71100003 0.639 2.1199999
-0.69599998 0.63800001 2.1210001
-0.68199998 0.63700002 2.122
-0.671 0.639 2.132
-0.65700001 0.639 2.1329999
-0.64099997 0.63599998 2.1259999
-0.63099998 0.63800001 2.1389999
-0.61699998 0.63700002 2.1389999
-0.60500002 0.63800001 2.145
-0.59399998 0.63999999 2.155
-0.57999998 0.639 2.1559999
-0.56400001 0.63700002 2.1500001
-0.54900002 0.634 2.145
-0.537 0.63499999 2.1500001
-0.52399999 0.63499999 2.154
-0.51200002 0.63700002 2.161
-0.498 0.63499999 2.1589999
-0.486 0.63599998 2.165
-0.472 0.63599998 2.1670001
-0.46000001 0.63700002 2.174
-0.44800001 0.639 2.1819999
-0.433 0.63499999 2.171
-0.41999999 0.63499999 2.175
-0.40900001 0.63800001 2.1860001
-0.39300001 0.634 2.1760001
-0.384 0.63999999 2.197
-0.37 0.639 2.194
-0.35499999 0.63499999 2.1849999
-0.34200001 0.63599998 2.1889999
-0.33000001 0.63700002 2.1949999
-0.31600001 0.63599998 2.1919999
-0.30399999 0.63700002 2.197
-0.28999999 0.63599998 2.197
-0.27900001 0.63999999 2.2130001
-0.26499999 0.639 2.21
-0.252 0.639 2.2119999
-0.23899999 0.639 2.2130001
-0.226 0.63700002 2.2079999
-0.213 0.63800001 2.211
-0.2 0.63800001 2.2130001
-0.18700001 0.63999999 2.2190001
-0.175 0.64099997 2.2260001
-0.161 0.64099997 2.224
-0.148 0.639 2.22
-0.13500001 0.63999999 2.2249999
-0.122 0.64200002 2.233
-0.109 0.64099997 2.2290001
-0.096000001 0.64099997 2.2290001
-0.082999997 0.64300001 2.2360001
-0.07 0.64399999 2.24
-0.057 0.64399999 2.2420001
-0.043000001 0.64300001 2.2379999
-0.029999999 0.64499998 2.244
-0.017000001 0.64300001 2.2390001
-0.0040000002 0.64200002 2.234
0.0080000004 0.64099997 2.2309999
0.021 0.64399999 2.2420001
0.035 0.64600003 2.247
0.048 0.64399999 2.243
0.061000001 0.648 2.2539999
0.074000001 0.64600003 2.247
0.088 0.648 2.256
0.101 0.648 2.2520001
0.114 0.648 2.253
0.127 0.64700001 2.2490001
0.14 0.64700001 2.247
0.154 0.648 2.253
0.16599999 0.64499998 2.2390001
0.18099999 0.64999998 2.2550001
0.19400001 0.64700001 2.247
0.207 0.648 2.2490001
0.22 0.648 2.2449999
0.234 0.64899999 2.247
0.24600001 0.64700001 2.2409999
0.25999999 0.64899999 2.2449999
0.27200001 0.64600003 2.233
0.28600001 0.648 2.2390001
0.30000001 0.648 2.2390001
0.31299999 0.64899999 2.24
0.32499999 0.64600003 2.2290001
0.33899999 0.648 2.2320001
0.354 0.64999998 2.2390001
0.36700001 0.64999998 2.2349999
0.38100001 0.65100002 2.2379999
0.39399999 0.64999998 2.2320001
0.40599999 0.64899999 2.227
0.42199999 0.653 2.237
0.433 0.64899999 2.221
0.44999999 0.65399998 2.2379999
0.46200001 0.653 2.2320001
0.47600001 0.65399998 2.2309999
0.49000001 0.65399998 2.2290001
0.50400001 0.65499997 2.2320001
0.51499999 0.653 2.22
0.52999997 0.65499997 2.223
0.542 0.65200001 2.2130001
0.55599999 0.653 2.2119999
0.574 0.65799999 2.227
0.58499998 0.65600002 2.2149999
0.597 0.65499997 2.2079999
0.61000001 0.65499997 2.2049999
0.625 0.65600002 2.2049999
0.63999999 0.65700001 2.2060001
0.65499997 0.65899998 2.2090001
0.66500002 0.65600002 2.1949999
0.68099999 0.65799999 2.1989999
0.69800001 0.662 2.207
0.70700002 0.65700001 2.188
0.72500002 0.662 2.2
0.73799998 0.66100001 2.1930001
0.755 0.66399997 2.201
0.76499999 0.66100001 2.184
0.78100002 0.66299999 2.1889999
0.796 0.66399997 2.187
0.81 0.66399997 2.184
0.82499999 0.66600001 2.1849999
0.83700001 0.66399997 2.174
0.852 0.66600001 2.174
0.866 0.66600001 2.1689999
0.87599999 0.66299999 2.1559999
0.898 0.66900003 2.1719999
0.912 0.67000002 2.1689999
0.921 0.66600001 2.152
0.93599999 0.667 2.1489999
0.94800001 0.66600001 2.141
0.96700001 0.67000002 2.148
0.98199999 0.671 2.1459999
0.99900001 0.67299998 2.1459999
1.003 0.667 2.1210001
1.021 0.66900003 2.1229999
1.036 0.671 2.122
1.057 0.67500001 2.1300001
1.059 0.66799998 2.1010001
1.08 0.67199999 2.109
1.097 0.67400002 2.1099999
1.119 0.67900002 2.119
1.13 0.67699999 2.1070001
1.136 0.67199999 2.086
1.165 0.68099999 2.1070001
1.187 0.68699998 2.1170001
1.2079999 0.69099998 2.122
1.2130001 0.685 2.0999999
1.2410001 0.69300002 2.1159999
-1.146 0.65399998 1.952
-1.137 0.65700001 1.966
-1.1160001 0.65200001 1.959
-1.104 0.653 1.967
-1.094 0.65499997 1.979
-1.068 0.64700001 1.961
-1.058 0.64899999 1.973
-1.045 0.64899999 1.979
-1.0319999 0.64899999 1.984
-1.026 0.653 2.003
-1.0039999 0.648 1.992
-0.99299997 0.64899999 2.0020001
-0.986 0.653 2.02
-0.972 0.65200001 2.0220001
-0.95599997 0.64999998 2.0209999
-0.94 0.648 2.02
-0.92299998 0.64499998 2.017
-0.912 0.64700001 2.0280001
-0.90200001 0.64899999 2.039
-0.88999999 0.64899999 2.0450001
-0.87099999 0.64499998 2.036
-0.85799998 0.64600003 2.0420001
-0.84200001 0.64300001 2.039
-0.829 0.64300001 2.0439999
-0.81800002 0.64399999 2.053
-0.80699998 0.64600003 2.063
-0.79400003 0.64600003 2.0650001
-0.77700001 0.64300001 2.0599999
-0.764 0.64300001 2.0639999
-0.755 0.64600003 2.0780001
-0.73900002 0.64300001 2.0739999
-0.727 0.64399999 2.0810001
-0.71399999 0.64399999 2.0840001
-0.70099998 0.64399999 2.089
-0.68699998 0.64200002 2.0880001
-0.67400002 0.64200002 2.0910001
-0.662 0.64300001 2.098
-0.648 0.64200002 2.098
-0.63599998 0.64300001 2.1059999
-0.62099999 0.64099997 2.102
-0.60900003 0.64200002 2.1059999
-0.59500003 0.64099997 2.1059999
-0.58499998 0.64399999 2.1199999
-0.57099998 0.64300001 2.1199999
-0.55699998 0.64200002 2.119
-0.546 0.64300001 2.128
-0.53100002 0.64099997 2.122
-0.51800001 0.64099997 2.125
-0.50400001 0.639 2.1229999
-0.49399999 0.64300001 2.1389999
-0.47799999 0.639 2.1270001
-0.46700001 0.64099997 2.138
-0.45199999 0.63800001 2.1289999
-0.442 0.64300001 2.1489999
-0.42899999 0.64300001 2.1500001
-0.41499999 0.64200002 2.148
-0.403 0.64200002 2.152
-0.38999999 0.64300001 2.1559999
-0.377 0.64200002 2.155
-0.36500001 0.64399999 2.164
-0.352 0.64300001 2.164
-0.34 0.64499998 2.171
-0.32600001 0.64300001 2.168
-0.31200001 0.64099997 2.161
-0.30000001 0.64200002 2.168
-0.287 0.64200002 2.1700001
-0.27500001 0.64300001 2.1730001
-0.26100001 0.64099997 2.168
-0.249 0.64399999 2.1789999
-0.236 0.64300001 2.1760001
-0.22400001 0.64399999 2.184
-0.211 0.64499998 2.187
-0.197 0.64200002 2.178
-0.185 0.64600003 2.1930001
-0.17200001 0.64300001 2.184
-0.15899999 0.64600003 2.1949999
-0.146 0.64399999 2.1889999
-0.133 0.64499998 2.191
-0.121 0.648 2.2030001
-0.108 0.64700001 2.201
-0.094999999 0.64999998 2.211
-0.082000002 0.648 2.204
-0.068999998 0.64499998 2.194
-0.056000002 0.64999998 2.2130001
-0.043000001 0.648 2.207
-0.029999999 0.648 2.2079999
-0.017000001 0.64600003 2.201
-0.0040000002 0.64700001 2.2030001
0.0080000004 0.64700001 2.2030001
0.021 0.64999998 2.2130001
0.034000002 0.64899999 2.21
0.046999998 0.65200001 2.22
0.059999999 0.64899999 2.211
0.072999999 0.65100002 2.2160001
0.086999997 0.65200001 2.22
0.1 0.65499997 2.227
0.113 0.65200001 2.2190001
0.125 0.65100002 2.2130001
0.139 0.65499997 2.227
0.152 0.65399998 2.2219999
0.16500001 0.65200001 2.2160001
0.178 0.653 2.217
0.192 0.65499997 2.2219999
0.205 0.65499997 2.223
0.21799999 0.65399998 2.217
0.23 0.65200001 2.211
0.244 0.65399998 2.214
0.257 0.65499997 2.217
0.27000001 0.653 2.21
0.28299999 0.653 2.207
0.296 0.653 2.207
0.308 0.65200001 2.201
0.322 0.653 2.201
0.33500001 0.65200001 2.1989999
0.34900001 0.65399998 2.2019999
0.361 0.65200001 2.1949999
0.37599999 0.65600002 2.2060001
0.389 0.65499997 2.2
0.40099999 0.653 2.1930001
0.414 0.653 2.1900001
0.42699999 0.653 2.188
0.44100001 0.65499997 2.1919999
0.45500001 0.65600002 2.191
0.46700001 0.65499997 2.187
0.48100001 0.65600002 2.187
0.498 0.66000003 2.1989999
0.50999999 0.65899998 2.1919999
0.523 0.65899998 2.1900001
0.53299999 0.65499997 2.174
0.546 0.65499997 2.171
0.56 0.65600002 2.1700001
0.57300001 0.65499997 2.165
0.588 0.65700001 2.1689999
0.60399997 0.66100001 2.177
0.61900002 0.66299999 2.1800001
0.63099998 0.662 2.1730001
0.64499998 0.662 2.171
0.65600002 0.66000003 2.161
0.67199999 0.66299999 2.168
0.68900001 0.667 2.1760001
0.69700003 0.66100001 2.154
0.71200001 0.66299999 2.155
0.72500002 0.662 2.1500001
0.73900002 0.66299999 2.148
0.75400001 0.66500002 2.1500001
0.76899999 0.66600001 2.151
0.78799999 0.671 2.1600001
0.79699999 0.667 2.145
0.80699998 0.66500002 2.132
0.82200003 0.66600001 2.1329999
0.838 0.66799998 2.135
0.85000002 0.667 2.1270001
0.86199999 0.66600001 2.118
0.88 0.67000002 2.125
0.898 0.67299998 2.131
0.90399998 0.667 2.108
0.92299998 0.67199999 2.1170001
0.93599999 0.671 2.1099999
0.949 0.671 2.1040001
0.96700001 0.67400002 2.108
0.98199999 0.67500001 2.1059999
0.99299997 0.67299998 2.095
1.012 0.67699999 2.1010001
1.03 0.68000001 2.1040001
1.036 0.67500001 2.0840001
1.054 0.67799997 2.0869999
1.066 0.67699999 2.0780001
1.08 0.67699999 2.072
1.092 0.676 2.063
1.117 0.68300003 2.079
1.1289999 0.68199998 2.0699999
1.1440001 0.68300003 2.066
1.148 0.67699999 2.0420001
1.2 0.69999999 2.1029999
1.2 0.69199997 2.072
1.196 0.68099999 2.0350001
-1.137 0.662 1.934
-1.119 0.65899998 1.931
-1.094 0.65200001 1.916
-1.089 0.65700001 1.937
-1.071 0.65399998 1.933
-1.0599999 0.65499997 1.943
-1.049 0.65600002 1.952
-1.027 0.64999998 1.9400001
-1.02 0.65399998 1.9579999
-1.01 0.65600002 1.97
-0.99000001 0.65100002 1.959
-0.97799999 0.65200001 1.9680001
-0.96799999 0.65399998 1.978
-0.954 0.653 1.982
-0.94099998 0.653 1.985
-0.93099999 0.65499997 1.997
-0.91299999 0.65100002 1.992
-0.89499998 0.648 1.9859999
-0.88499999 0.64899999 1.9960001
-0.88099998 0.65600002 2.0209999
-0.85900003 0.64899999 2.0050001
-0.84600002 0.64899999 2.0090001
-0.83700001 0.65200001 2.0239999
-0.82200003 0.64999998 2.023
-0.81099999 0.65200001 2.0320001
-0.79000002 0.64499998 2.016
-0.78299999 0.64999998 2.0350001
-0.76999998 0.64899999 2.0369999
-0.75300002 0.64600003 2.03
-0.74199998 0.648 2.04
-0.73500001 0.65200001 2.059
-0.71700001 0.648 2.049
-0.70099998 0.64499998 2.043
-0.69099998 0.64700001 2.0550001
-0.68099999 0.64999998 2.0669999
-0.662 0.64399999 2.0510001
-0.653 0.648 2.0669999
-0.64300001 0.64999998 2.0769999
-0.625 0.64399999 2.0639999
-0.616 0.64899999 2.082
-0.60000002 0.64600003 2.075
-0.58499998 0.64300001 2.0680001
-0.57599998 0.64700001 2.085
-0.56400001 0.648 2.092
-0.55199999 0.648 2.0940001
-0.53899997 0.648 2.0969999
-0.52399999 0.64499998 2.0910001
-0.514 0.64899999 2.105
-0.49900001 0.64600003 2.098
-0.486 0.64499998 2.0999999
-0.472 0.64399999 2.099
-0.46000001 0.64499998 2.1040001
-0.449 0.64700001 2.1129999
-0.433 0.64200002 2.0969999
-0.42399999 0.648 2.1199999
-0.41 0.64600003 2.1170001
-0.39700001 0.64499998 2.1159999
-0.38600001 0.648 2.1270001
-0.373 0.648 2.131
-0.359 0.64499998 2.1199999
-0.347 0.648 2.132
-0.333 0.64499998 2.125
-0.324 0.65200001 2.1500001
-0.31 0.64899999 2.141
-0.29699999 0.64899999 2.1429999
-0.28299999 0.64600003 2.1340001
-0.271 0.64700001 2.1400001
-0.25799999 0.64700001 2.1429999
-0.24699999 0.65100002 2.1570001
-0.233 0.64700001 2.145
-0.22 0.648 2.1489999
-0.208 0.64899999 2.155
-0.19499999 0.648 2.151
-0.183 0.64999998 2.158
-0.17 0.65100002 2.1619999
-0.15700001 0.65100002 2.1630001
-0.145 0.65200001 2.1689999
-0.131 0.648 2.155
-0.119 0.64999998 2.1619999
-0.106 0.65200001 2.1700001
-0.093999997 0.65200001 2.1700001
-0.081 0.65200001 2.171
-0.068000004 0.65200001 2.171
-0.055 0.65200001 2.171
-0.041999999 0.653 2.175
-0.029999999 0.65499997 2.184
-0.017000001 0.653 2.175
-0.0040000002 0.653 2.1760001
0.0080000004 0.653 2.177
0.021 0.65399998 2.1800001
0.034000002 0.653 2.177
0.046999998 0.65799999 2.1919999
0.059 0.65600002 2.1849999
0.071999997 0.65600002 2.1860001
0.085000001 0.65499997 2.181
0.097999997 0.65700001 2.187
0.112 0.65899998 2.194
0.124 0.65799999 2.191
0.13699999 0.65700001 2.187
0.15000001 0.65799999 2.1900001
0.162 0.653 2.1719999
0.176 0.65700001 2.184
0.189 0.65899998 2.1889999
0.20200001 0.65799999 2.184
0.215 0.65899998 2.1860001
0.228 0.66000003 2.188
0.241 0.66000003 2.188
0.25299999 0.65600002 2.1730001
0.26699999 0.65899998 2.181
0.28 0.65899998 2.181
0.292 0.65700001 2.174
0.30500001 0.65700001 2.1700001
0.31799999 0.65700001 2.1689999
0.329 0.65399998 2.1570001
0.34400001 0.65799999 2.171
0.35699999 0.65799999 2.168
0.37 0.65700001 2.1630001
0.38299999 0.65799999 2.164
0.396 0.65799999 2.1619999
0.41 0.66000003 2.165
0.42300001 0.66000003 2.164
0.435 0.65899998 2.1570001
0.44999999 0.662 2.1670001
0.461 0.65899998 2.152
0.47600001 0.662 2.1600001
0.49000001 0.66299999 2.161
0.50099999 0.66000003 2.1489999
0.514 0.66100001 2.148
0.52999997 0.66399997 2.1570001
0.54299998 0.66399997 2.1530001
0.55699998 0.66500002 2.1530001
0.56999999 0.66500002 2.151
0.57999998 0.662 2.1389999
0.59600002 0.66600001 2.1459999
0.60399997 0.66000003 2.1240001
0.62 0.66299999 2.132
0.63499999 0.66600001 2.1359999
0.64600003 0.66299999 2.1259999
0.65899998 0.66299999 2.1199999
0.67699999 0.66799998 2.1340001
0.69 0.66799998 2.128
0.70200002 0.667 2.122
0.71700001 0.66799998 2.1229999
0.727 0.66600001 2.112
0.74199998 0.667 2.1110001
0.755 0.667 2.1070001
0.76999998 0.66900003 2.108
0.78500003 0.671 2.1110001
0.80000001 0.67199999 2.1099999
0.81400001 0.67299998 2.108
0.82599998 0.67199999 2.0999999
0.838 0.671 2.092
0.85600001 0.67400002 2.098
0.86799997 0.67299998 2.0910001
0.87599999 0.67000002 2.076
0.89499998 0.67400002 2.0829999
0.90899998 0.67400002 2.079
0.92500001 0.676 2.0799999
0.93599999 0.67500001 2.072
0.95099998 0.67699999 2.0710001
0.96799999 0.67900002 2.072
0.97899997 0.67799997 2.063
0.991 0.67699999 2.0539999
1.007 0.67799997 2.053
1.03 0.685 2.0669999
1.0319999 0.67699999 2.04
1.051 0.68099999 2.0450001
1.0700001 0.685 2.05
1.079 0.68199998 2.036
1.092 0.68199998 2.029
1.103 0.68000001 2.0179999
1.119 0.68199998 2.017
1.141 0.68699998 2.026
1.15 0.68400002 2.0109999
1.177 0.69199997 2.0280001
1.171 0.68099999 1.989
-1.1160001 0.66299999 1.8940001
-1.098 0.66000003 1.892
-1.09 0.66299999 1.906
-1.08 0.66399997 1.9170001
-1.062 0.66100001 1.914
-1.043 0.65700001 1.908
-1.0319999 0.65799999 1.9170001
-1.016 0.65600002 1.916
-1.007 0.65899998 1.9299999
-0.995 0.65899998 1.937
-0.97899997 0.65700001 1.934
-0.96899998 0.65799999 1.9450001
-0.949 0.65399998 1.936
-0.94499999 0.66000003 1.959
-0.92699999 0.65600002 1.954
-0.912 0.65399998 1.9529999
-0.90399998 0.65700001 1.9680001
-0.889 0.65600002 1.969
-0.87400001 0.65399998 1.969
-0.85799998 0.65100002 1.964
-0.84799999 0.65399998 1.976
-0.83700001 0.65399998 1.983
-0.82300001 0.65399998 1.9859999
-0.80699998 0.65100002 1.9809999
-0.796 0.65200001 1.99
-0.78200001 0.65100002 1.99
-0.77200001 0.653 2.0020001
-0.75599998 0.64999998 1.997
-0.75 0.65600002 2.02
-0.73299998 0.65200001 2.01
-0.72299999 0.65499997 2.023
-0.71100003 0.65499997 2.027
-0.69499999 0.65200001 2.0209999
-0.68000001 0.64999998 2.0190001
-0.66900003 0.65100002 2.027
-0.65799999 0.65200001 2.0350001
-0.64600003 0.653 2.0409999
-0.63200003 0.65100002 2.0380001
-0.61699998 0.64899999 2.0339999
-0.602 0.64600003 2.029
-0.59299999 0.64999998 2.0450001
-0.57800001 0.64700001 2.0380001
-0.56900001 0.65100002 2.0550001
-0.55299997 0.648 2.0469999
-0.54299998 0.64999998 2.0569999
-0.53299999 0.65399998 2.0710001
-0.51599997 0.648 2.0569999
-0.505 0.64999998 2.066
-0.49000001 0.64700001 2.0580001
-0.47999999 0.64999998 2.0710001
-0.46799999 0.64999998 2.0739999
-0.45500001 0.64999998 2.075
-0.44299999 0.65100002 2.0810001
-0.43200001 0.65399998 2.092
-0.41800001 0.65200001 2.089
-0.40400001 0.64899999 2.0810001
-0.39300001 0.65200001 2.0929999
-0.38 0.64999998 2.0899999
-0.37 0.65399998 2.1059999
-0.354 0.64899999 2.0910001
-0.34299999 0.65200001 2.1010001
-0.331 0.65200001 2.1040001
-0.317 0.64999998 2.098
-0.30500001 0.65100002 2.105
-0.292 0.65100002 2.105
-0.28099999 0.653 2.1129999
-0.26800001 0.65200001 2.1110001
-0.255 0.64999998 2.108
-0.243 0.65200001 2.1129999
-0.23100001 0.65399998 2.1229999
-0.21600001 0.64899999 2.105
-0.205 0.65100002 2.115
-0.192 0.65100002 2.115
-0.18000001 0.653 2.1240001
-0.168 0.65499997 2.132
-0.155 0.653 2.1240001
-0.142 0.65399998 2.1289999
-0.13 0.65600002 2.135
-0.117 0.65499997 2.1340001
-0.105 0.65499997 2.1340001
-0.092 0.65399998 2.1300001
-0.079999998 0.65899998 2.1470001
-0.067000002 0.65799999 2.1470001
-0.055 0.65899998 2.151
-0.041999999 0.65700001 2.1429999
-0.028999999 0.65600002 2.141
-0.017000001 0.65799999 2.1470001
-0.0040000002 0.65799999 2.148
0.0080000004 0.65700001 2.145
0.02 0.65799999 2.1459999
0.033 0.65899998 2.1500001
0.046 0.662 2.158
0.059 0.66100001 2.154
0.071999997 0.66100001 2.1570001
0.083999999 0.65899998 2.148
0.097000003 0.662 2.158
0.11 0.66299999 2.1589999
0.122 0.65899998 2.1470001
0.13500001 0.65899998 2.148
0.147 0.65899998 2.1440001
0.161 0.662 2.154
0.17299999 0.66100001 2.1500001
0.186 0.66100001 2.1500001
0.199 0.66299999 2.155
0.212 0.66399997 2.1559999
0.22499999 0.662 2.151
0.237 0.662 2.148
0.25 0.662 2.1470001
0.26199999 0.66100001 2.142
0.27500001 0.66100001 2.141
0.289 0.66299999 2.1470001
0.30000001 0.66100001 2.1370001
0.31299999 0.65899998 2.131
0.32699999 0.66399997 2.1429999
0.33899999 0.66100001 2.1329999
0.34999999 0.65899998 2.125
0.36300001 0.65799999 2.1199999
0.37599999 0.66000003 2.1229999
0.389 0.66000003 2.122
0.403 0.662 2.1270001
0.41499999 0.66100001 2.122
0.43200001 0.667 2.1370001
0.44299999 0.66399997 2.1270001
0.456 0.66500002 2.128
0.46900001 0.66500002 2.1229999
0.48100001 0.66299999 2.1170001
0.495 0.66500002 2.1199999
0.505 0.662 2.108
0.51999998 0.66500002 2.1129999
0.53600001 0.66900003 2.1240001
0.54799998 0.66799998 2.119
0.55599999 0.66299999 2.0969999
0.57300001 0.667 2.1070001
0.583 0.66399997 2.096
0.59799999 0.667 2.1010001
0.61400002 0.66900003 2.1059999
0.625 0.66799998 2.099
0.639 0.66900003 2.099
0.65600002 0.67299998 2.1070001
0.66799998 0.67199999 2.0999999
0.67900002 0.67000002 2.0910001
0.68900001 0.667 2.079
0.70599997 0.671 2.0869999
0.71700001 0.67000002 2.0780001
0.72899997 0.66900003 2.0710001
0.74900001 0.67500001 2.0880001
0.759 0.67199999 2.073
0.77499998 0.676 2.0799999
0.78899997 0.676 2.0780001
0.80199999 0.676 2.0739999
0.81300002 0.67400002 2.062
0.82499999 0.67400002 2.0569999
0.83899999 0.67500001 2.0550001
0.861 0.68099999 2.0710001
0.87400001 0.68099999 2.0650001
0.88 0.676 2.0450001
0.89300001 0.676 2.04
0.91100001 0.68000001 2.046
0.91900003 0.676 2.029
0.93400002 0.67699999 2.0280001
0.94499999 0.676 2.0190001
0.95999998 0.67699999 2.0179999
0.97500002 0.67900002 2.017
0.99000001 0.68000001 2.0150001
1.006 0.68199998 2.016
1.022 0.68400002 2.016
1.028 0.67900002 1.9960001
1.046 0.68300003 2
1.0549999 0.68000001 1.985
1.072 0.68300003 1.988
1.091 0.68599999 1.993
1.096 0.68099999 1.972
1.12 0.68800002 1.985
1.13 0.68599999 1.973
1.154 0.69199997 1.985
1.182 0.70099998 2.0039999
-1.098 0.66500002 1.859
-1.084 0.66399997 1.864
-1.0700001 0.66299999 1.868
-1.0470001 0.65600002 1.853
-1.039 0.65899998 1.867
-1.035 0.66500002 1.89
-1.028 0.66799998 1.906
-0.99800003 0.65700001 1.878
-0.99199998 0.662 1.897
-0.977 0.65899998 1.896
-0.96899998 0.66299999 1.9119999
-0.95999998 0.66500002 1.924
-0.94499999 0.66299999 1.924
-0.93000001 0.66100001 1.923
-0.91900003 0.66299999 1.932
-0.90700001 0.66299999 1.9400001
-0.89700001 0.66500002 1.948
-0.87800002 0.66000003 1.939
-0.866 0.66100001 1.946
-0.85000002 0.65799999 1.942
-0.84299999 0.662 1.96
-0.82300001 0.65600002 1.946
-0.81300002 0.65799999 1.957
-0.80000001 0.65799999 1.961
-0.78799999 0.65799999 1.966
-0.77399999 0.65600002 1.965
-0.75800002 0.65399998 1.962
-0.74900001 0.65600002 1.973
-0.73799998 0.65799999 1.9809999
-0.72799999 0.66000003 1.994
-0.71399999 0.65899998 1.994
-0.69800001 0.65600002 1.987
-0.68599999 0.65600002 1.992
-0.67299998 0.65499997 1.994
-0.662 0.65700001 2.003
-0.64700001 0.65399998 1.9960001
-0.63700002 0.65600002 2.0079999
-0.62199998 0.65399998 2.0039999
-0.61000001 0.65399998 2.0079999
-0.59899998 0.65600002 2.017
-0.588 0.65799999 2.026
-0.57200003 0.65399998 2.016
-0.55900002 0.65200001 2.0150001
-0.54500002 0.64999998 2.0109999
-0.537 0.65499997 2.0309999
-0.52499998 0.65600002 2.036
-0.51099998 0.65499997 2.0339999
-0.498 0.653 2.0309999
-0.48500001 0.653 2.0350001
-0.47400001 0.65499997 2.043
-0.461 0.65399998 2.0420001
-0.45199999 0.65799999 2.0580001
-0.43700001 0.65399998 2.0480001
-0.426 0.65600002 2.056
-0.41299999 0.65600002 2.059
-0.40000001 0.65499997 2.0569999
-0.38800001 0.65600002 2.062
-0.375 0.65399998 2.059
-0.361 0.65200001 2.053
-0.35100001 0.65600002 2.069
-0.33700001 0.653 2.0599999
-0.32600001 0.65600002 2.073
-0.31400001 0.65700001 2.076
-0.301 0.65499997 2.072
-0.289 0.65600002 2.079
-0.27700001 0.65799999 2.0840001
-0.26499999 0.65799999 2.085
-0.252 0.65700001 2.0829999
-0.23999999 0.65700001 2.0869999
-0.227 0.65499997 2.082
-0.215 0.65600002 2.086
-0.20299999 0.65899998 2.0969999
-0.19 0.65600002 2.0869999
-0.178 0.65799999 2.096
-0.16599999 0.66100001 2.105
-0.154 0.66100001 2.105
-0.141 0.66000003 2.1040001
-0.12800001 0.65899998 2.0999999
-0.117 0.66299999 2.115
-0.104 0.66000003 2.105
-0.092 0.66299999 2.1159999
-0.079000004 0.66100001 2.1110001
-0.067000002 0.66299999 2.118
-0.054000001 0.66399997 2.122
-0.041999999 0.66600001 2.1270001
-0.028999999 0.66399997 2.1210001
-0.016000001 0.66399997 2.1210001
-0.0040000002 0.66500002 2.125
0.0080000004 0.66500002 2.1259999
0.02 0.66399997 2.1210001
0.033 0.66100001 2.1129999
0.045000002 0.66399997 2.122
0.057999998 0.662 2.1129999
0.071000002 0.66600001 2.1259999
0.082999997 0.66600001 2.1270001
0.094999999 0.66299999 2.118
0.108 0.66399997 2.1199999
0.12 0.66100001 2.109
0.133 0.66399997 2.118
0.146 0.66299999 2.115
0.15800001 0.66299999 2.1129999
0.17200001 0.66799998 2.1289999
0.185 0.66900003 2.131
0.197 0.66799998 2.1270001
0.208 0.662 2.108
0.222 0.667 2.1199999
0.236 0.67000002 2.1300001
0.24600001 0.66399997 2.109
0.25799999 0.66299999 2.1059999
0.27200001 0.667 2.1159999
0.28400001 0.66600001 2.1099999
0.29699999 0.66600001 2.1099999
0.31 0.66600001 2.1070001
0.32300001 0.667 2.109
0.33399999 0.66399997 2.0969999
0.347 0.66399997 2.098
0.36000001 0.66500002 2.099
0.373 0.66600001 2.098
0.38499999 0.66500002 2.0940001
0.40000001 0.66900003 2.105
0.41100001 0.667 2.096
0.42300001 0.66600001 2.0910001
0.435 0.66500002 2.0840001
0.44800001 0.667 2.0869999
0.45899999 0.66399997 2.076
0.47499999 0.66799998 2.0880001
0.486 0.66600001 2.0780001
0.50099999 0.67000002 2.0869999
0.51099998 0.66600001 2.0739999
0.52700001 0.671 2.085
0.542 0.67400002 2.092
0.55199999 0.67000002 2.075
0.565 0.671 2.0769999
0.58099997 0.67400002 2.0840001
0.59399998 0.67500001 2.0829999
0.60299999 0.67000002 2.0650001
0.61799997 0.67299998 2.069
0.62699997 0.66900003 2.0550001
0.64499998 0.67400002 2.0669999
0.65600002 0.67299998 2.0599999
0.67000002 0.67400002 2.0599999
0.685 0.67699999 2.0639999
0.69800001 0.67699999 2.0599999
0.71100003 0.67699999 2.0550001
0.72500002 0.67799997 2.0569999
0.73699999 0.67699999 2.049
0.75300002 0.68000001 2.0539999
0.759 0.67400002 2.0320001
0.773 0.67500001 2.0309999
0.78799999 0.67699999 2.0320001
0.796 0.67299998 2.016
0.82200003 0.68400002 2.0450001
0.824 0.67500001 2.0139999
0.84500003 0.68199998 2.029
0.85799998 0.68199998 2.0250001
0.87300003 0.68300003 2.0239999
0.87900001 0.67799997 2.003
0.90499997 0.68800002 2.029
0.90399998 0.67799997 1.992
0.91900003 0.67900002 1.992
0.93199998 0.68000001 1.988
0.94300002 0.67799997 1.978
0.96399999 0.68400002 1.989
0.98000002 0.68599999 1.9910001
0.98699999 0.68199998 1.974
0.99900001 0.68199998 1.966
1.017 0.685 1.971
1.033 0.68699998 1.971
1.045 0.68599999 1.964
1.062 0.68900001 1.965
1.076 0.69 1.961
1.0930001 0.69199997 1.962
1.1109999 0.69499999 1.965
1.12 0.69300002 1.952
1.135 0.69400001 1.948
1.142 0.69 1.932
-1.092 0.67400002 1.846
-1.075 0.671 1.845
-1.058 0.66799998 1.842
-1.049 0.671 1.855
-1.0319999 0.667 1.851
-1.016 0.66500002 1.851
-1.008 0.66799998 1.864
-0.98799998 0.66299999 1.857
-0.98100001 0.66600001 1.8710001
-0.96499997 0.66399997 1.8710001
-0.95599997 0.66600001 1.881
-0.93800002 0.662 1.875
-0.92799997 0.66399997 1.885
-0.92000002 0.667 1.9
-0.90799999 0.667 1.905
-0.89300001 0.66500002 1.904
-0.88300002 0.667 1.914
-0.87 0.667 1.919
-0.85399997 0.66399997 1.916
-0.83200002 0.65600002 1.898
-0.82599998 0.66100001 1.9170001
-0.82099998 0.667 1.937
-0.80299997 0.662 1.929
-0.78899997 0.66100001 1.9299999
-0.77899998 0.66299999 1.939
-0.76499999 0.66100001 1.939
-0.74699998 0.65600002 1.928
-0.73799998 0.65899998 1.941
-0.72600001 0.65899998 1.946
-0.71399999 0.66000003 1.951
-0.70499998 0.66299999 1.9630001
-0.69199997 0.662 1.965
-0.68000001 0.66299999 1.971
-0.66500002 0.65899998 1.965
-0.65200001 0.65899998 1.967
-0.64499998 0.66399997 1.9859999
-0.63099998 0.66299999 1.987
-0.61500001 0.65799999 1.976
-0.60100001 0.65700001 1.975
-0.58999997 0.65799999 1.983
-0.579 0.65899998 1.988
-0.56800002 0.66100001 1.9960001
-0.55400002 0.65899998 1.993
-0.54299998 0.66100001 2.0020001
-0.52999997 0.66000003 2.0020001
-0.51700002 0.65899998 2.003
-0.50700003 0.662 2.013
-0.49200001 0.65799999 2.0050001
-0.48199999 0.66000003 2.0150001
-0.46700001 0.65700001 2.0090001
-0.45500001 0.65700001 2.0090001
-0.44299999 0.65799999 2.0139999
-0.43000001 0.65600002 2.0120001
-0.421 0.66100001 2.03
-0.40799999 0.66100001 2.03
-0.396 0.66100001 2.0339999
-0.382 0.65799999 2.0280001
-0.36899999 0.65700001 2.0239999
-0.35800001 0.65899998 2.033
-0.34599999 0.65899998 2.0350001
-0.33399999 0.66000003 2.04
-0.322 0.66000003 2.0439999
-0.30899999 0.65799999 2.039
-0.29899999 0.66299999 2.0539999
-0.28600001 0.66100001 2.0510001
-0.27500001 0.66399997 2.0599999
-0.26199999 0.66100001 2.0550001
-0.25 0.66299999 2.062
-0.236 0.65799999 2.0469999
-0.22400001 0.66100001 2.056
-0.212 0.66100001 2.0569999
-0.2 0.662 2.0639999
-0.18700001 0.66000003 2.0580001
-0.176 0.662 2.066
-0.163 0.66100001 2.0610001
-0.15099999 0.66299999 2.0699999
-0.139 0.66299999 2.0710001
-0.127 0.66500002 2.0780001
-0.114 0.662 2.0699999
-0.103 0.66799998 2.0880001
-0.090000004 0.66600001 2.0810001
-0.078000002 0.66600001 2.0840001
-0.066 0.667 2.0869999
-0.054000001 0.67199999 2.1040001
-0.041000001 0.671 2.1010001
-0.028999999 0.66799998 2.0899999
-0.016000001 0.671 2.1010001
-0.0040000002 0.66799998 2.0899999
0.0080000004 0.67299998 2.1070001
0.02 0.671 2.099
0.032000002 0.66799998 2.0910001
0.045000002 0.67199999 2.1040001
0.057 0.66900003 2.092
0.07 0.67000002 2.096
0.082000002 0.66799998 2.0910001
0.093999997 0.66900003 2.092
0.107 0.66900003 2.0899999
0.119 0.66900003 2.092
0.132 0.66900003 2.089
0.14399999 0.66900003 2.0899999
0.156 0.66799998 2.0869999
0.168 0.66799998 2.0840001
0.182 0.67299998 2.099
0.19400001 0.671 2.0929999
0.207 0.671 2.0910001
0.21799999 0.66799998 2.082
0.23100001 0.66900003 2.0840001
0.245 0.67199999 2.092
0.25600001 0.67000002 2.082
0.26899999 0.67199999 2.089
0.28099999 0.67000002 2.0810001
0.29300001 0.67000002 2.0799999
0.30599999 0.67000002 2.076
0.31799999 0.67000002 2.076
0.32800001 0.66500002 2.059
0.34200001 0.66900003 2.069
0.35600001 0.67199999 2.075
0.36899999 0.67299998 2.0769999
0.38 0.66900003 2.0639999
0.39399999 0.67199999 2.0710001
0.405 0.67000002 2.0610001
0.41800001 0.671 2.062
0.43099999 0.67199999 2.0639999
0.44499999 0.67299998 2.066
0.45500001 0.67000002 2.053
0.46599999 0.66900003 2.0469999
0.48100001 0.67199999 2.0539999
0.49200001 0.67000002 2.0450001
0.50700003 0.67400002 2.0539999
0.51999998 0.67500001 2.0539999
0.53299999 0.67500001 2.053
0.54500002 0.67400002 2.0469999
0.55900002 0.676 2.0480001
0.56999999 0.67400002 2.04
0.58499998 0.67699999 2.0469999
0.59600002 0.676 2.039
0.60699999 0.67400002 2.029
0.61900002 0.67299998 2.023
0.63200003 0.67400002 2.023
0.64700001 0.676 2.027
0.66000003 0.67699999 2.0250001
0.67299998 0.67699999 2.023
0.68400002 0.67500001 2.013
0.69800001 0.67699999 2.0150001
0.70999998 0.67699999 2.01
0.72299999 0.67699999 2.006
0.73900002 0.68000001 2.0120001
0.74900001 0.67799997 2.0009999
0.764 0.68000001 2.003
0.778 0.68099999 2.003
0.79400003 0.68400002 2.007
0.80599999 0.68400002 2.0020001
0.81800002 0.68300003 1.995
0.82999998 0.68199998 1.989
0.84899998 0.68699998 1.998
0.86000001 0.68599999 1.99
0.87099999 0.685 1.9809999
0.88200003 0.68400002 1.973
0.89300001 0.68199998 1.965
0.91000003 0.68599999 1.969
0.92400002 0.68599999 1.966
0.94199997 0.69 1.972
0.95099998 0.68800002 1.96
0.95999998 0.685 1.947
0.97899997 0.68900001 1.954
0.98699999 0.68699998 1.9400001
1.002 0.68800002 1.938
1.021 0.69199997 1.944
1.021 0.68300003 1.914
1.04 0.68800002 1.921
1.068 0.69700003 1.942
1.073 0.69199997 1.921
1.09 0.69499999 1.923
1.105 0.69599998 1.921
1.114 0.69400001 1.908
1.126 0.69400001 1.902
-1.073 0.67400002 1.809
-1.061 0.67500001 1.817
-1.043 0.671 1.812
-1.0369999 0.67500001 1.83
-1.021 0.67299998 1.829
-1.015 0.67699999 1.845
-0.99900001 0.67400002 1.844
-0.98000002 0.67000002 1.837
-0.97000003 0.671 1.847
-0.96200001 0.67400002 1.859
-0.94700003 0.67199999 1.86
-0.92799997 0.667 1.851
-0.92000002 0.67000002 1.864
-0.90200001 0.66600001 1.858
-0.89700001 0.67199999 1.8789999
-0.88099998 0.66900003 1.876
-0.86199999 0.66399997 1.8660001
-0.85500002 0.66799998 1.882
-0.84200001 0.66600001 1.8839999
-0.833 0.66900003 1.897
-0.81699997 0.66600001 1.892
-0.80699998 0.66799998 1.9
-0.79299998 0.667 1.902
-0.77700001 0.66299999 1.896
-0.76599997 0.66399997 1.902
-0.74699998 0.65799999 1.8890001
-0.73799998 0.66100001 1.903
-0.73400003 0.66799998 1.927
-0.71799999 0.66399997 1.921
-0.704 0.662 1.918
-0.69 0.66000003 1.9170001
-0.68000001 0.662 1.927
-0.66900003 0.66399997 1.9349999
-0.65399998 0.66100001 1.929
-0.64399999 0.66299999 1.939
-0.634 0.66500002 1.948
-0.62099999 0.66500002 1.951
-0.61000001 0.66600001 1.957
-0.60000002 0.66799998 1.9680001
-0.58499998 0.66399997 1.96
-0.57200003 0.66299999 1.96
-0.56 0.66399997 1.965
-0.54699999 0.66299999 1.965
-0.537 0.66500002 1.974
-0.52399999 0.66399997 1.974
-0.51099998 0.662 1.973
-0.5 0.66399997 1.9809999
-0.48899999 0.66600001 1.987
-0.47400001 0.662 1.978
-0.463 0.66399997 1.988
-0.44999999 0.662 1.985
-0.44100001 0.667 2.0009999
-0.42699999 0.66299999 1.992
-0.414 0.66299999 1.994
-0.40200001 0.662 1.993
-0.38999999 0.66299999 2
-0.37900001 0.66500002 2.007
-0.36700001 0.66500002 2.0079999
-0.35600001 0.66799998 2.0190001
-0.34099999 0.66100001 2.0009999
-0.33000001 0.66399997 2.0120001
-0.31799999 0.66399997 2.013
-0.30599999 0.66399997 2.016
-0.29499999 0.667 2.026
-0.28200001 0.66399997 2.02
-0.27000001 0.66500002 2.0220001
-0.25799999 0.66399997 2.0220001
-0.24699999 0.667 2.0309999
-0.234 0.66600001 2.029
-0.223 0.66799998 2.0369999
-0.211 0.66900003 2.0420001
-0.198 0.667 2.036
-0.186 0.66600001 2.0350001
-0.17399999 0.66600001 2.036
-0.162 0.66799998 2.043
-0.15000001 0.66799998 2.0439999
-0.138 0.66799998 2.043
-0.125 0.667 2.043
-0.114 0.67199999 2.0580001
-0.101 0.67000002 2.052
-0.089000002 0.67000002 2.0539999
-0.077 0.67299998 2.063
-0.064999998 0.67199999 2.0599999
-0.052999999 0.67199999 2.0599999
-0.041000001 0.67400002 2.066
-0.028000001 0.67199999 2.0599999
-0.016000001 0.671 2.059
-0.0040000002 0.671 2.059
0.0070000002 0.67500001 2.069
0.02 0.67400002 2.0669999
0.032000002 0.67500001 2.0699999
0.044 0.676 2.072
0.056000002 0.67299998 2.0639999
0.068999998 0.67299998 2.0650001
0.081 0.67400002 2.0639999
0.093000002 0.671 2.0569999
0.105 0.67199999 2.059
0.118 0.67299998 2.0599999
0.13 0.67299998 2.0610001
0.142 0.67199999 2.056
0.154 0.67299998 2.059
0.167 0.67299998 2.0580001
0.17900001 0.67299998 2.0569999
0.192 0.676 2.0650001
0.204 0.67299998 2.056
0.21600001 0.67299998 2.053
0.228 0.67400002 2.056
0.23999999 0.67299998 2.052
0.252 0.67199999 2.0469999
0.26499999 0.67400002 2.052
0.278 0.67500001 2.0550001
0.28999999 0.676 2.0550001
0.301 0.67199999 2.0420001
0.31299999 0.67199999 2.0409999
0.32600001 0.67199999 2.039
0.338 0.67299998 2.039
0.35100001 0.67400002 2.04
0.36199999 0.671 2.029
0.37400001 0.67199999 2.0309999
0.389 0.676 2.04
0.40200001 0.67699999 2.0420001
0.41499999 0.67900002 2.0439999
0.42500001 0.67500001 2.0309999
0.43799999 0.67500001 2.03
0.44999999 0.67500001 2.027
0.461 0.67400002 2.0209999
0.47400001 0.67500001 2.0209999
0.48699999 0.676 2.0220001
0.5 0.67699999 2.023
0.51200002 0.676 2.016
0.52499998 0.67699999 2.016
0.53500003 0.67500001 2.007
0.54699999 0.67400002 2.003
0.56300002 0.67900002 2.013
0.57599998 0.68000001 2.0120001
0.588 0.67900002 2.0079999
0.602 0.68099999 2.0090001
0.61400002 0.68000001 2.0050001
0.62699997 0.68099999 2.0039999
0.63800001 0.67900002 1.994
0.65200001 0.68099999 1.997
0.66299999 0.68000001 1.99
0.68199998 0.68599999 2.0050001
0.68800002 0.68000001 1.982
0.70300001 0.68199998 1.985
0.71100003 0.67900002 1.971
0.73100001 0.68599999 1.987
0.745 0.68699998 1.988
0.75800002 0.68699998 1.983
0.76999998 0.68699998 1.978
0.77999997 0.68400002 1.967
0.79299998 0.685 1.964
0.80299997 0.68300003 1.955
0.82099998 0.68800002 1.964
0.82800001 0.68300003 1.9450001
0.84399998 0.68599999 1.949
0.85600001 0.68599999 1.944
0.86900002 0.68599999 1.939
0.88599998 0.69 1.946
0.89700001 0.68900001 1.938
0.91100001 0.69 1.9349999
0.92299998 0.68900001 1.929
0.94 0.69300002 1.933
0.95300001 0.69300002 1.929
0.95999998 0.68900001 1.913
0.98000002 0.69400001 1.921
0.98900002 0.69099998 1.908
1.001 0.69099998 1.903
1.013 0.69099998 1.896
1.028 0.69199997 1.8940001
1.05 0.699 1.906
1.061 0.69700003 1.896
1.08 0.70099998 1.901
1.084 0.69599998 1.881
1.1 0.69800001 1.88
1.1160001 0.69999999 1.8789999
-1.059 0.67799997 1.783
-1.05 0.68000001 1.793
-1.036 0.67799997 1.795
-1.025 0.67900002 1.803
-1.0089999 0.67699999 1.803
-0.99599999 0.676 1.806
-0.98500001 0.67699999 1.813
-0.97000003 0.67500001 1.814
-0.96399999 0.67900002 1.831
-0.94599998 0.67500001 1.824
-0.93400002 0.67500001 1.831
-0.92299998 0.676 1.8380001
-0.90700001 0.67299998 1.835
-0.89999998 0.67699999 1.851
-0.88099998 0.67199999 1.841
-0.87199998 0.67400002 1.852
-0.86000001 0.67400002 1.8559999
-0.84500003 0.67199999 1.855
-0.833 0.67199999 1.86
-0.82200003 0.67299998 1.868
-0.80400002 0.66799998 1.858
-0.79400003 0.66900003 1.868
-0.77999997 0.667 1.8660001
-0.77499998 0.67400002 1.888
-0.75800002 0.66900003 1.88
-0.75199997 0.67500001 1.9
-0.73100001 0.66600001 1.88
-0.71700001 0.66399997 1.877
-0.713 0.67199999 1.904
-0.69800001 0.66900003 1.9
-0.68400002 0.667 1.898
-0.676 0.67000002 1.911
-0.66299999 0.67000002 1.913
-0.653 0.67199999 1.9220001
-0.63599998 0.667 1.9119999
-0.62800002 0.67000002 1.926
-0.61699998 0.67199999 1.933
-0.60399997 0.671 1.933
-0.59200001 0.671 1.937
-0.57999998 0.67000002 1.939
-0.565 0.66799998 1.934
-0.55500001 0.67000002 1.944
-0.542 0.66799998 1.942
-0.53200001 0.67000002 1.951
-0.51599997 0.66600001 1.942
-0.505 0.667 1.946
-0.49399999 0.66900003 1.954
-0.48100001 0.667 1.952
-0.47 0.66799998 1.956
-0.45699999 0.667 1.956
-0.44600001 0.66799998 1.964
-0.435 0.66900003 1.9680001
-0.421 0.667 1.964
-0.41100001 0.66900003 1.974
-0.398 0.667 1.97
-0.38600001 0.667 1.972
-0.373 0.66500002 1.967
-0.361 0.66500002 1.971
-0.34900001 0.66600001 1.974
-0.33700001 0.66500002 1.973
-0.32699999 0.66900003 1.9859999
-0.31400001 0.66799998 1.984
-0.30399999 0.671 1.995
-0.28999999 0.66799998 1.988
-0.28 0.671 1.999
-0.26699999 0.66900003 1.993
-0.257 0.67299998 2.0079999
-0.243 0.66900003 1.9960001
-0.23100001 0.66900003 1.999
-0.22 0.67299998 2.0109999
-0.208 0.671 2.007
-0.19499999 0.67000002 2.0050001
-0.183 0.67000002 2.0050001
-0.17200001 0.67199999 2.0120001
-0.15899999 0.66900003 2.0050001
-0.148 0.67299998 2.017
-0.13600001 0.67400002 2.0209999
-0.125 0.67799997 2.0339999
-0.112 0.67199999 2.016
-0.1 0.67299998 2.02
-0.088 0.67500001 2.027
-0.075999998 0.67500001 2.0280001
-0.064000003 0.67699999 2.0339999
-0.052000001 0.67400002 2.0250001
-0.039999999 0.67400002 2.0250001
-0.028000001 0.67500001 2.029
-0.016000001 0.67500001 2.029
-0.0040000002 0.67699999 2.0350001
0.0070000002 0.67500001 2.0280001
0.018999999 0.67900002 2.043
0.032000002 0.67799997 2.0380001
0.044 0.67900002 2.04
0.056000002 0.67900002 2.04
0.068000004 0.676 2.0309999
0.079999998 0.67699999 2.0339999
0.092 0.67799997 2.036
0.104 0.676 2.0309999
0.117 0.68000001 2.0409999
0.12800001 0.67699999 2.0309999
0.14 0.676 2.029
0.153 0.67799997 2.033
0.16500001 0.67799997 2.033
0.177 0.67799997 2.0320001
0.18799999 0.676 2.0239999
0.20100001 0.67699999 2.0280001
0.213 0.67799997 2.029
0.22499999 0.67799997 2.0280001
0.23800001 0.67900002 2.0280001
0.25 0.67799997 2.0250001
0.26100001 0.67699999 2.0190001
0.27399999 0.67799997 2.0220001
0.28600001 0.67699999 2.017
0.29699999 0.67500001 2.0109999
0.31 0.676 2.013
0.32300001 0.67799997 2.017
0.33500001 0.68000001 2.0190001
0.34599999 0.67699999 2.0090001
0.359 0.67900002 2.013
0.37 0.676 2.0020001
0.384 0.68000001 2.0120001
0.39500001 0.67900002 2.006
0.40799999 0.67900002 2.0039999
0.41999999 0.67900002 2.0039999
0.433 0.68000001 2.0039999
0.44600001 0.68199998 2.006
0.45699999 0.67900002 1.997
0.46900001 0.68000001 1.998
0.48300001 0.68300003 2.0009999
0.491 0.67699999 1.983
0.50700003 0.68099999 1.992
0.51499999 0.676 1.973
0.52600002 0.67500001 1.9680001
0.542 0.68000001 1.9809999
0.55800003 0.685 1.99
0.56800002 0.68199998 1.979
0.57999998 0.68199998 1.975
0.59200001 0.68099999 1.971
0.60799998 0.68599999 1.98
0.61699998 0.68199998 1.9680001
0.63 0.68300003 1.967
0.64700001 0.68900001 1.979
0.65499997 0.68300003 1.96
0.67000002 0.68699998 1.966
0.68000001 0.68400002 1.956
0.69499999 0.68699998 1.96
0.70999998 0.69 1.9630001
0.72100002 0.68900001 1.957
0.73299998 0.68900001 1.952
0.74400002 0.68699998 1.944
0.75599998 0.68699998 1.939
0.76700002 0.68599999 1.931
0.78600001 0.69199997 1.944
0.79799998 0.69199997 1.9400001
0.81 0.69099998 1.933
0.82200003 0.69 1.927
0.83600003 0.69199997 1.927
0.84799999 0.69199997 1.9220001
0.86000001 0.69199997 1.9170001
0.87599999 0.69499999 1.92
0.88700002 0.69300002 1.911
0.903 0.69599998 1.915
0.90700001 0.69 1.892
0.92699999 0.69499999 1.901
0.93900001 0.69499999 1.896
0.95099998 0.69499999 1.89
0.96799999 0.69800001 1.893
0.97799999 0.69700003 1.8839999
0.99199998 0.69700003 1.88
1.005 0.69800001 1.877
1.02 0.69999999 1.876
1.041 0.70499998 1.885
1.049 0.70200002 1.872
1.057 0.699 1.858
1.068 0.69800001 1.849
1.081 0.699 1.844
1.086 0.69400001 1.825
-1.043 0.68000001 1.752
-1.026 0.676 1.749
-1.015 0.67699999 1.755
-1.0039999 0.67699999 1.763
-0.99800003 0.68099999 1.779
-0.98799998 0.68300003 1.789
-0.972 0.68000001 1.786
-0.96399999 0.68300003 1.799
-0.949 0.68099999 1.799
-0.94 0.68300003 1.809
-0.92000002 0.67699999 1.798
-0.91100001 0.67900002 1.8099999
-0.89899999 0.67900002 1.814
-0.89200002 0.68300003 1.83
-0.86299998 0.67000002 1.8
-0.85500002 0.67199999 1.811
-0.84299999 0.67299998 1.817
-0.83499998 0.67500001 1.829
-0.82499999 0.67699999 1.839
-0.815 0.67799997 1.847
-0.80599999 0.68099999 1.858
-0.77999997 0.66900003 1.829
-0.77600002 0.676 1.852
-0.76200002 0.67400002 1.853
-0.74699998 0.671 1.848
-0.74000001 0.676 1.864
-0.727 0.67500001 1.867
-0.71200001 0.671 1.8609999
-0.69999999 0.671 1.864
-0.68699998 0.67000002 1.8660001
-0.67699999 0.67199999 1.873
-0.66600001 0.67299998 1.881
-0.65100002 0.67000002 1.875
-0.63999999 0.671 1.882
-0.634 0.67699999 1.901
-0.62 0.67400002 1.897
-0.60500002 0.67000002 1.891
-0.59200001 0.66900003 1.891
-0.58600003 0.676 1.9119999
-0.57300001 0.67400002 1.9119999
-0.55900002 0.67199999 1.909
-0.54799998 0.67299998 1.914
-0.537 0.67400002 1.92
-0.52399999 0.67199999 1.919
-0.51200002 0.67199999 1.921
-0.5 0.67199999 1.924
-0.491 0.67699999 1.939
-0.47799999 0.67400002 1.934
-0.46599999 0.67400002 1.938
-0.45199999 0.67199999 1.932
-0.44100001 0.67299998 1.939
-0.42899999 0.67199999 1.939
-0.41800001 0.67400002 1.946
-0.405 0.67199999 1.942
-0.39199999 0.66900003 1.9349999
