# .PCD v0.7 - Point Cloud Data file format
VERSION 0.7
FIELDS x y z
SIZE 4 4 4
TYPE F F F
COUNT 1 1 1
WIDTH 1693
HEIGHT 1
VIEWPOINT 0 0 0 1 0 0 0
POINTS 1693
DATA ascii
0.23 -0.55400002 4.152
0.25299999 -0.55199999 4.1339998
0.27700001 -0.55299997 4.1430001
0.301 -0.55299997 4.1459999
0.324 -0.55199999 4.1339998
0.347 -0.55199999 4.131
0.37200001 -0.55400002 4.145
0.396 -0.55299997 4.138
0.41999999 -0.55500001 4.1459999
0.44299999 -0.55299997 4.1329999
0.46599999 -0.55299997 4.1300001
0.49000001 -0.55299997 4.1259999
0.51300001 -0.55299997 4.1220002
0.53799999 -0.55299997 4.1240001
0.55900002 -0.551 4.1069999
0.58399999 -0.55199999 4.112
0.61000001 -0.55400002 4.1220002
0.63300002 -0.55400002 4.1199999
0.65700001 -0.55400002 4.1139998
0.68000001 -0.55400002 4.1090002
0.704 -0.55400002 4.105
0.72799999 -0.55400002 4.1020002
0.75 -0.55299997 4.092
0.77600002 -0.55500001 4.1020002
0.80000001 -0.55500001 4.0999999
0.82300001 -0.55400002 4.0900002
0.85000002 -0.55599999 4.0999999
0.875 -0.55699998 4.1009998
0.89600003 -0.55500001 4.086
0.92299998 -0.55699998 4.0929999
0.94499999 -0.55599999 4.0830002
0.972 -0.55800003 4.0910001
0.99400002 -0.55699998 4.0760002
1.0190001 -0.55800003 4.0780001
1.044 -0.55800003 4.0770001
1.068 -0.55800003 4.0700002
1.094 -0.55900002 4.073
1.119 -0.56 4.0710001
1.148 -0.56199998 4.0830002
1.17 -0.56099999 4.0689998
1.194 -0.56099999 4.0630002
1.2180001 -0.56099999 4.0580001
1.2460001 -0.56300002 4.0630002
1.272 -0.56400001 4.0630002
1.296 -0.56400001 4.0549998
1.321 -0.56400001 4.0510001
1.349 -0.56599998 4.0549998
1.3710001 -0.565 4.0409999
1.4 -0.56699997 4.0489998
1.427 -0.56800002 4.0479999
1.45 -0.56800002 4.0380001
1.477 -0.56900001 4.0380001
1.503 -0.56900001 4.0339999
1.533 -0.57200003 4.0419998
1.5599999 -0.57200003 4.04
1.59 -0.574 4.0450001
1.615 -0.574 4.0380001
1.641 -0.57499999 4.0320001
1.669 -0.57599998 4.0320001
1.7 -0.57800001 4.0370002
1.725 -0.57800001 4.0279999
1.752 -0.579 4.0250001
1.779 -0.57999998 4.02
1.802 -0.579 4.0050001
1.839 -0.583 4.0219998
1.864 -0.583 4.013
1.895 -0.58499998 4.0149999
1.918 -0.58399999 4
1.949 -0.58600003 4.0029998
1.9809999 -0.588 4.0050001
2.006 -0.588 3.993
2.0420001 -0.59100002 4.0040002
2.0699999 -0.59200001 3.9990001
2.1040001 -0.59500003 4.0029998
2.128 -0.59399998 3.9890001
2.161 -0.59600002 3.9909999
2.191 -0.597 3.987
2.2279999 -0.60100001 3.9949999
2.2609999 -0.60299999 3.997
-2.4560001 -0.63 4.3590002
-2.4089999 -0.625 4.3400002
-2.3759999 -0.62400001 4.3429999
-2.3380001 -0.62099999 4.3379998
-2.306 -0.62 4.3429999
-2.2739999 -0.61900002 4.3470001
-2.2360001 -0.616 4.3400002
-2.1960001 -0.61199999 4.3280001
-2.168 -0.61199999 4.3369999
-2.1329999 -0.61000001 4.335
-2.0910001 -0.60600001 4.316
-2.0610001 -0.60500002 4.3210001
-2.0309999 -0.60399997 4.3270001
-1.995 -0.60100001 4.3179998
-1.965 -0.60000002 4.322
-1.931 -0.59799999 4.3169999
-1.904 -0.59799999 4.3249998
-1.8660001 -0.59399998 4.3099999
-1.8329999 -0.59200001 4.3060002
-1.803 -0.59100002 4.3070002
-1.775 -0.59100002 4.3130002
-1.74 -0.588 4.302
-1.714 -0.588 4.3119998
-1.678 -0.58399999 4.2950001
-1.648 -0.583 4.2940001
-1.62 -0.58200002 4.2979999
-1.59 -0.58099997 4.2950001
-1.5599999 -0.579 4.2940001
-1.528 -0.57700002 4.2859998
-1.501 -0.57700002 4.2909999
-1.472 -0.57499999 4.289
-1.442 -0.57300001 4.2820001
-1.409 -0.57099998 4.27
-1.386 -0.57200003 4.2859998
-1.357 -0.56999999 4.2800002
-1.327 -0.56800002 4.2740002
-1.301 -0.56800002 4.2779999
-1.272 -0.56699997 4.2750001
-1.243 -0.565 4.2680001
-1.216 -0.56400001 4.2690001
-1.187 -0.56199998 4.2610002
-1.164 -0.56300002 4.2750001
-1.133 -0.56 4.2579999
-1.108 -0.56 4.2649999
-1.081 -0.55900002 4.2620001
-1.052 -0.55699998 4.2529998
-1.027 -0.55699998 4.257
-1 -0.55599999 4.2540002
-0.97299999 -0.55400002 4.2480001
-0.94700003 -0.55400002 4.2509999
-0.91900003 -0.55199999 4.2410002
-0.89200002 -0.55000001 4.2319999
-0.86900002 -0.55199999 4.2480001
-0.84200001 -0.55000001 4.2420001
-0.815 -0.54900002 4.2329998
-0.79000002 -0.54799998 4.2329998
-0.76499999 -0.54799998 4.2329998
-0.73699999 -0.54500002 4.2160001
-0.713 -0.546 4.2249999
-0.68900001 -0.546 4.2319999
-0.66299999 -0.54500002 4.2249999
-0.63700002 -0.54299998 4.2140002
-0.61299998 -0.54299998 4.2179999
-0.58700001 -0.542 4.2129998
-0.56199998 -0.54100001 4.2090001
-0.537 -0.54000002 4.2080002
-0.514 -0.54100001 4.2140002
-0.48800001 -0.53899997 4.2010002
-0.463 -0.53799999 4.2020001
-0.44 -0.53899997 4.21
-0.414 -0.537 4.198
-0.38999999 -0.53600001 4.1919999
-0.366 -0.537 4.2020001
-0.34200001 -0.53799999 4.2049999
-0.317 -0.53600001 4.1939998
-0.292 -0.53299999 4.1739998
-0.26899999 -0.53500003 4.1939998
-0.244 -0.53299999 4.177
-0.221 -0.53500003 4.191
-0.197 -0.53299999 4.1820002
-0.17200001 -0.53200001 4.171
-0.149 -0.53299999 4.1810002
-0.125 -0.53200001 4.1760001
-0.101 -0.53200001 4.171
-0.077 -0.53100002 4.1700001
-0.052999999 -0.53200001 4.178
-0.029999999 -0.53100002 4.165
-0.0060000001 -0.53100002 4.1690001
0.017000001 -0.53100002 4.1669998
0.041000001 -0.53100002 4.164
0.064999998 -0.53200001 4.1760001
0.088 -0.53100002 4.165
0.112 -0.52999997 4.1609998
0.13500001 -0.52999997 4.158
0.15899999 -0.53100002 4.1630001
0.183 -0.52999997 4.1539998
0.206 -0.52999997 4.1539998
0.23 -0.52899998 4.1490002
0.25400001 -0.52999997 4.152
0.27700001 -0.52899998 4.1469998
0.301 -0.52999997 4.1529999
0.324 -0.52899998 4.1420002
0.34799999 -0.52899998 4.1420002
0.37099999 -0.528 4.1339998
0.39500001 -0.528 4.1329999
0.419 -0.52899998 4.131
0.44299999 -0.52999997 4.1370001
0.46700001 -0.52899998 4.1339998
0.48899999 -0.528 4.1209998
0.51300001 -0.528 4.1209998
0.53600001 -0.528 4.1139998
0.56199998 -0.52999997 4.1269999
0.58499998 -0.52899998 4.1199999
0.60900003 -0.52999997 4.1220002
0.634 -0.53100002 4.1240001
0.65700001 -0.53100002 4.1199999
0.68099999 -0.53100002 4.118
0.70599997 -0.53200001 4.1209998
0.72799999 -0.53100002 4.1100001
0.75099999 -0.52999997 4.098
0.77499998 -0.52999997 4.099
0.80400002 -0.53299999 4.1199999
0.824 -0.53100002 4.099
0.84899998 -0.53100002 4.0970001
0.87400001 -0.53299999 4.1020002
0.898 -0.53200001 4.0960002
0.921 -0.53200001 4.0890002
0.94800001 -0.53399998 4.0970001
0.97000003 -0.53299999 4.0840001
0.995 -0.53399998 4.085
1.02 -0.53399998 4.0830002
1.046 -0.53500003 4.086
1.069 -0.53500003 4.079
1.095 -0.53600001 4.079
1.1210001 -0.537 4.0799999
1.1440001 -0.53600001 4.073
1.17 -0.537 4.072
1.192 -0.53600001 4.059
1.219 -0.53799999 4.0640001
1.245 -0.53899997 4.0650001
1.27 -0.53899997 4.0609999
1.294 -0.53899997 4.053
1.321 -0.54000002 4.0560002
1.352 -0.54299998 4.0689998
1.375 -0.542 4.0570002
1.398 -0.542 4.046
1.426 -0.54299998 4.0479999
1.456 -0.54500002 4.0570002
1.478 -0.54400003 4.0430002
1.505 -0.54500002 4.0419998
1.536 -0.54799998 4.0510001
1.5599999 -0.54799998 4.0430002
1.589 -0.54900002 4.0450001
1.6109999 -0.54799998 4.0300002
1.641 -0.55000001 4.0359998
1.67 -0.55199999 4.0370002
1.697 -0.55299997 4.0339999
1.724 -0.55299997 4.0300002
1.751 -0.55400002 4.0250001
1.783 -0.55599999 4.0320001
1.807 -0.55599999 4.0190001
1.837 -0.55699998 4.0209999
1.8660001 -0.55900002 4.02
1.896 -0.56 4.02
1.921 -0.56 4.0100002
1.951 -0.56199998 4.0089998
1.9859999 -0.56400001 4.0180001
2.016 -0.56599998 4.0170002
2.043 -0.56599998 4.0100002
2.0699999 -0.56699997 4.0009999
2.1029999 -0.56900001 4.0040002
2.1259999 -0.56800002 3.9890001
2.1619999 -0.57099998 3.9949999
2.1989999 -0.574 4.0050001
2.2249999 -0.574 3.993
2.2509999 -0.574 3.9820001
-2.4460001 -0.59899998 4.3460002
-2.4159999 -0.59899998 4.3559999
-2.3729999 -0.59500003 4.3400002
-2.3410001 -0.59399998 4.3470001
-2.3080001 -0.59299999 4.349
-2.2709999 -0.58999997 4.3449998
-2.2320001 -0.58700001 4.335
-2.2030001 -0.58700001 4.3439999
-2.165 -0.58399999 4.336
-2.132 -0.58200002 4.335
-2.096 -0.57999998 4.3299999
-2.0669999 -0.579 4.336
-2.0280001 -0.57599998 4.322
-2 -0.57599998 4.3319998
-1.961 -0.57200003 4.316
-1.928 -0.57099998 4.3140001
-1.9 -0.56999999 4.3200002
-1.8710001 -0.56900001 4.3249998
-1.837 -0.56699997 4.3179998
-1.802 -0.56400001 4.3080001
-1.773 -0.56300002 4.3109999
-1.745 -0.56300002 4.3169999
-1.706 -0.55900002 4.2940001
-1.6799999 -0.55900002 4.3039999
-1.651 -0.55800003 4.3070002
-1.6160001 -0.55500001 4.29
-1.587 -0.55400002 4.2909999
-1.563 -0.55400002 4.3060002
-1.531 -0.55199999 4.2979999
-1.5 -0.55000001 4.29
-1.473 -0.55000001 4.2930002
-1.442 -0.54799998 4.2870002
-1.414 -0.54699999 4.2870002
-1.386 -0.546 4.2870002
-1.355 -0.54400003 4.2789998
-1.331 -0.54400003 4.29
-1.3 -0.542 4.277
-1.2690001 -0.54000002 4.2680001
-1.244 -0.54000002 4.2729998
-1.216 -0.53899997 4.2719998
-1.191 -0.53899997 4.2779999
-1.159 -0.53600001 4.2610002
-1.1339999 -0.53500003 4.2659998
-1.107 -0.53500003 4.2649999
-1.081 -0.53399998 4.2680001
-1.051 -0.53100002 4.2509999
-1.024 -0.52999997 4.2480001
-0.99900001 -0.53100002 4.2550001
-0.97500002 -0.53100002 4.2600002
-0.94700003 -0.52899998 4.2540002
-0.92000002 -0.528 4.2490001
-0.89499998 -0.52700001 4.25
-0.866 -0.52499998 4.2350001
-0.84100002 -0.52499998 4.2389998
-0.81699997 -0.52499998 4.2420001
-0.78899997 -0.523 4.2290001
-0.76499999 -0.523 4.237
-0.74000001 -0.523 4.2379999
-0.713 -0.52100003 4.2270002
-0.68699998 -0.51999998 4.2210002
-0.662 -0.51899999 4.2210002
-0.63800001 -0.51899999 4.223
-0.61199999 -0.51800001 4.217
-0.588 -0.51800001 4.2220001
-0.56099999 -0.51499999 4.2010002
-0.53899997 -0.51800001 4.223
-0.51099998 -0.514 4.198
-0.48800001 -0.51499999 4.2090001
-0.463 -0.514 4.2049999
-0.43900001 -0.514 4.204
-0.414 -0.51300001 4.1989999
-0.38999999 -0.51300001 4.2030001
-0.366 -0.51300001 4.1989999
-0.34200001 -0.51200002 4.198
-0.317 -0.51200002 4.197
-0.29300001 -0.51200002 4.198
-0.26899999 -0.50999999 4.1869998
-0.245 -0.50999999 4.1890001
-0.221 -0.50999999 4.1900001
-0.197 -0.50999999 4.191
-0.17299999 -0.50999999 4.1869998
-0.149 -0.50999999 4.1950002
-0.125 -0.50700003 4.1700001
-0.101 -0.50800002 4.1719999
-0.077 -0.50800002 4.1739998
-0.052999999 -0.50800002 4.1789999
-0.029999999 -0.509 4.1859999
-0.0060000001 -0.50599998 4.164
0.017000001 -0.50800002 4.1750002
0.041000001 -0.50599998 4.164
0.064000003 -0.50800002 4.1750002
0.088 -0.50599998 4.1609998
0.112 -0.50599998 4.1599998
0.13500001 -0.50599998 4.1589999
0.15899999 -0.505 4.152
0.183 -0.50599998 4.1570001
0.206 -0.50599998 4.1589999
0.23 -0.50700003 4.1599998
0.25400001 -0.50599998 4.1560001
0.27700001 -0.505 4.1440001
0.301 -0.505 4.145
0.324 -0.505 4.145
0.34799999 -0.50599998 4.1469998
0.373 -0.50700003 4.1550002
0.39500001 -0.505 4.1350002
0.41800001 -0.50400001 4.1290002
0.44299999 -0.50599998 4.1409998
0.46599999 -0.505 4.1339998
0.48899999 -0.50400001 4.125
0.514 -0.50599998 4.1329999
0.537 -0.505 4.125
0.56 -0.505 4.1199999
0.58499998 -0.505 4.1220002
0.60900003 -0.50599998 4.1199999
0.63200003 -0.505 4.1160002
0.65700001 -0.50599998 4.1199999
0.68199998 -0.50700003 4.1259999
0.70700002 -0.50800002 4.1269999
0.72899997 -0.50700003 4.1160002
0.75300002 -0.50700003 4.1129999
0.77700001 -0.50800002 4.1110001
0.801 -0.50700003 4.105
0.82599998 -0.50800002 4.1100001
0.84899998 -0.50800002 4.1020002
0.87300003 -0.50800002 4.0960002
0.898 -0.50800002 4.098
0.92400002 -0.50999999 4.105
0.94800001 -0.50999999 4.0999999
0.97399998 -0.51099998 4.105
0.99599999 -0.50999999 4.092
1.021 -0.51099998 4.0910001
1.046 -0.51099998 4.0890002
1.071 -0.51200002 4.086
1.095 -0.51200002 4.0830002
1.118 -0.51099998 4.073
1.14 -0.50999999 4.0599999
1.169 -0.51300001 4.072
1.192 -0.51200002 4.0609999
1.219 -0.514 4.0669999
1.2460001 -0.51499999 4.0689998
1.272 -0.51499999 4.0669999
1.299 -0.51700002 4.0700002
1.3200001 -0.51599997 4.0560002
1.347 -0.51599997 4.0549998
1.376 -0.51800001 4.0640001
1.403 -0.51899999 4.0630002
1.426 -0.51899999 4.0510001
1.4529999 -0.51999998 4.052
1.48 -0.52100003 4.0500002
1.501 -0.51999998 4.0339999
1.534 -0.52200001 4.0479999
1.558 -0.523 4.0409999
1.586 -0.52399999 4.0409999
1.614 -0.52499998 4.0409999
1.645 -0.52700001 4.0479999
1.666 -0.52600002 4.0300002
1.692 -0.52600002 4.0240002
1.724 -0.528 4.033
1.749 -0.52899998 4.0240002
1.776 -0.52899998 4.02
1.808 -0.53100002 4.0250001
1.836 -0.53200001 4.0219998
1.862 -0.53200001 4.0139999
1.8940001 -0.53399998 4.0180001
1.9220001 -0.53500003 4.0139999
1.9579999 -0.53799999 4.026
1.98 -0.537 4.0100002
2.01 -0.53899997 4.0079999
2.0369999 -0.53899997 4.0009999
2.0710001 -0.54100001 4.006
2.0940001 -0.54100001 3.9909999
2.1300001 -0.54400003 3.9979999
2.164 -0.546 4.0019999
2.198 -0.54799998 4.006
2.2279999 -0.54900002 4.0009999
2.2590001 -0.55000001 3.9990001
-2.454 -0.57300001 4.3629999
-2.414 -0.56999999 4.3559999
-2.369 -0.56599998 4.3379998
-2.339 -0.56599998 4.3449998
-2.3069999 -0.565 4.3509998
-2.2720001 -0.56300002 4.349
-2.237 -0.56099999 4.348
-2.198 -0.55800003 4.3379998
-2.1670001 -0.55699998 4.342
-2.135 -0.55599999 4.3449998
-2.105 -0.55500001 4.3509998
-2.0639999 -0.551 4.3340001
-2.0339999 -0.551 4.3379998
-1.9960001 -0.54799998 4.3249998
-1.964 -0.546 4.3249998
-1.931 -0.54400003 4.3210001
-1.898 -0.54299998 4.3200002
-1.872 -0.54299998 4.329
-1.8380001 -0.54100001 4.322
-1.804 -0.53799999 4.3150001
-1.77 -0.53600001 4.3080001
-1.743 -0.53600001 4.3140001
-1.71 -0.53399998 4.3080001
-1.682 -0.53299999 4.3130002
-1.647 -0.53100002 4.2989998
-1.6210001 -0.52999997 4.3070002
-1.591 -0.52899998 4.3049998
-1.562 -0.528 4.3060002
-1.53 -0.52600002 4.296
-1.5 -0.52499998 4.2940001
-1.474 -0.52399999 4.2989998
-1.443 -0.523 4.2930002
-1.413 -0.52100003 4.289
-1.388 -0.52100003 4.296
-1.3559999 -0.51899999 4.2839999
-1.329 -0.51800001 4.2849998
-1.3 -0.51599997 4.2800002
-1.274 -0.51599997 4.2849998
-1.247 -0.51599997 4.2859998
-1.217 -0.514 4.2789998
-1.188 -0.51200002 4.2709999
-1.161 -0.51099998 4.2709999
-1.136 -0.51099998 4.2779999
-1.107 -0.509 4.2670002
-1.0779999 -0.50700003 4.256
-1.053 -0.50700003 4.2620001
-1.027 -0.50700003 4.263
-1.001 -0.50599998 4.263
-0.972 -0.505 4.2540002
-0.94599998 -0.50400001 4.2519999
-0.92000002 -0.50300002 4.2519999
-0.89399999 -0.50199997 4.25
-0.87 -0.50199997 4.2550001
-0.84200001 -0.5 4.243
-0.81599998 -0.5 4.2399998
-0.78899997 -0.498 4.2340002
-0.76499999 -0.498 4.2379999
-0.73699999 -0.49599999 4.223
-0.71399999 -0.49700001 4.2340002
-0.68699998 -0.49599999 4.2259998
-0.66299999 -0.495 4.2259998
-0.63700002 -0.49399999 4.223
-0.61199999 -0.49399999 4.2189999
-0.588 -0.49399999 4.223
-0.56300002 -0.493 4.2189999
-0.537 -0.49200001 4.211
-0.51300001 -0.491 4.2129998
-0.48800001 -0.491 4.21
-0.463 -0.49000001 4.2020001
-0.43900001 -0.49000001 4.21
-0.41499999 -0.49000001 4.2090001
-0.38999999 -0.48899999 4.2049999
-0.366 -0.48800001 4.1989999
-0.34200001 -0.48800001 4.1999998
-0.317 -0.48800001 4.2010002
-0.294 -0.48800001 4.2069998
-0.26899999 -0.486 4.191
-0.245 -0.48699999 4.1999998
-0.221 -0.48699999 4.197
-0.197 -0.48699999 4.1950002
-0.17299999 -0.486 4.191
-0.149 -0.486 4.1890001
-0.125 -0.48500001 4.1830001
-0.101 -0.48500001 4.1890001
-0.077 -0.484 4.178
-0.052999999 -0.484 4.177
-0.029999999 -0.484 4.178
-0.0060000001 -0.484 4.178
0.017000001 -0.484 4.1810002
0.041000001 -0.48300001 4.1729999
0.064000003 -0.48300001 4.171
0.088 -0.484 4.177
0.112 -0.48300001 4.1690001
0.13600001 -0.48300001 4.171
0.15899999 -0.48199999 4.1620002
0.183 -0.48300001 4.1680002
0.207 -0.48300001 4.1630001
0.23 -0.48199999 4.1570001
0.25299999 -0.48100001 4.1500001
0.278 -0.48199999 4.1589999
0.301 -0.48199999 4.1500001
0.32499999 -0.48199999 4.152
0.34900001 -0.48199999 4.1529999
0.37200001 -0.48199999 4.1490002
0.396 -0.48300001 4.1550002
0.41999999 -0.48300001 4.151
0.44400001 -0.48300001 4.152
0.46799999 -0.484 4.1529999
0.48899999 -0.48100001 4.1279998
0.514 -0.48199999 4.138
0.53899997 -0.48300001 4.1440001
0.56099999 -0.48100001 4.125
0.58600003 -0.48300001 4.1339998
0.60900003 -0.48199999 4.1230001
0.63200003 -0.48100001 4.1160002
0.65600002 -0.48199999 4.1199999
0.68199998 -0.48300001 4.1269999
0.70599997 -0.484 4.1240001
0.73000002 -0.484 4.1259999
0.75300002 -0.484 4.118
0.77700001 -0.48300001 4.112
0.80199999 -0.484 4.1139998
0.82599998 -0.484 4.1110001
0.84899998 -0.484 4.1040001
0.87400001 -0.484 4.1040001
0.89899999 -0.48500001 4.1069999
0.92199999 -0.48500001 4.0999999
0.94599998 -0.48500001 4.0929999
0.97100002 -0.486 4.0939999
0.99699998 -0.48699999 4.0970001
1.023 -0.48800001 4.0999999
1.046 -0.48699999 4.092
1.071 -0.48800001 4.092
1.094 -0.48699999 4.0809999
1.1160001 -0.486 4.0689998
1.146 -0.48899999 4.0830002
1.17 -0.48899999 4.0770001
1.197 -0.49000001 4.0809999
1.219 -0.48899999 4.0679998
1.2460001 -0.491 4.073
1.272 -0.491 4.072
1.298 -0.49200001 4.0689998
1.325 -0.493 4.072
1.35 -0.493 4.0679998
1.375 -0.493 4.0619998
1.401 -0.49399999 4.0599999
1.425 -0.49399999 4.053
1.454 -0.49599999 4.0580001
1.478 -0.49599999 4.0489998
1.51 -0.498 4.0619998
1.535 -0.498 4.0549998
1.5549999 -0.49700001 4.0359998
1.59 -0.5 4.053
1.6109999 -0.49900001 4.0359998
1.6440001 -0.50199997 4.0489998
1.671 -0.50199997 4.0450001
1.7 -0.50400001 4.046
1.722 -0.50300002 4.0310001
1.755 -0.505 4.039
1.781 -0.50599998 4.0339999
1.806 -0.50599998 4.0229998
1.8380001 -0.50800002 4.0279999
1.868 -0.509 4.0300002
1.896 -0.50999999 4.026
1.926 -0.51099998 4.0250001
1.9529999 -0.51200002 4.0180001
1.984 -0.51300001 4.02
2.0109999 -0.514 4.013
2.04 -0.514 4.0089998
2.072 -0.51599997 4.0110002
2.1040001 -0.51800001 4.0120001
2.132 -0.51899999 4.006
2.1719999 -0.52200001 4.02
2.1919999 -0.52100003 3.9990001
2.2249999 -0.52200001 3.9990001
2.2609999 -0.52499998 4.0050001
-2.4530001 -0.54500002 4.3639998
-2.4189999 -0.54299998 4.368
-2.375 -0.54000002 4.3520002
-2.3399999 -0.53799999 4.3509998
-2.309 -0.537 4.3579998
-2.2690001 -0.53399998 4.3460002
-2.233 -0.53200001 4.3429999
-2.204 -0.53200001 4.3520002
-2.168 -0.52999997 4.348
-2.132 -0.528 4.3410001
-2.1029999 -0.52700001 4.3499999
-2.063 -0.52399999 4.335
-2.0309999 -0.523 4.336
-2 -0.52200001 4.3379998
-1.9680001 -0.51999998 4.336
-1.932 -0.51800001 4.3280001
-1.899 -0.51599997 4.3249998
-1.87 -0.51499999 4.3280001
-1.839 -0.514 4.329
-1.801 -0.51099998 4.3119998
-1.776 -0.51099998 4.3239999
-1.742 -0.509 4.316
-1.714 -0.509 4.3200002
-1.682 -0.50700003 4.3140001
-1.648 -0.505 4.3039999
-1.622 -0.505 4.3130002
-1.59 -0.50300002 4.3049998
-1.563 -0.50199997 4.3099999
-1.529 -0.5 4.2979999
-1.5039999 -0.5 4.3070002
-1.475 -0.49900001 4.3049998
-1.444 -0.49700001 4.2989998
-1.415 -0.49599999 4.296
-1.386 -0.495 4.2940001
-1.359 -0.49399999 4.296
-1.3279999 -0.49200001 4.2839999
-1.303 -0.49200001 4.2930002
-1.271 -0.49000001 4.277
-1.245 -0.49000001 4.283
-1.2180001 -0.48899999 4.2820001
-1.191 -0.48800001 4.2859998
-1.163 -0.48699999 4.2779999
-1.133 -0.48500001 4.2690001
-1.1059999 -0.484 4.2649999
-1.081 -0.484 4.2729998
-1.054 -0.48300001 4.2680001
-1.026 -0.48199999 4.2620001
-0.99900001 -0.48100001 4.2600002
-0.97100002 -0.479 4.2519999
-0.94800001 -0.47999999 4.2639999
-0.91799998 -0.477 4.2420001
-0.89399999 -0.477 4.2509999
-0.866 -0.47600001 4.2389998
-0.84200001 -0.47600001 4.2459998
-0.81800002 -0.477 4.257
-0.79100001 -0.47499999 4.2449999
-0.764 -0.47400001 4.2389998
-0.73900002 -0.47299999 4.2350001
-0.713 -0.472 4.2290001
-0.68800002 -0.47099999 4.2290001
-0.66299999 -0.47099999 4.2280002
-0.63599998 -0.46900001 4.2189999
-0.61299998 -0.47 4.23
-0.58700001 -0.46900001 4.2220001
-0.56199998 -0.46799999 4.2179999
-0.53799999 -0.46799999 4.2199998
-0.51300001 -0.46700001 4.217
-0.48899999 -0.46799999 4.2220001
-0.46399999 -0.46700001 4.217
-0.44 -0.46599999 4.2160001
-0.41499999 -0.465 4.2090001
-0.38999999 -0.46399999 4.1999998
-0.366 -0.46399999 4.2010002
-0.34200001 -0.46399999 4.2049999
-0.317 -0.463 4.197
-0.29300001 -0.463 4.197
-0.26899999 -0.463 4.1960001
-0.245 -0.46200001 4.1929998
-0.221 -0.463 4.198
-0.19599999 -0.461 4.1810002
-0.17299999 -0.461 4.1859999
-0.149 -0.461 4.1900001
-0.125 -0.461 4.1890001
-0.101 -0.461 4.1880002
-0.077 -0.45899999 4.171
-0.052999999 -0.461 4.1880002
-0.029999999 -0.46000001 4.177
-0.0060000001 -0.46000001 4.178
0.017000001 -0.46000001 4.177
0.041000001 -0.46000001 4.1820002
0.064000003 -0.45899999 4.1750002
0.088 -0.45899999 4.1690001
0.112 -0.45899999 4.1659999
0.13500001 -0.45899999 4.1690001
0.15899999 -0.458 4.1630001
0.183 -0.46000001 4.1760001
0.206 -0.458 4.1589999
0.23100001 -0.46000001 4.1729999
0.25400001 -0.458 4.158
0.27700001 -0.458 4.1589999
0.301 -0.45899999 4.1599998
0.32499999 -0.458 4.1560001
0.34799999 -0.458 4.1529999
0.37200001 -0.458 4.152
0.396 -0.458 4.1500001
0.41999999 -0.45899999 4.1539998
0.44299999 -0.45899999 4.1490002
0.46599999 -0.458 4.1389999
0.491 -0.45899999 4.1459999
0.514 -0.45899999 4.1409998
0.53799999 -0.458 4.1370001
0.56199998 -0.45899999 4.1389999
0.58600003 -0.45899999 4.1360002
0.61000001 -0.45899999 4.1360002
0.634 -0.45899999 4.1300001
0.65799999 -0.45899999 4.1290002
0.68000001 -0.458 4.1149998
0.70499998 -0.45899999 4.1220002
0.72899997 -0.46000001 4.1220002
0.75400001 -0.46000001 4.1230001
0.778 -0.461 4.1230001
0.801 -0.46000001 4.1110001
0.82599998 -0.46000001 4.1129999
0.85000002 -0.461 4.1110001
0.87 -0.45899999 4.0900002
0.89600003 -0.46000001 4.0939999
0.92400002 -0.46200001 4.1079998
0.94700003 -0.46200001 4.1030002
0.97100002 -0.461 4.0949998
0.99800003 -0.463 4.1030002
1.022 -0.463 4.099
1.05 -0.465 4.1110001
1.072 -0.46399999 4.0960002
1.098 -0.465 4.0970001
1.122 -0.465 4.0939999
1.146 -0.465 4.0879998
1.171 -0.465 4.086
1.194 -0.465 4.0760002
1.223 -0.46700001 4.0840001
1.249 -0.46799999 4.086
1.272 -0.46700001 4.0739999
1.299 -0.46799999 4.0760002
1.324 -0.46799999 4.073
1.352 -0.47 4.0770001
1.377 -0.47 4.0700002
1.403 -0.47 4.0679998
1.428 -0.47099999 4.0630002
1.456 -0.472 4.066
1.479 -0.472 4.0549998
1.506 -0.472 4.0539999
1.536 -0.47400001 4.0599999
1.567 -0.47600001 4.0689998
1.59 -0.47600001 4.0570002
1.61 -0.47400001 4.0359998
1.645 -0.477 4.053
1.6720001 -0.47799999 4.0510001
1.6950001 -0.477 4.0359998
1.725 -0.479 4.039
1.758 -0.48100001 4.0489998
1.779 -0.47999999 4.0300002
1.808 -0.48100001 4.0300002
1.8380001 -0.48300001 4.0320001
1.868 -0.484 4.0320001
1.899 -0.486 4.0359998
1.924 -0.486 4.0250001
1.951 -0.486 4.0190001
1.985 -0.48800001 4.026
2.013 -0.48899999 4.0209999
2.043 -0.49000001 4.0180001
2.0710001 -0.491 4.0120001
2.0999999 -0.491 4.007
2.1389999 -0.495 4.0219998
2.165 -0.495 4.0110002
2.1989999 -0.49700001 4.013
2.2219999 -0.49599999 3.9960001
2.2609999 -0.49900001 4.0089998
-2.448 -0.51499999 4.3590002
-2.414 -0.514 4.3600001
-2.382 -0.51300001 4.368
-2.3410001 -0.50999999 4.3559999
-2.3150001 -0.51099998 4.3709998
-2.273 -0.50800002 4.3569999
-2.2349999 -0.505 4.349
-2.201 -0.50400001 4.349
-2.1670001 -0.50199997 4.349
-2.1359999 -0.50099999 4.3530002
-2.102 -0.5 4.3499999
-2.0680001 -0.498 4.348
-2.0320001 -0.49599999 4.3400002
-2.0020001 -0.495 4.3449998
-1.969 -0.49399999 4.342
-1.938 -0.493 4.3429999
-1.898 -0.48899999 4.3249998
-1.869 -0.48800001 4.3280001
-1.836 -0.48699999 4.3239999
-1.807 -0.486 4.329
-1.776 -0.48500001 4.3270001
-1.7410001 -0.48300001 4.3169999
-1.714 -0.48199999 4.3239999
-1.683 -0.48100001 4.3210001
-1.651 -0.479 4.3140001
-1.622 -0.47799999 4.3150001
-1.5930001 -0.47799999 4.3169999
-1.563 -0.47600001 4.3130002
-1.531 -0.47499999 4.3060002
-1.502 -0.47400001 4.3049998
-1.472 -0.472 4.3000002
-1.443 -0.47099999 4.2989998
-1.413 -0.46900001 4.2919998
-1.386 -0.46900001 4.2950001
-1.358 -0.46799999 4.2950001
-1.329 -0.46700001 4.2919998
-1.303 -0.46700001 4.2969999
-1.274 -0.465 4.2909999
-1.247 -0.465 4.2909999
-1.216 -0.463 4.2800002
-1.193 -0.46399999 4.2950001
-1.1619999 -0.461 4.2789998
-1.136 -0.461 4.2810001
-1.108 -0.46000001 4.2779999
-1.081 -0.45899999 4.2750001
-1.054 -0.458 4.2740002
-1.027 -0.45699999 4.2709999
-1.001 -0.45699999 4.27
-0.97000003 -0.454 4.25
-0.94800001 -0.45500001 4.2659998
-0.92000002 -0.45300001 4.2540002
-0.89399999 -0.45300001 4.256
-0.86900002 -0.45199999 4.2550001
-0.84100002 -0.45100001 4.2459998
-0.815 -0.44999999 4.243
-0.79100001 -0.44999999 4.25
-0.76499999 -0.449 4.2420001
-0.73900002 -0.449 4.2410002
-0.71399999 -0.44800001 4.2399998
-0.68699998 -0.44600001 4.2280002
-0.66100001 -0.44499999 4.2210002
-0.639 -0.447 4.237
-0.61299998 -0.44600001 4.2319999
-0.588 -0.44499999 4.2259998
-0.56199998 -0.44400001 4.2220001
-0.537 -0.44299999 4.2160001
-0.51300001 -0.44299999 4.2189999
-0.48800001 -0.442 4.2150002
-0.46399999 -0.442 4.2160001
-0.43900001 -0.44100001 4.211
-0.41499999 -0.44100001 4.2119999
-0.38999999 -0.44 4.2020001
-0.366 -0.44100001 4.2140002
-0.34099999 -0.44 4.2010002
-0.317 -0.44 4.2059999
-0.29300001 -0.43900001 4.1939998
-0.26899999 -0.43900001 4.2030001
-0.245 -0.43900001 4.2020001
-0.221 -0.43799999 4.1929998
-0.197 -0.43799999 4.1919999
-0.17299999 -0.43799999 4.198
-0.149 -0.43900001 4.2049999
-0.125 -0.43799999 4.1989999
-0.101 -0.43799999 4.1999998
-0.077 -0.43700001 4.1880002
-0.052999999 -0.43700001 4.1900001
-0.029999999 -0.43700001 4.1869998
-0.0060000001 -0.43700001 4.1869998
0.017000001 -0.43599999 4.1810002
0.041000001 -0.43599999 4.1799998
0.064000003 -0.43599999 4.1810002
0.088 -0.43599999 4.1789999
0.112 -0.435 4.1729999
0.13500001 -0.435 4.171
0.15899999 -0.435 4.1690001
0.183 -0.435 4.1700001
0.207 -0.435 4.1690001
0.23 -0.435 4.1700001
0.25400001 -0.435 4.1609998
0.278 -0.43599999 4.1750002
0.301 -0.435 4.1599998
0.32499999 -0.435 4.1620002
0.34799999 -0.43399999 4.1500001
0.373 -0.435 4.1599998
0.396 -0.435 4.1560001
0.421 -0.43599999 4.165
0.44400001 -0.435 4.1539998
0.46599999 -0.43399999 4.1360002
0.491 -0.435 4.1490002
0.514 -0.435 4.1409998
0.53799999 -0.435 4.1430001
0.56099999 -0.43399999 4.1290002
0.58499998 -0.43399999 4.1290002
0.61000001 -0.435 4.1339998
0.634 -0.43599999 4.1370001
0.65700001 -0.435 4.131
0.68199998 -0.43599999 4.1329999
0.70499998 -0.43599999 4.1269999
0.73000002 -0.43599999 4.1259999
0.75599998 -0.43700001 4.1360002
0.778 -0.43599999 4.1209998
0.801 -0.43599999 4.1170001
0.82700002 -0.43700001 4.1240001
0.85000002 -0.43700001 4.112
0.87400001 -0.43700001 4.1090002
0.898 -0.43700001 4.1059999
0.92400002 -0.43799999 4.1129999
0.94800001 -0.43799999 4.1090002
0.97399998 -0.43900001 4.1129999
0.99599999 -0.43799999 4.099
1.023 -0.43900001 4.1059999
1.049 -0.44 4.1069999
1.071 -0.44 4.0970001
1.097 -0.44 4.0960002
1.119 -0.44 4.085
1.148 -0.44100001 4.0949998
1.173 -0.442 4.0929999
1.196 -0.44100001 4.0830002
1.221 -0.442 4.0799999
1.248 -0.44299999 4.0830002
1.274 -0.44299999 4.0819998
1.296 -0.44299999 4.0679998
1.326 -0.44499999 4.079
1.351 -0.44499999 4.0760002
1.375 -0.44499999 4.0689998
1.404 -0.44600001 4.073
1.428 -0.44600001 4.0669999
1.457 -0.44800001 4.0710001
1.482 -0.44800001 4.066
1.508 -0.44800001 4.0599999
1.529 -0.447 4.0450001
1.561 -0.44999999 4.0549998
1.587 -0.44999999 4.0500002
1.6160001 -0.45100001 4.0539999
1.641 -0.45100001 4.046
1.675 -0.454 4.0599999
1.696 -0.45300001 4.0409999
1.724 -0.454 4.04
1.75 -0.454 4.0339999
1.78 -0.456 4.0359998
1.807 -0.456 4.0310001
1.841 -0.458 4.0419998
1.8710001 -0.46000001 4.0419998
1.896 -0.46000001 4.0320001
1.926 -0.461 4.0310001
1.948 -0.46000001 4.0149999
1.984 -0.46200001 4.0250001
2.013 -0.463 4.0229998
2.0450001 -0.465 4.0250001
2.076 -0.46599999 4.0240002
2.1010001 -0.46599999 4.013
2.1359999 -0.46799999 4.0180001
2.164 -0.46900001 4.0110002
2.2 -0.47099999 4.0190001
2.2260001 -0.47099999 4.007
2.2590001 -0.47299999 4.007
-2.46 -0.49000001 4.3829999
-2.418 -0.48699999 4.3709998
-2.375 -0.484 4.3569999
-2.3399999 -0.48199999 4.3569999
-2.3069999 -0.48100001 4.3600001
-2.27 -0.479 4.355
-2.243 -0.479 4.369
-2.21 -0.47799999 4.3699999
-2.1670001 -0.47499999 4.3499999
-2.138 -0.47400001 4.3600001
-2.1010001 -0.472 4.3509998
-2.069 -0.47099999 4.3520002
-2.0309999 -0.46900001 4.3400002
-2.0020001 -0.46799999 4.348
-1.969 -0.46700001 4.3449998
-1.934 -0.465 4.3379998
-1.902 -0.46399999 4.3369999
-1.869 -0.46200001 4.3319998
-1.836 -0.46000001 4.3280001
-1.806 -0.45899999 4.3299999
-1.775 -0.458 4.3270001
-1.745 -0.45699999 4.3270001
-1.712 -0.456 4.3210001
-1.686 -0.456 4.3309999
-1.653 -0.454 4.323
-1.62 -0.45199999 4.3130002
-1.594 -0.45199999 4.322
-1.566 -0.45100001 4.3249998
-1.53 -0.44800001 4.3049998
-1.505 -0.44800001 4.3140001
-1.473 -0.44600001 4.3039999
-1.448 -0.447 4.316
-1.418 -0.44600001 4.3099999
-1.388 -0.44400001 4.3039999
-1.358 -0.44299999 4.2969999
-1.332 -0.442 4.303
-1.298 -0.44 4.2820001
-1.273 -0.44 4.2919998
-1.2460001 -0.43900001 4.2909999
-1.2180001 -0.43799999 4.2870002
-1.192 -0.43799999 4.2930002
-1.164 -0.43700001 4.29
-1.136 -0.43599999 4.2839999
-1.108 -0.435 4.2789998
-1.081 -0.43399999 4.276
-1.054 -0.433 4.2750001
-1.028 -0.43200001 4.2740002
-1 -0.43099999 4.2690001
-0.97299999 -0.43000001 4.2639999
-0.94599998 -0.42899999 4.2579999
-0.921 -0.42899999 4.2610002
-0.89499998 -0.428 4.2589998
-0.86699998 -0.42699999 4.2490001
-0.84200001 -0.42699999 4.2509999
-0.81599998 -0.426 4.2470002
-0.78899997 -0.42500001 4.2420001
-0.76300001 -0.42399999 4.237
-0.74000001 -0.42500001 4.2490001
-0.71399999 -0.42300001 4.2410002
-0.68800002 -0.42300001 4.2360001
-0.66399997 -0.42300001 4.2399998
-0.639 -0.42199999 4.2389998
-0.61199999 -0.421 4.2290001
-0.58899999 -0.421 4.2379999
-0.56300002 -0.41999999 4.2309999
-0.537 -0.419 4.2189999
-0.514 -0.41999999 4.23
-0.48899999 -0.419 4.2290001
-0.46399999 -0.419 4.224
-0.43900001 -0.41800001 4.2160001
-0.41600001 -0.41800001 4.2259998
-0.38999999 -0.417 4.2119999
-0.36700001 -0.41800001 4.2259998
-0.34200001 -0.41600001 4.2090001
-0.31799999 -0.41600001 4.2140002
-0.294 -0.41600001 4.2140002
-0.26899999 -0.41600001 4.2090001
-0.245 -0.41499999 4.2049999
-0.221 -0.414 4.198
-0.197 -0.41299999 4.191
-0.17299999 -0.41299999 4.1919999
-0.149 -0.414 4.2020001
-0.125 -0.41299999 4.1929998
-0.101 -0.414 4.198
-0.077 -0.41299999 4.1869998
-0.052999999 -0.41299999 4.1900001
-0.029999999 -0.412 4.1830001
-0.0060000001 -0.412 4.1820002
0.017000001 -0.41299999 4.191
0.041000001 -0.412 4.1859999
0.064000003 -0.412 4.1810002
0.088 -0.41299999 4.1859999
0.112 -0.41100001 4.1750002
0.13500001 -0.41100001 4.1690001
0.15899999 -0.41100001 4.1690001
0.183 -0.41100001 4.1700001
0.206 -0.41 4.1609998
0.23100001 -0.412 4.1750002
0.25400001 -0.41100001 4.1630001
0.278 -0.41100001 4.165
0.30199999 -0.41299999 4.1799998
0.324 -0.41 4.151
0.34900001 -0.41100001 4.1599998
0.373 -0.412 4.1659999
0.396 -0.41100001 4.1570001
0.419 -0.41100001 4.1529999
0.44400001 -0.412 4.1620002
0.46700001 -0.41100001 4.1529999
0.491 -0.41100001 4.1500001
0.51499999 -0.41100001 4.1500001
0.53899997 -0.412 4.151
0.56099999 -0.41100001 4.1350002
0.58700001 -0.412 4.1500001
0.60900003 -0.41100001 4.1360002
0.63300002 -0.41100001 4.131
0.65899998 -0.412 4.1420002
0.68300003 -0.41299999 4.1430001
0.70499998 -0.41100001 4.1259999
0.72899997 -0.412 4.1269999
0.75400001 -0.412 4.1259999
0.778 -0.412 4.1240001
0.80400002 -0.414 4.131
0.82499999 -0.412 4.1149998
0.85100001 -0.41299999 4.1199999
0.87400001 -0.41299999 4.112
0.89999998 -0.414 4.1160002
0.92400002 -0.414 4.112
0.94999999 -0.41499999 4.119
0.97500002 -0.41499999 4.1160002
0.99800003 -0.41499999 4.1110001
1.023 -0.41499999 4.1079998
1.048 -0.41600001 4.1059999
1.071 -0.41600001 4.099
1.098 -0.417 4.1030002
1.1210001 -0.41600001 4.0939999
1.148 -0.417 4.098
1.173 -0.41800001 4.0960002
1.2 -0.419 4.0999999
1.222 -0.41800001 4.0869999
1.25 -0.419 4.0910001
1.277 -0.41999999 4.0939999
1.2970001 -0.419 4.0739999
1.322 -0.419 4.0700002
1.349 -0.41999999 4.073
1.377 -0.421 4.0770001
1.404 -0.42199999 4.0760002
1.4299999 -0.42300001 4.0749998
1.451 -0.421 4.0560002
1.4809999 -0.42300001 4.0640001
1.5039999 -0.42300001 4.053
1.531 -0.42300001 4.052
1.561 -0.42500001 4.059
1.5880001 -0.426 4.0570002
1.6160001 -0.42699999 4.0570002
1.643 -0.42699999 4.052
1.6670001 -0.42699999 4.0430002
1.7 -0.42899999 4.053
1.725 -0.42899999 4.0450001
1.758 -0.43099999 4.0549998
1.784 -0.43099999 4.046
1.808 -0.43099999 4.0349998
1.835 -0.43200001 4.0300002
1.875 -0.435 4.0539999
1.891 -0.433 4.0240002
1.92 -0.43399999 4.0219998
1.954 -0.43599999 4.0300002
1.982 -0.43700001 4.0240002
2.0179999 -0.43900001 4.0349998
2.043 -0.43900001 4.0240002
2.076 -0.44100001 4.026
2.1010001 -0.44100001 4.0149999
2.135 -0.442 4.0190001
2.1619999 -0.44299999 4.0110002
2.1949999 -0.44400001 4.0120001
2.227 -0.44600001 4.0110002
2.256 -0.44600001 4.0040002
-2.4619999 -0.46200001 4.3889999
-2.4159999 -0.458 4.3709998
-2.372 -0.45500001 4.3540001
-2.342 -0.45500001 4.3629999
-2.312 -0.454 4.3709998
-2.276 -0.45300001 4.368
-2.2409999 -0.45100001 4.3660002
-2.2090001 -0.44999999 4.3709998
-2.1730001 -0.449 4.3649998
-2.1340001 -0.44600001 4.3530002
-2.102 -0.44499999 4.355
-2.066 -0.44299999 4.348
-2.033 -0.442 4.348
-1.999 -0.44 4.3429999
-1.9680001 -0.44 4.3460002
-1.936 -0.43799999 4.3449998
-1.906 -0.43799999 4.3470001
-1.875 -0.43700001 4.348
-1.841 -0.435 4.3400002
-1.8099999 -0.43399999 4.3400002
-1.776 -0.43200001 4.3330002
-1.743 -0.43000001 4.3260002
-1.716 -0.43000001 4.3340001
-1.681 -0.428 4.3200002
-1.655 -0.428 4.3299999
-1.623 -0.426 4.323
-1.594 -0.426 4.3239999
-1.567 -0.42500001 4.3309999
-1.536 -0.42399999 4.3239999
-1.5039999 -0.42199999 4.3140001
-1.474 -0.421 4.3119998
-1.448 -0.421 4.3189998
-1.418 -0.41999999 4.3119998
-1.387 -0.41800001 4.303
-1.3559999 -0.41600001 4.2930002
-1.334 -0.41800001 4.3130002
-1.3049999 -0.41600001 4.3070002
-1.274 -0.41499999 4.2969999
-1.2460001 -0.414 4.2950001
-1.217 -0.412 4.2859998
-1.187 -0.41100001 4.276
-1.165 -0.412 4.2940001
-1.138 -0.41100001 4.2940001
-1.108 -0.41 4.2820001
-1.081 -0.40900001 4.2800002
-1.057 -0.40900001 4.289
-1.028 -0.40799999 4.2779999
-1 -0.40599999 4.2709999
-0.97399998 -0.40599999 4.2690001
-0.94700003 -0.405 4.2649999
-0.921 -0.40400001 4.2670002
-0.89399999 -0.403 4.256
-0.86799997 -0.40200001 4.2550001
-0.84299999 -0.403 4.2610002
-0.81699997 -0.40200001 4.256
-0.79000002 -0.40000001 4.2470002
-0.76599997 -0.40099999 4.2550001
-0.73799998 -0.39899999 4.2399998
-0.713 -0.39899999 4.2399998
-0.68599999 -0.39700001 4.2259998
-0.66399997 -0.398 4.2420001
-0.63800001 -0.398 4.2389998
-0.61400002 -0.39700001 4.2410002
-0.58899999 -0.39700001 4.2399998
-0.56199998 -0.396 4.2270002
-0.53899997 -0.396 4.2360001
-0.514 -0.39500001 4.23
-0.48899999 -0.39500001 4.2290001
-0.465 -0.39500001 4.2280002
-0.43900001 -0.39300001 4.2119999
-0.41499999 -0.39300001 4.2179999
-0.391 -0.39399999 4.223
-0.366 -0.39300001 4.2160001
-0.34200001 -0.39199999 4.2150002
-0.31799999 -0.39199999 4.2119999
-0.29300001 -0.391 4.2020001
-0.26899999 -0.391 4.2020001
-0.245 -0.391 4.21
-0.221 -0.391 4.2020001
-0.197 -0.38999999 4.1999998
-0.17399999 -0.39199999 4.2160001
-0.149 -0.38999999 4.1960001
-0.125 -0.38999999 4.2049999
-0.101 -0.38999999 4.1989999
-0.077 -0.38999999 4.197
-0.052999999 -0.389 4.1900001
-0.029999999 -0.38999999 4.2010002
-0.0060000001 -0.38800001 4.1820002
0.017000001 -0.38999999 4.2030001
0.041000001 -0.389 4.1880002
0.064000003 -0.38800001 4.1799998
0.088 -0.38800001 4.1849999
0.112 -0.38800001 4.1810002
0.13600001 -0.38800001 4.1830001
0.15899999 -0.38800001 4.1750002
0.184 -0.389 4.1880002
0.207 -0.38800001 4.1729999
0.23 -0.38800001 4.1729999
0.255 -0.38800001 4.1799998
0.278 -0.38800001 4.171
0.30199999 -0.38800001 4.1760001
0.32600001 -0.38800001 4.1729999
0.34900001 -0.38800001 4.1659999
0.373 -0.38800001 4.164
0.396 -0.38699999 4.1560001
0.421 -0.38800001 4.165
0.44299999 -0.38699999 4.1490002
0.46799999 -0.38800001 4.158
0.491 -0.38699999 4.1490002
0.51499999 -0.38800001 4.1529999
0.53899997 -0.38800001 4.1479998
0.56199998 -0.38800001 4.1459999
0.588 -0.389 4.1539998
0.60900003 -0.38699999 4.1329999
0.634 -0.38800001 4.1430001
0.65799999 -0.38800001 4.1370001
0.68400002 -0.389 4.1469998
0.70499998 -0.38800001 4.1279998
0.73000002 -0.38800001 4.1300001
0.755 -0.389 4.1360002
0.778 -0.389 4.1279998
0.801 -0.38800001 4.1199999
0.82700002 -0.389 4.1269999
0.84899998 -0.38800001 4.1110001
0.87699997 -0.38999999 4.1279998
0.90100002 -0.38999999 4.1230001
0.92400002 -0.38999999 4.1170001
0.949 -0.38999999 4.1160002
0.97299999 -0.391 4.112
0.99800003 -0.391 4.1090002
1.024 -0.39199999 4.1129999
1.05 -0.39300001 4.118
1.076 -0.39300001 4.119
1.099 -0.39300001 4.1079998
1.125 -0.39399999 4.1110001
1.15 -0.39399999 4.1069999
1.176 -0.39500001 4.1090002
1.2 -0.39399999 4.0999999
1.221 -0.39399999 4.0869999
1.251 -0.39500001 4.0970001
1.274 -0.39500001 4.086
1.299 -0.39500001 4.0830002
1.3279999 -0.39700001 4.0910001
1.349 -0.396 4.0739999
1.373 -0.396 4.0669999
1.405 -0.398 4.0819998
1.431 -0.398 4.0780001
1.457 -0.39899999 4.0749998
1.484 -0.39899999 4.0739999
1.511 -0.40000001 4.073
1.5369999 -0.40099999 4.0700002
1.563 -0.40099999 4.0650001
1.591 -0.40200001 4.0650001
1.622 -0.403 4.072
1.645 -0.403 4.0609999
1.674 -0.40400001 4.0619998
1.7 -0.40400001 4.0560002
1.732 -0.40599999 4.0640001
1.7539999 -0.405 4.0469999
1.785 -0.40700001 4.052
1.809 -0.40700001 4.04
1.842 -0.40799999 4.0479999
1.872 -0.40900001 4.0479999
1.898 -0.41 4.04
1.923 -0.41 4.0289998
1.954 -0.41100001 4.0310001
1.985 -0.412 4.0320001
2.0190001 -0.414 4.039
2.0450001 -0.414 4.0289998
2.072 -0.414 4.0209999
2.1040001 -0.41600001 4.0240002
2.1370001 -0.417 4.0250001
2.164 -0.417 4.0149999
2.197 -0.419 4.0180001
2.227 -0.41999999 4.013
2.26 -0.421 4.0149999
-2.4619999 -0.433 4.3909998
-2.421 -0.43099999 4.382
-2.3829999 -0.42899999 4.3759999
-2.349 -0.428 4.3779998
-2.3099999 -0.426 4.3699999
-2.2750001 -0.42500001 4.3699999
-2.237 -0.42300001 4.362
-2.2049999 -0.42199999 4.3639998
-2.1719999 -0.421 4.3670001
-2.138 -0.41999999 4.3639998
-2.1010001 -0.41800001 4.3559999
-2.0680001 -0.41600001 4.355
-2.0350001 -0.41499999 4.3540001
-2 -0.414 4.349
-1.9630001 -0.412 4.3369999
-1.939 -0.412 4.3540001
-1.903 -0.41 4.3429999
-1.874 -0.41 4.3470001
-1.844 -0.40900001 4.3499999
-1.808 -0.40700001 4.3379998
-1.7819999 -0.40700001 4.3499999
-1.747 -0.405 4.3379998
-1.715 -0.40400001 4.3330002
-1.6849999 -0.403 4.3340001
-1.656 -0.40200001 4.336
-1.622 -0.40000001 4.3239999
-1.595 -0.40000001 4.3280001
-1.564 -0.39899999 4.3239999
-1.536 -0.398 4.3270001
-1.5039999 -0.396 4.3179998
-1.478 -0.396 4.3249998
-1.447 -0.39500001 4.3169999
-1.4170001 -0.39399999 4.3130002
-1.386 -0.39199999 4.303
-1.36 -0.39199999 4.3099999
-1.334 -0.39199999 4.3140001
-1.303 -0.38999999 4.3049998
-1.276 -0.38999999 4.3049998
-1.248 -0.389 4.302
-1.217 -0.38699999 4.2909999
-1.1900001 -0.38699999 4.29
-1.164 -0.38600001 4.2940001
-1.137 -0.38600001 4.2909999
-1.109 -0.38499999 4.2870002
-1.084 -0.38499999 4.2909999
-1.0549999 -0.38299999 4.2839999
-1.031 -0.384 4.2909999
-1.001 -0.382 4.276
-0.97500002 -0.38100001 4.2750001
-0.94599998 -0.37900001 4.2620001
-0.92000002 -0.37900001 4.2600002
-0.89499998 -0.37900001 4.263
-0.86900002 -0.37799999 4.2620001
-0.84299999 -0.37799999 4.2610002
-0.81599998 -0.377 4.2550001
-0.79100001 -0.377 4.257
-0.76499999 -0.37599999 4.2509999
-0.741 -0.37599999 4.256
-0.71600002 -0.37599999 4.2579999
-0.68800002 -0.37400001 4.2399998
-0.662 -0.373 4.2350001
-0.63700002 -0.373 4.2340002
-0.61299998 -0.37200001 4.2350001
-0.58700001 -0.37200001 4.2290001
-0.56300002 -0.37099999 4.23
-0.53899997 -0.37099999 4.2340002
-0.51300001 -0.37099999 4.2290001
-0.48800001 -0.37 4.2199998
-0.46399999 -0.37 4.224
-0.44100001 -0.37099999 4.2350001
-0.41499999 -0.36899999 4.2189999
-0.391 -0.36899999 4.2259998
-0.366 -0.368 4.2140002
-0.34200001 -0.36899999 4.2210002
-0.31799999 -0.368 4.2179999
-0.29300001 -0.368 4.2129998
-0.26899999 -0.368 4.2140002
-0.245 -0.36700001 4.2049999
-0.222 -0.368 4.217
-0.19599999 -0.36500001 4.1900001
-0.17299999 -0.36700001 4.2090001
-0.149 -0.366 4.2010002
-0.125 -0.366 4.2020001
-0.101 -0.366 4.1989999
-0.077 -0.36399999 4.1859999
-0.054000001 -0.366 4.2030001
-0.029999999 -0.36500001 4.1950002
-0.0060000001 -0.36500001 4.1960001
0.017000001 -0.36500001 4.1919999
0.041000001 -0.36399999 4.1859999
0.064999998 -0.36500001 4.1950002
0.088 -0.366 4.198
0.112 -0.36500001 4.1869998
0.13600001 -0.36399999 4.1849999
0.15899999 -0.36399999 4.177
0.183 -0.36399999 4.1810002
0.207 -0.36399999 4.1820002
0.23100001 -0.36399999 4.1799998
0.25400001 -0.36300001 4.1690001
0.27900001 -0.36500001 4.1830001
0.30199999 -0.36399999 4.1760001
0.32499999 -0.36399999 4.1700001
0.34799999 -0.36300001 4.1609998
0.373 -0.36399999 4.1700001
0.396 -0.36399999 4.165
0.41999999 -0.36399999 4.1589999
0.44400001 -0.36399999 4.1609998
0.46700001 -0.36300001 4.1539998
0.491 -0.36399999 4.1560001
0.51599997 -0.36399999 4.1589999
0.53899997 -0.36399999 4.1529999
0.56400001 -0.36500001 4.158
0.58600003 -0.36399999 4.145
0.61000001 -0.36399999 4.1459999
0.634 -0.36399999 4.1389999
0.65799999 -0.36399999 4.1420002
0.68300003 -0.36500001 4.1430001
0.70499998 -0.36399999 4.131
0.73100001 -0.36500001 4.138
0.75400001 -0.36500001 4.1300001
0.778 -0.36500001 4.1279998
0.80299997 -0.36500001 4.1290002
0.82800001 -0.366 4.132
0.85000002 -0.36500001 4.1220002
0.87800002 -0.36700001 4.1339998
0.89700001 -0.36500001 4.1100001
0.92500001 -0.36700001 4.1240001
0.95300001 -0.368 4.1360002
0.977 -0.368 4.1300001
0.99699998 -0.366 4.1079998
1.024 -0.368 4.1160002
1.051 -0.36899999 4.1209998
1.0700001 -0.36700001 4.0970001
1.098 -0.368 4.1069999
1.1210001 -0.368 4.0999999
1.148 -0.36899999 4.1040001
1.173 -0.36899999 4.0999999
1.201 -0.37099999 4.1079998
1.223 -0.37 4.0929999
1.252 -0.37099999 4.1020002
1.274 -0.37099999 4.0910001
1.303 -0.37200001 4.098
1.323 -0.37099999 4.0770001
1.352 -0.37200001 4.086
1.3789999 -0.373 4.0879998
1.404 -0.373 4.0799999
1.429 -0.373 4.0739999
1.452 -0.373 4.0650001
1.485 -0.375 4.0799999
1.511 -0.37599999 4.0760002
1.535 -0.375 4.0669999
1.564 -0.377 4.0710001
1.5880001 -0.37599999 4.0609999
1.618 -0.37799999 4.0669999
1.647 -0.37900001 4.0679998
1.6720001 -0.37900001 4.0599999
1.701 -0.38 4.0599999
1.729 -0.38 4.0599999
1.753 -0.38 4.0469999
1.7819999 -0.38100001 4.0479999
1.813 -0.382 4.052
1.844 -0.384 4.0549998
1.867 -0.38299999 4.04
1.899 -0.38499999 4.046
1.923 -0.38499999 4.033
1.962 -0.38699999 4.0500002
1.988 -0.38699999 4.0409999
2.017 -0.38800001 4.0380001
2.043 -0.38800001 4.0279999
2.075 -0.389 4.0289998
2.1070001 -0.391 4.0300002
2.138 -0.39199999 4.0300002
2.175 -0.39399999 4.039
2.2030001 -0.39399999 4.0300002
2.2349999 -0.39500001 4.0310001
2.267 -0.396 4.0279999
-2.461 -0.405 4.3909998
-2.418 -0.40200001 4.3779998
-2.381 -0.40099999 4.3759999
-2.348 -0.40000001 4.3790002
-2.3110001 -0.39899999 4.375
-2.2809999 -0.398 4.382
-2.2420001 -0.396 4.3740001
-2.2090001 -0.39500001 4.375
-2.1760001 -0.39399999 4.3759999
-2.142 -0.39300001 4.375
-2.108 -0.39199999 4.3730001
-2.069 -0.389 4.3600001
-2.04 -0.389 4.368
-2.007 -0.38800001 4.3649998
-1.971 -0.38600001 4.3559999
-1.941 -0.38600001 4.3600001
-1.91 -0.38499999 4.3629999
-1.872 -0.382 4.3449998
-1.84 -0.38100001 4.3429999
-1.812 -0.38100001 4.3509998
-1.777 -0.37900001 4.3400002
-1.745 -0.37799999 4.335
-1.719 -0.37799999 4.3449998
-1.686 -0.377 4.3379998
-1.653 -0.375 4.329
-1.622 -0.37400001 4.3239999
-1.596 -0.37400001 4.3330002
-1.564 -0.373 4.3270001
-1.5369999 -0.37200001 4.3330002
-1.505 -0.37099999 4.3210001
-1.476 -0.37 4.3210001
-1.449 -0.37 4.3249998
-1.4170001 -0.368 4.3140001
-1.386 -0.36700001 4.3049998
-1.362 -0.36700001 4.3179998
-1.3329999 -0.366 4.3140001
-1.306 -0.366 4.316
-1.276 -0.36399999 4.3080001
-1.2460001 -0.36300001 4.2989998
-1.221 -0.36300001 4.3070002
-1.192 -0.36199999 4.2979999
-1.1619999 -0.36000001 4.2880001
-1.135 -0.36000001 4.2859998
-1.108 -0.359 4.2859998
-1.0829999 -0.359 4.2919998
-1.053 -0.35800001 4.2779999
-1.029 -0.35800001 4.2859998
-0.99900001 -0.35600001 4.27
-0.977 -0.35699999 4.289
-0.949 -0.35600001 4.2779999
-0.92199999 -0.35499999 4.2750001
-0.89399999 -0.354 4.2610002
-0.86799997 -0.35299999 4.2600002
-0.84299999 -0.35299999 4.2659998
-0.81599998 -0.352 4.257
-0.78899997 -0.35100001 4.2480001
-0.764 -0.35100001 4.2480001
-0.74000001 -0.35100001 4.2540002
-0.71499997 -0.35100001 4.2540002
-0.68800002 -0.34900001 4.2420001
-0.662 -0.34900001 4.237
-0.63800001 -0.34900001 4.243
-0.611 -0.347 4.224
-0.58700001 -0.347 4.2309999
-0.56300002 -0.347 4.2360001
-0.53899997 -0.347 4.2360001
-0.514 -0.347 4.2329998
-0.48800001 -0.34599999 4.224
-0.465 -0.34599999 4.2309999
-0.43900001 -0.345 4.223
-0.41499999 -0.345 4.2249999
-0.38999999 -0.345 4.2189999
-0.366 -0.34400001 4.2189999
-0.34200001 -0.34400001 4.2220001
-0.317 -0.34400001 4.2140002
-0.29300001 -0.34400001 4.2160001
-0.26800001 -0.34200001 4.1989999
-0.24600001 -0.34400001 4.2179999
-0.221 -0.34299999 4.2059999
-0.197 -0.34200001 4.204
-0.17299999 -0.34299999 4.211
-0.149 -0.34299999 4.211
-0.125 -0.34200001 4.2020001
-0.101 -0.34200001 4.2020001
-0.077 -0.34200001 4.2049999
-0.054000001 -0.34200001 4.2080002
-0.029999999 -0.34200001 4.2020001
-0.0060000001 -0.34200001 4.2010002
0.017000001 -0.34099999 4.1939998
0.041000001 -0.34099999 4.1989999
0.064999998 -0.34099999 4.1929998
0.088 -0.34099999 4.191
0.112 -0.34099999 4.1880002
0.13600001 -0.34099999 4.1890001
0.16 -0.34099999 4.1880002
0.183 -0.34 4.1789999
0.207 -0.34 4.1789999
0.23 -0.33899999 4.1669998
0.255 -0.34099999 4.184
0.278 -0.34099999 4.1830001
0.30199999 -0.34 4.1729999
0.32600001 -0.34 4.1760001
0.34999999 -0.34099999 4.1810002
0.373 -0.34 4.1729999
0.396 -0.34 4.1620002
0.41999999 -0.34 4.1630001
0.44400001 -0.34 4.1620002
0.46799999 -0.34099999 4.1669998
0.491 -0.34 4.1570001
0.51499999 -0.34 4.1589999
0.54000002 -0.34099999 4.1609998
0.56300002 -0.34 4.1560001
0.58700001 -0.34099999 4.1529999
0.61000001 -0.34 4.1479998
0.63499999 -0.34099999 4.1490002
0.65799999 -0.34099999 4.145
0.68300003 -0.34099999 4.145
0.708 -0.34099999 4.1479998
0.73199999 -0.34099999 4.145
0.75300002 -0.34099999 4.1300001
0.77999997 -0.34200001 4.1409998
0.80500001 -0.34200001 4.1420002
0.82700002 -0.34200001 4.132
0.85299999 -0.34200001 4.1339998
0.87400001 -0.34099999 4.1170001
0.90200001 -0.34299999 4.1350002
0.92500001 -0.34299999 4.1259999
0.949 -0.34299999 4.1220002
0.97500002 -0.34299999 4.1230001
1 -0.34400001 4.125
1.026 -0.34400001 4.1269999
1.049 -0.34400001 4.1160002
1.075 -0.345 4.118
1.1 -0.345 4.119
1.125 -0.345 4.1149998
1.15 -0.34599999 4.1129999
1.177 -0.34599999 4.1149998
1.201 -0.34599999 4.1110001
1.226 -0.34599999 4.105
1.251 -0.347 4.1030002
1.273 -0.34599999 4.0890002
1.302 -0.347 4.0960002
1.327 -0.34799999 4.092
1.351 -0.34799999 4.0840001
1.378 -0.34799999 4.085
1.409 -0.34999999 4.0970001
1.431 -0.34900001 4.0830002
1.4579999 -0.34999999 4.0809999
1.485 -0.35100001 4.0809999
1.511 -0.35100001 4.079
1.54 -0.352 4.0819998
1.5700001 -0.35299999 4.0879998
1.591 -0.352 4.0700002
1.619 -0.35299999 4.0689998
1.648 -0.354 4.0710001
1.6720001 -0.354 4.0609999
1.701 -0.35499999 4.0630002
1.727 -0.35499999 4.0570002
1.756 -0.35600001 4.0560002
1.788 -0.35699999 4.0640001
1.813 -0.35699999 4.053
1.844 -0.359 4.0570002
1.864 -0.35800001 4.0370002
1.901 -0.36000001 4.0510001
1.928 -0.36000001 4.046
1.956 -0.361 4.04
1.988 -0.36199999 4.0440001
2.0150001 -0.36199999 4.0370002
2.049 -0.36399999 4.0409999
2.0739999 -0.36399999 4.0300002
2.1099999 -0.366 4.04
2.135 -0.366 4.027
2.171 -0.36700001 4.0339999
2.2030001 -0.368 4.033
2.237 -0.37 4.0370002
2.2650001 -0.37 4.0279999
-2.461 -0.377 4.3940001
-2.4360001 -0.377 4.414
-2.391 -0.375 4.3959999
-2.346 -0.37200001 4.3769999
-2.313 -0.37099999 4.381
-2.28 -0.37 4.3829999
-2.247 -0.36899999 4.3860002
-2.2119999 -0.368 4.3829999
-2.175 -0.366 4.3769999
-2.1429999 -0.366 4.3790002
-2.1110001 -0.36500001 4.382
-2.0710001 -0.36300001 4.3670001
-2.0369999 -0.361 4.3639998
-2.003 -0.36000001 4.3579998
-1.971 -0.359 4.3579998
-1.938 -0.35800001 4.3559999
-1.905 -0.35699999 4.3530002
-1.8710001 -0.35499999 4.3449998
-1.8430001 -0.35499999 4.3520002
-1.8099999 -0.354 4.3460002
-1.78 -0.35299999 4.349
-1.745 -0.352 4.3369999
-1.717 -0.35100001 4.342
-1.687 -0.34999999 4.3429999
-1.6569999 -0.34999999 4.3410001
-1.627 -0.34900001 4.3400002
-1.5930001 -0.347 4.3270001
-1.566 -0.347 4.3319998
-1.534 -0.345 4.3239999
-1.508 -0.34599999 4.3330002
