# .PCD v0.7 - Point Cloud Data file format
VERSION 0.7
FIELDS x y z
SIZE 4 4 4
TYPE F F F
COUNT 1 1 1
WIDTH 1668
HEIGHT 1
VIEWPOINT 0 0 0 1 0 0 0
POINTS 1668
DATA ascii
-2.4419999 -1.075 4.2579999
-2.405 -1.072 4.256
-2.3710001 -1.069 4.2579999
-2.3399999 -1.067 4.2659998
-2.303 -1.063 4.2620001
-2.2639999 -1.058 4.2529998
-2.2349999 -1.057 4.263
-2.194 -1.051 4.2490001
-2.165 -1.05 4.257
-2.1289999 -1.046 4.2529998
-2.0999999 -1.045 4.2610002
-2.063 -1.04 4.2519999
-2.029 -1.036 4.2490001
-2.0020001 -1.036 4.2589998
-1.964 -1.03 4.2480001
-1.928 -1.026 4.2379999
-1.896 -1.022 4.2350001
-1.867 -1.021 4.2399998
-1.8380001 -1.02 4.244
-1.798 -1.012 4.223
-1.7690001 -1.011 4.2270002
-1.74 -1.0089999 4.2319999
-1.706 -1.005 4.2210002
-1.6799999 -1.005 4.2309999
-1.647 -1.001 4.223
-1.6210001 -1.001 4.2319999
-1.5930001 -0.99900001 4.2340002
-1.562 -0.99599999 4.23
-1.534 -0.995 4.2340002
-1.501 -0.99000001 4.223
-1.472 -0.98799998 4.2210002
-1.4400001 -0.98299998 4.2090001
-1.416 -0.98500001 4.2220001
-1.388 -0.98299998 4.2220001
-1.355 -0.977 4.2059999
-1.326 -0.97500002 4.2020001
-1.302 -0.97600001 4.2160001
-1.271 -0.972 4.204
-1.244 -0.97100002 4.2059999
-1.217 -0.96899998 4.2030001
-1.193 -0.97000003 4.217
-1.164 -0.96700001 4.2090001
-1.136 -0.96499997 4.2049999
-1.105 -0.95899999 4.1869998
-1.085 -0.963 4.2119999
-1.056 -0.95999998 4.2020001
-1.028 -0.95700002 4.1960001
-1 -0.95499998 4.191
-0.96899998 -0.949 4.1690001
-0.94999999 -0.954 4.197
-0.91900003 -0.94700003 4.1729999
-0.89499998 -0.949 4.184
-0.86900002 -0.94700003 4.1799998
-0.84399998 -0.94700003 4.184
-0.81900001 -0.94599998 4.1859999
-0.792 -0.94300002 4.178
-0.764 -0.93900001 4.1620002
-0.74000001 -0.93900001 4.1700001
-0.71399999 -0.93800002 4.1669998
-0.68900001 -0.93699998 4.1669998
-0.66399997 -0.93599999 4.165
-0.63999999 -0.93599999 4.1690001
-0.61500001 -0.93599999 4.1750002
-0.588 -0.93199998 4.158
-0.56300002 -0.93000001 4.1500001
-0.53899997 -0.93099999 4.158
-0.51300001 -0.92799997 4.1490002
-0.48899999 -0.92799997 4.1500001
-0.46399999 -0.92699999 4.1479998
-0.44 -0.92699999 4.152
-0.41499999 -0.92299998 4.138
-0.391 -0.92500001 4.1459999
-0.36700001 -0.92400002 4.1440001
-0.34200001 -0.92199999 4.1399999
-0.31799999 -0.92199999 4.1420002
-0.29300001 -0.91900003 4.1279998
-0.26899999 -0.91900003 4.1300001
-0.24600001 -0.921 4.1409998
-0.222 -0.921 4.1399999
-0.197 -0.91799998 4.1279998
-0.17299999 -0.91799998 4.132
-0.15000001 -0.91900003 4.1360002
-0.125 -0.91600001 4.1230001
-0.101 -0.91500002 4.1170001
-0.077 -0.91399997 4.1139998
-0.054000001 -0.91399997 4.1149998
-0.029999999 -0.91299999 4.1110001
-0.0060000001 -0.91399997 4.1170001
0.017000001 -0.91299999 4.112
0.039999999 -0.91299999 4.112
0.064000003 -0.912 4.1079998
0.088 -0.91299999 4.112
0.111 -0.91000003 4.0949998
0.13500001 -0.90899998 4.0929999
0.15899999 -0.91000003 4.0960002
0.182 -0.90899998 4.0890002
0.207 -0.912 4.1020002
0.23 -0.90899998 4.0900002
0.25299999 -0.90899998 4.0879998
0.27700001 -0.90899998 4.0879998
0.30000001 -0.90899998 4.0830002
0.324 -0.90899998 4.0830002
0.347 -0.90799999 4.0780001
0.37200001 -0.91000003 4.086
0.39500001 -0.90899998 4.0780001
0.419 -0.90899998 4.073
0.44299999 -0.91100001 4.0819998
0.46700001 -0.91100001 4.079
0.49000001 -0.91000003 4.073
0.514 -0.91000003 4.0689998
0.53600001 -0.90799999 4.0570002
0.56099999 -0.91000003 4.066
0.58600003 -0.91100001 4.0679998
0.61000001 -0.912 4.0689998
0.63300002 -0.91100001 4.059
0.65700001 -0.91100001 4.0580001
0.68199998 -0.91399997 4.0650001
0.70599997 -0.91299999 4.0580001
0.73000002 -0.91299999 4.0560002
0.75199997 -0.912 4.046
0.77600002 -0.912 4.0430002
0.79900002 -0.91100001 4.0349998
0.82499999 -0.91299999 4.04
0.84899998 -0.91399997 4.0380001
0.87599999 -0.917 4.0469999
0.89899999 -0.917 4.0419998
0.92199999 -0.91500002 4.0300002
0.949 -0.91799998 4.039
0.972 -0.91799998 4.0320001
0.99699998 -0.91900003 4.0300002
1.022 -0.91900003 4.0279999
1.045 -0.91900003 4.0219998
1.075 -0.92400002 4.0380001
1.098 -0.92299998 4.027
1.118 -0.92000002 4.0089998
1.147 -0.92400002 4.0190001
1.171 -0.92400002 4.0139999
1.194 -0.92400002 4.0050001
1.219 -0.92400002 3.9990001
1.248 -0.92699999 4.0089998
1.2690001 -0.92500001 3.993
1.3 -0.93000001 4.0079999
1.323 -0.92900002 3.997
1.351 -0.93199998 4.0029998
1.377 -0.93400002 4
1.401 -0.93300003 3.9909999
1.427 -0.93400002 3.987
1.452 -0.935 3.983
1.482 -0.93800002 3.99
1.51 -0.94099998 3.9920001
1.535 -0.94099998 3.983
1.558 -0.94 3.9719999
1.587 -0.94300002 3.9760001
1.6160001 -0.94499999 3.9760001
1.637 -0.94300002 3.9590001
1.67 -0.94800001 3.971
1.694 -0.94800001 3.96
1.719 -0.94800001 3.9519999
1.749 -0.94999999 3.9530001
1.78 -0.954 3.9579999
1.8049999 -0.954 3.9489999
1.835 -0.95700002 3.951
1.862 -0.958 3.9430001
1.886 -0.958 3.9319999
1.9170001 -0.96100003 3.934
1.9450001 -0.96200001 3.9289999
1.98 -0.96700001 3.9389999
2.0050001 -0.96700001 3.928
2.0309999 -0.96700001 3.918
2.0680001 -0.97299999 3.9289999
2.0940001 -0.97299999 3.9189999
2.1300001 -0.97799999 3.9260001
2.154 -0.977 3.9119999
2.1930001 -0.98299998 3.924
2.221 -0.98500001 3.9159999
2.256 -0.98900002 3.9200001
-2.4519999 -1.052 4.2820001
-2.4089999 -1.045 4.2690001
-2.3670001 -1.039 4.257
-2.342 -1.04 4.2750001
-2.303 -1.035 4.2670002
-2.263 -1.03 4.257
-2.2349999 -1.029 4.2690001
-2.197 -1.024 4.2589998
-2.1670001 -1.023 4.2659998
-2.1289999 -1.018 4.257
-2.1010001 -1.018 4.2680001
-2.0580001 -1.01 4.2470002
-2.03 -1.0089999 4.256
-1.9960001 -1.006 4.2529998
-1.964 -1.003 4.2529998
-1.929 -0.99900001 4.244
-1.897 -0.99699998 4.2449999
-1.87 -0.99599999 4.2540002
-1.8380001 -0.99299997 4.25
-1.8 -0.98699999 4.2350001
-1.7690001 -0.98400003 4.2329998
-1.745 -0.986 4.2480001
-1.706 -0.97899997 4.2270002
-1.681 -0.97899997 4.2389998
-1.645 -0.97299999 4.2210002
-1.619 -0.97299999 4.2309999
-1.589 -0.97000003 4.2290001
-1.556 -0.96700001 4.2199998
-1.528 -0.96499997 4.223
-1.501 -0.96399999 4.2270002
-1.467 -0.95899999 4.211
-1.442 -0.95899999 4.2210002
-1.416 -0.95899999 4.2280002
-1.388 -0.958 4.2290001
-1.355 -0.95200002 4.2119999
-1.331 -0.95300001 4.224
-1.302 -0.95099998 4.2199998
-1.27 -0.94599998 4.2059999
-1.244 -0.94499999 4.211
-1.215 -0.94199997 4.2020001
-1.189 -0.94099998 4.2049999
-1.163 -0.94099998 4.21
-1.135 -0.93900001 4.2059999
-1.1059999 -0.935 4.198
-1.0829999 -0.93699998 4.211
-1.054 -0.93400002 4.2020001
-1.027 -0.93099999 4.197
-1.002 -0.93099999 4.2030001
-0.97299999 -0.92699999 4.1890001
-0.949 -0.92799997 4.1989999
-0.921 -0.92500001 4.191
-0.89399999 -0.92299998 4.1830001
-0.86699998 -0.921 4.1799998
-0.84299999 -0.921 4.1849999
-0.81900001 -0.92199999 4.1929998
-0.79000002 -0.917 4.1739998
-0.76499999 -0.91600001 4.1750002
-0.74000001 -0.91500002 4.1760001
-0.713 -0.912 4.165
-0.69199997 -0.917 4.1900001
-0.66399997 -0.912 4.1719999
-0.63599998 -0.90700001 4.1529999
-0.61199999 -0.90700001 4.1560001
-0.588 -0.90700001 4.1599998
-0.56199998 -0.90499997 4.1529999
-0.53799999 -0.90399998 4.152
-0.514 -0.90399998 4.1560001
-0.48899999 -0.90399998 4.1589999
-0.465 -0.903 4.1570001
-0.43900001 -0.90100002 4.1479998
-0.41600001 -0.90200001 4.1539998
-0.391 -0.89999998 4.1469998
-0.36700001 -0.89999998 4.152
-0.34299999 -0.89899999 4.1490002
-0.31799999 -0.89899999 4.1479998
-0.294 -0.898 4.145
-0.27000001 -0.89700001 4.1459999
-0.245 -0.89399999 4.132
-0.222 -0.89600003 4.1409998
-0.197 -0.89099997 4.1220002
-0.17299999 -0.89200002 4.1259999
-0.15000001 -0.89499998 4.1389999
-0.125 -0.89200002 4.1269999
-0.101 -0.89099997 4.125
-0.077 -0.889 4.1149998
-0.054000001 -0.89099997 4.1220002
-0.029999999 -0.88700002 4.1059999
-0.0060000001 -0.89200002 4.1290002
0.017000001 -0.88999999 4.1209998
0.039999999 -0.889 4.1170001
0.064000003 -0.88800001 4.112
0.088 -0.88599998 4.0999999
0.111 -0.88700002 4.1030002
0.13500001 -0.88700002 4.1069999
0.15899999 -0.88700002 4.105
0.183 -0.88700002 4.1059999
0.206 -0.88700002 4.1009998
0.229 -0.884 4.0890002
0.25299999 -0.884 4.0869999
0.27700001 -0.88499999 4.0910001
0.30000001 -0.88499999 4.0890002
0.324 -0.88499999 4.0869999
0.34799999 -0.88599998 4.0879998
0.37099999 -0.88499999 4.0819998
0.39500001 -0.88599998 4.0840001
0.41800001 -0.884 4.0770001
0.44299999 -0.88700002 4.086
0.46700001 -0.88599998 4.0799999
0.48899999 -0.884 4.0679998
0.51200002 -0.88300002 4.0609999
0.537 -0.88499999 4.0689998
0.56099999 -0.88499999 4.0650001
0.58499998 -0.88599998 4.0650001
0.60900003 -0.88700002 4.0679998
0.634 -0.88800001 4.0679998
0.65499997 -0.88499999 4.0510001
0.68199998 -0.88999999 4.0700002
0.70499998 -0.88800001 4.0570002
0.72899997 -0.889 4.059
0.75 -0.88499999 4.0380001
0.77600002 -0.88800001 4.046
0.80299997 -0.89200002 4.0609999
0.824 -0.889 4.0419998
0.85100001 -0.89200002 4.0539999
0.87099999 -0.88800001 4.0300002
0.89700001 -0.88999999 4.0359998
0.92000002 -0.88999999 4.0279999
0.94400001 -0.88999999 4.026
0.97100002 -0.89300001 4.0320001
0.99800003 -0.89600003 4.0409999
1.02 -0.89399999 4.0279999
1.048 -0.898 4.039
1.071 -0.89700001 4.0279999
1.098 -0.89899999 4.0349998
1.119 -0.89700001 4.0170002
1.149 -0.90100002 4.0310001
1.17 -0.89899999 4.0159998
1.202 -0.90499997 4.0370002
1.222 -0.90200001 4.0170002
1.244 -0.90100002 4.0029998
1.276 -0.90600002 4.0209999
1.3 -0.90600002 4.0149999
1.325 -0.90700001 4.0089998
1.35 -0.90700001 4.0019999
1.373 -0.90600002 3.9920001
1.404 -0.91100001 4.0050001
1.428 -0.91100001 3.997
1.452 -0.91000003 3.987
1.482 -0.91399997 3.994
1.508 -0.91500002 3.9909999
1.531 -0.91399997 3.98
1.561 -0.917 3.984
1.587 -0.91799998 3.9809999
1.615 -0.92000002 3.98
1.643 -0.92199999 3.9790001
1.674 -0.92500001 3.984
1.694 -0.92299998 3.9649999
1.725 -0.92699999 3.971
1.743 -0.92299998 3.9449999
1.776 -0.92699999 3.9530001
1.8 -0.92699999 3.9419999
1.836 -0.93199998 3.957
1.858 -0.93099999 3.941
1.893 -0.93599999 3.9519999
1.924 -0.93900001 3.9530001
1.952 -0.94 3.9489999
1.976 -0.94 3.9349999
2.0090001 -0.94300002 3.9400001
2.0320001 -0.94199997 3.924
2.059 -0.94400001 3.918
2.096 -0.949 3.927
2.1289999 -0.95200002 3.9300001
2.158 -0.954 3.9260001
2.1860001 -0.95499998 3.9170001
2.221 -0.95899999 3.9230001
2.2520001 -0.96100003 3.9189999
-2.441 -1.0190001 4.2680001
-2.4059999 -1.016 4.27
-2.368 -1.012 4.2649999
-2.345 -1.0140001 4.2870002
-2.3050001 -1.008 4.276
-2.267 -1.0039999 4.27
-2.237 -1.003 4.2779999
-2.2049999 -1.001 4.2810001
-2.1630001 -0.99400002 4.2659998
-2.1289999 -0.991 4.2639999
-2.102 -0.991 4.276
-2.0610001 -0.98400003 4.2589998
-2.0309999 -0.98299998 4.263
-1.992 -0.977 4.25
-1.959 -0.97399998 4.2480001
-1.931 -0.97299999 4.2550001
-1.897 -0.97000003 4.25
-1.864 -0.96600002 4.2459998
-1.836 -0.96600002 4.2519999
-1.7970001 -0.95899999 4.2319999
-1.7690001 -0.958 4.2379999
-1.739 -0.95599997 4.2379999
-1.71 -0.954 4.2410002
-1.6799999 -0.95200002 4.2420001
-1.652 -0.95099998 4.2449999
-1.62 -0.94800001 4.2389998
-1.5880001 -0.94400001 4.2319999
-1.557 -0.94099998 4.2259998
-1.533 -0.94199997 4.2410002
-1.497 -0.93599999 4.2199998
-1.465 -0.93199998 4.21
-1.438 -0.93099999 4.2150002
-1.418 -0.93400002 4.2379999
-1.387 -0.93099999 4.2309999
-1.358 -0.92799997 4.2259998
-1.334 -0.93000001 4.2379999
-1.301 -0.92400002 4.2210002
-1.272 -0.92199999 4.2179999
-1.244 -0.92000002 4.2160001
-1.216 -0.91799998 4.211
-1.188 -0.91600001 4.21
-1.1619999 -0.91500002 4.21
-1.1339999 -0.912 4.2069998
-1.11 -0.91299999 4.2160001
-1.082 -0.91100001 4.2119999
-1.054 -0.90799999 4.2049999
-1.028 -0.90700001 4.2059999
-1.002 -0.90600002 4.2069998
-0.97399998 -0.90399998 4.1999998
-0.949 -0.903 4.2030001
-0.91900003 -0.898 4.1849999
-0.89399999 -0.898 4.1900001
-0.87 -0.89899999 4.1989999
-0.84200001 -0.89499998 4.1859999
-0.81900001 -0.89700001 4.198
-0.79000002 -0.89200002 4.1799998
-0.76599997 -0.89200002 4.184
-0.74000001 -0.89099997 4.184
-0.71600002 -0.89099997 4.1849999
-0.68900001 -0.889 4.1789999
-0.66399997 -0.88700002 4.1739998
-0.63800001 -0.88599998 4.171
-0.61299998 -0.88499999 4.1700001
-0.588 -0.88300002 4.165
-0.56400001 -0.88300002 4.1669998
-0.537 -0.87900001 4.1529999
-0.514 -0.88200003 4.1680002
-0.48800001 -0.87699997 4.1500001
-0.465 -0.88 4.164
-0.44 -0.87699997 4.1550002
-0.41499999 -0.87599999 4.152
-0.38999999 -0.87300003 4.1399999
-0.366 -0.87300003 4.1399999
-0.34200001 -0.87400001 4.1469998
-0.31799999 -0.87400001 4.151
-0.294 -0.87400001 4.1500001
-0.26899999 -0.87099999 4.1399999
-0.245 -0.87 4.138
-0.221 -0.87099999 4.1420002
-0.197 -0.87099999 4.1409998
-0.17299999 -0.86900002 4.1350002
-0.149 -0.86799997 4.132
-0.125 -0.86799997 4.1290002
-0.101 -0.86699998 4.1279998
-0.077 -0.86699998 4.1259999
-0.054000001 -0.86799997 4.1339998
-0.029999999 -0.86699998 4.1279998
-0.0060000001 -0.86400002 4.1170001
0.017000001 -0.866 4.125
0.039999999 -0.86500001 4.1170001
0.064000003 -0.866 4.1220002
0.088 -0.86400002 4.1160002
0.112 -0.86299998 4.1110001
0.13500001 -0.86299998 4.1069999
0.15899999 -0.861 4.0999999
0.182 -0.861 4.0999999
0.206 -0.861 4.0949998
0.23 -0.86299998 4.1030002
0.25299999 -0.86199999 4.0999999
0.27700001 -0.861 4.0939999
0.301 -0.86400002 4.1069999
0.32499999 -0.86400002 4.1030002
0.34799999 -0.861 4.0890002
0.37099999 -0.861 4.0869999
0.396 -0.86400002 4.099
0.419 -0.86199999 4.086
0.442 -0.861 4.0819998
0.46599999 -0.86199999 4.0830002
0.48899999 -0.86000001 4.072
0.514 -0.86199999 4.0799999
0.53600001 -0.861 4.0679998
0.56 -0.861 4.0679998
0.58499998 -0.86199999 4.072
0.60900003 -0.86299998 4.0689998
0.63200003 -0.86199999 4.0650001
0.65700001 -0.86299998 4.0669999
0.68000001 -0.86299998 4.059
0.70200002 -0.861 4.0479999
0.72899997 -0.86500001 4.0650001
0.75300002 -0.86500001 4.059
0.778 -0.86699998 4.0640001
0.80299997 -0.86799997 4.066
0.82499999 -0.866 4.053
0.84899998 -0.866 4.0469999
0.875 -0.86799997 4.0549998
0.89999998 -0.86900002 4.0549998
0.92400002 -0.86900002 4.0479999
0.94800001 -0.86900002 4.0440001
0.97100002 -0.86900002 4.0370002
0.99699998 -0.87 4.039
1.022 -0.87099999 4.0380001
1.048 -0.87300003 4.0409999
1.072 -0.87300003 4.0349998
1.094 -0.87199998 4.0229998
1.119 -0.87300003 4.0219998
1.145 -0.87400001 4.0240002
1.173 -0.87699997 4.0310001
1.1950001 -0.875 4.0159998
1.222 -0.87800002 4.0190001
1.251 -0.88200003 4.0310001
1.276 -0.88200003 4.0240002
1.299 -0.88099998 4.0159998
1.3279999 -0.884 4.0209999
1.352 -0.884 4.0149999
1.378 -0.88499999 4.013
1.404 -0.88599998 4.0089998
1.427 -0.88599998 3.9990001
1.455 -0.88800001 4
1.482 -0.889 4
1.507 -0.889 3.993
1.535 -0.89200002 3.994
1.561 -0.89300001 3.99
1.587 -0.89399999 3.9860001
1.6160001 -0.89600003 3.9860001
1.642 -0.89700001 3.9809999
1.668 -0.89700001 3.9760001
1.698 -0.89999998 3.98
1.723 -0.90100002 3.9719999
1.753 -0.903 3.973
1.77 -0.89899999 3.9460001
1.806 -0.90499997 3.96
1.8380001 -0.90799999 3.9660001
1.862 -0.90799999 3.954
1.89 -0.91000003 3.951
1.9220001 -0.91299999 3.9549999
1.947 -0.91299999 3.944
1.975 -0.91399997 3.9400001
2.007 -0.917 3.941
2.039 -0.92000002 3.944
2.059 -0.91799998 3.9230001
2.095 -0.92299998 3.931
2.1259999 -0.92500001 3.9300001
2.1559999 -0.92699999 3.9260001
2.1889999 -0.93000001 3.928
2.221 -0.93300003 3.927
2.2590001 -0.93800002 3.9360001
-2.4430001 -0.99199998 4.277
-2.408 -0.98900002 4.2789998
-2.3729999 -0.986 4.2789998
-2.3380001 -0.98299998 4.2800002
-2.306 -0.98100001 4.2849998
-2.2650001 -0.97600001 4.2729998
-2.237 -0.97500002 4.283
-2.2 -0.97100002 4.277
-2.165 -0.96799999 4.2750001
-2.128 -0.963 4.2680001
-2.0910001 -0.95899999 4.2579999
-2.0580001 -0.95599997 4.2589998
-2.027 -0.954 4.2620001
-1.993 -0.95099998 4.257
-1.96 -0.94800001 4.2550001
-1.9299999 -0.94599998 4.257
-1.897 -0.94300002 4.2550001
-1.862 -0.93900001 4.2459998
-1.839 -0.94099998 4.2649999
-1.802 -0.935 4.25
-1.7690001 -0.93099999 4.243
-1.74 -0.93000001 4.2459998
-1.7079999 -0.92699999 4.2420001
-1.681 -0.92699999 4.2490001
-1.65 -0.92400002 4.2470002
-1.619 -0.921 4.2410002
-1.5880001 -0.91799998 4.2379999
-1.554 -0.91399997 4.2249999
-1.53 -0.91500002 4.2379999
-1.502 -0.91299999 4.2389998
-1.471 -0.91000003 4.2329998
-1.4400001 -0.90700001 4.2249999
-1.415 -0.90700001 4.2350001
-1.382 -0.90200001 4.2189999
-1.355 -0.90100002 4.2220001
-1.329 -0.90100002 4.2290001
-1.301 -0.89899999 4.2249999
-1.274 -0.89700001 4.2270002
-1.245 -0.89499998 4.223
-1.2180001 -0.89399999 4.224
-1.187 -0.88999999 4.21
-1.16 -0.88800001 4.21
-1.135 -0.88800001 4.2160001
-1.1059999 -0.88499999 4.2059999
-1.08 -0.884 4.2090001
-1.054 -0.88300002 4.211
-1.027 -0.88200003 4.2069998
-0.99800003 -0.87800002 4.198
-0.972 -0.87699997 4.1960001
-0.94700003 -0.87599999 4.1989999
-0.92199999 -0.87699997 4.2049999
-0.89399999 -0.87400001 4.1950002
-0.86799997 -0.87199998 4.1900001
-0.84200001 -0.87 4.1880002
-0.81800002 -0.87099999 4.1950002
-0.792 -0.87 4.197
-0.76499999 -0.86699998 4.1849999
-0.74299997 -0.86900002 4.2020001
-0.71399999 -0.86400002 4.1810002
-0.68800002 -0.86199999 4.1739998
-0.66299999 -0.861 4.1719999
-0.639 -0.86199999 4.1820002
-0.61400002 -0.861 4.1789999
-0.588 -0.85900003 4.1729999
-0.56400001 -0.85799998 4.1719999
-0.53899997 -0.85699999 4.1680002
-0.514 -0.85600001 4.165
-0.48899999 -0.85500002 4.165
-0.46399999 -0.85399997 4.1620002
-0.44 -0.85299999 4.1609998
-0.41499999 -0.85299999 4.1599998
-0.38999999 -0.85000002 4.1469998
-0.366 -0.85000002 4.1500001
-0.34099999 -0.84799999 4.1440001
-0.31799999 -0.85000002 4.1539998
-0.29300001 -0.84799999 4.145
-0.26899999 -0.847 4.1459999
-0.245 -0.84500003 4.1350002
-0.221 -0.84600002 4.1420002
-0.197 -0.84600002 4.1440001
-0.17299999 -0.84500003 4.1399999
-0.149 -0.84500003 4.1399999
-0.125 -0.84500003 4.1420002
-0.101 -0.84299999 4.132
-0.077 -0.84100002 4.1220002
-0.054000001 -0.84100002 4.125
-0.029999999 -0.84399998 4.1370001
-0.0060000001 -0.84299999 4.131
0.017000001 -0.84399998 4.138
0.039999999 -0.84100002 4.1230001
0.064000003 -0.84100002 4.1230001
0.088 -0.83999997 4.119
0.111 -0.83700001 4.0999999
0.13500001 -0.84100002 4.1220002
0.15899999 -0.83899999 4.1129999
0.183 -0.84100002 4.119
0.206 -0.83899999 4.1100001
0.23 -0.838 4.1040001
0.25400001 -0.83899999 4.1069999
0.27700001 -0.83700001 4.098
0.30000001 -0.83700001 4.0929999
0.32499999 -0.83899999 4.1009998
0.34900001 -0.83999997 4.1040001
0.37200001 -0.838 4.0970001
0.39399999 -0.83600003 4.0819998
0.419 -0.838 4.0900002
0.442 -0.83600003 4.079
0.46700001 -0.83899999 4.0900002
0.49000001 -0.83899999 4.0879998
0.51200002 -0.83600003 4.0710001
0.537 -0.83700001 4.073
0.56099999 -0.838 4.0770001
0.58399999 -0.838 4.0710001
0.60900003 -0.83899999 4.0749998
0.63200003 -0.838 4.0640001
0.65799999 -0.84100002 4.0760002
0.67900002 -0.838 4.059
0.70499998 -0.84100002 4.0689998
0.72799999 -0.83899999 4.059
0.75400001 -0.84200001 4.0689998
0.77700001 -0.84100002 4.0599999
0.801 -0.84100002 4.0560002
0.82599998 -0.84299999 4.0619998
0.85000002 -0.84299999 4.0549998
0.875 -0.84500003 4.0599999
0.89899999 -0.84399998 4.0539999
0.92299998 -0.84500003 4.052
0.94700003 -0.84500003 4.046
0.97500002 -0.84799999 4.0580001
0.99699998 -0.847 4.0450001
1.024 -0.84899998 4.053
1.0470001 -0.84899998 4.0430002
1.072 -0.85000002 4.0430002
1.096 -0.84899998 4.0349998
1.119 -0.84899998 4.027
1.148 -0.85299999 4.04
1.1720001 -0.85299999 4.033
1.1950001 -0.85100001 4.0209999
1.221 -0.85299999 4.0229998
1.252 -0.85799998 4.039
1.272 -0.85500002 4.0170002
1.301 -0.85799998 4.0250001
1.327 -0.85900003 4.0250001
1.351 -0.85900003 4.0149999
1.377 -0.86000001 4.0149999
1.403 -0.861 4.0120001
1.432 -0.86400002 4.0180001
1.46 -0.866 4.0180001
1.483 -0.86500001 4.006
1.507 -0.86500001 3.9979999
1.53 -0.86400002 3.9860001
1.564 -0.87 4.0019999
1.592 -0.87199998 4.0029998
1.615 -0.87 3.9879999
1.642 -0.87199998 3.987
1.668 -0.87300003 3.9820001
1.6950001 -0.87400001 3.9779999
1.724 -0.87599999 3.9779999
1.751 -0.87699997 3.974
1.777 -0.87800002 3.9679999
1.8 -0.87699997 3.9530001
1.8329999 -0.88099998 3.961
1.862 -0.88300002 3.96
1.888 -0.884 3.9519999
1.918 -0.88599998 3.9519999
1.95 -0.889 3.9549999
1.976 -0.889 3.9449999
2.0079999 -0.89200002 3.948
2.03 -0.89099997 3.931
2.0650001 -0.89499998 3.9389999
2.0929999 -0.89600003 3.9319999
2.1329999 -0.903 3.948
2.1619999 -0.90399998 3.9419999
2.191 -0.90600002 3.938
2.22 -0.90700001 3.931
2.2550001 -0.91100001 3.9349999
-2.4430001 -0.96399999 4.2839999
-2.4089999 -0.96100003 4.2849998
-2.3800001 -0.96100003 4.2969999
-2.3399999 -0.95599997 4.2880001
-2.3069999 -0.954 4.2919998
-2.2679999 -0.949 4.2820001
-2.2309999 -0.94499999 4.2779999
-2.1949999 -0.94099998 4.2719998
-2.1670001 -0.94099998 4.283
-2.1300001 -0.93699998 4.277
-2.0940001 -0.93300003 4.2690001
-2.0599999 -0.93000001 4.2670002
-2.026 -0.92699999 4.2649999
-1.994 -0.92400002 4.263
-1.965 -0.92299998 4.2709999
-1.926 -0.917 4.2550001
-1.892 -0.91399997 4.2490001
-1.8660001 -0.91399997 4.2600002
-1.834 -0.91100001 4.257
-1.801 -0.90799999 4.2529998
-1.772 -0.90700001 4.256
-1.742 -0.90499997 4.256
-1.707 -0.89999998 4.2449999
-1.678 -0.89899999 4.2459998
-1.649 -0.89700001 4.2470002
-1.619 -0.89499998 4.2480001
-1.586 -0.89099997 4.2360001
-1.557 -0.889 4.237
-1.528 -0.88700002 4.237
-1.498 -0.88499999 4.2340002
-1.4680001 -0.88200003 4.23
-1.443 -0.88300002 4.2379999
-1.411 -0.87900001 4.2270002
-1.381 -0.87599999 4.2210002
-1.355 -0.87599999 4.2280002
-1.33 -0.87599999 4.2360001
-1.298 -0.87199998 4.223
-1.272 -0.87099999 4.2280002
-1.243 -0.86900002 4.2220001
-1.216 -0.86699998 4.2220001
-1.187 -0.86500001 4.2150002
-1.16 -0.86299998 4.2160001
-1.135 -0.86299998 4.2189999
-1.108 -0.86199999 4.2199998
-1.081 -0.86000001 4.217
-1.053 -0.85699999 4.21
-1.029 -0.85799998 4.2199998
-1.002 -0.85600001 4.2160001
-0.97100002 -0.85100001 4.1960001
-0.94999999 -0.85399997 4.217
-0.92000002 -0.85000002 4.1989999
-0.89399999 -0.84899998 4.1989999
-0.86699998 -0.847 4.1929998
-0.84399998 -0.84799999 4.2049999
-0.81699997 -0.84600002 4.198
-0.78899997 -0.84100002 4.1799998
-0.76499999 -0.84200001 4.1890001
-0.73900002 -0.83999997 4.184
-0.713 -0.83899999 4.1799998
-0.68900001 -0.83899999 4.1849999
-0.66500002 -0.83899999 4.1890001
-0.639 -0.83700001 4.1820002
-0.61400002 -0.83700001 4.1859999
-0.58700001 -0.833 4.1690001
-0.56300002 -0.833 4.1739998
-0.53899997 -0.833 4.1760001
-0.514 -0.833 4.1760001
-0.491 -0.83399999 4.1830001
-0.465 -0.83200002 4.177
-0.43900001 -0.82700002 4.1570001
-0.414 -0.82700002 4.1560001
-0.391 -0.82700002 4.1589999
-0.36700001 -0.82700002 4.1609998
-0.34099999 -0.824 4.1490002
-0.31799999 -0.82499999 4.1539998
-0.29300001 -0.82300001 4.1440001
-0.27000001 -0.82499999 4.1589999
-0.245 -0.82300001 4.151
-0.221 -0.82300001 4.1490002
-0.197 -0.81999999 4.1370001
-0.17299999 -0.81999999 4.1389999
-0.149 -0.82099998 4.1430001
-0.125 -0.81999999 4.1399999
-0.101 -0.81900001 4.1339998
-0.077 -0.81999999 4.1389999
-0.054000001 -0.81699997 4.1269999
-0.029999999 -0.81699997 4.1279998
-0.0060000001 -0.81599998 4.1230001
0.017000001 -0.81699997 4.1269999
0.039999999 -0.81599998 4.1199999
0.064000003 -0.81599998 4.1209998
0.088 -0.81699997 4.125
0.112 -0.81599998 4.118
0.13500001 -0.81699997 4.1230001
0.15899999 -0.815 4.1129999
0.183 -0.815 4.1160002
0.207 -0.81699997 4.1240001
0.23 -0.81599998 4.1149998
0.25400001 -0.81699997 4.119
0.278 -0.81599998 4.1139998
0.30000001 -0.81300002 4.0960002
0.324 -0.81300002 4.0970001
0.347 -0.81300002 4.0929999
0.37 -0.81099999 4.0840001
0.39500001 -0.81300002 4.0910001
0.419 -0.815 4.0999999
0.44299999 -0.815 4.0960002
0.46599999 -0.81400001 4.0900002
0.49000001 -0.81400001 4.0869999
0.51300001 -0.81300002 4.079
0.537 -0.81400001 4.0809999
0.56 -0.81300002 4.072
0.58399999 -0.81400001 4.0749998
0.60900003 -0.81599998 4.0830002
0.63099998 -0.81400001 4.0679998
0.65700001 -0.81599998 4.0780001
0.67900002 -0.815 4.0650001
0.70599997 -0.81800002 4.0770001
0.72899997 -0.81699997 4.0689998
0.75199997 -0.81699997 4.0650001
0.77600002 -0.81599998 4.0580001
0.801 -0.81800002 4.0650001
0.82599998 -0.81900001 4.0630002
0.85000002 -0.81999999 4.0630002
0.87400001 -0.81900001 4.0570002
0.89999998 -0.82099998 4.0630002
0.92400002 -0.82099998 4.0570002
0.949 -0.82200003 4.059
0.97399998 -0.82300001 4.059
0.99800003 -0.82300001 4.0539999
1.02 -0.82200003 4.0409999
1.044 -0.82200003 4.0370002
1.073 -0.82599998 4.0500002
1.095 -0.82499999 4.0380001
1.1210001 -0.82599998 4.039
1.1440001 -0.82599998 4.0300002
1.171 -0.82700002 4.0310001
1.2 -0.83099997 4.0430002
1.221 -0.829 4.026
1.248 -0.82999998 4.0279999
1.276 -0.833 4.033
1.298 -0.83200002 4.0209999
1.323 -0.833 4.0180001
1.349 -0.833 4.0149999
1.3789999 -0.83700001 4.0250001
1.399 -0.83399999 4.0040002
1.429 -0.838 4.0139999
1.456 -0.83899999 4.0120001
1.4809999 -0.83999997 4.007
1.506 -0.83999997 4
1.5369999 -0.84399998 4.0100002
1.561 -0.84399998 4
1.591 -0.84600002 4.0040002
1.613 -0.84500003 3.99
1.641 -0.847 3.9879999
1.668 -0.84799999 3.9849999
1.6950001 -0.84899998 3.983
1.727 -0.85299999 3.99
1.75 -0.852 3.9749999
1.778 -0.85399997 3.9749999
1.8049999 -0.85500002 3.97
1.834 -0.85699999 3.9690001
1.859 -0.85699999 3.9590001
1.8839999 -0.85699999 3.948
1.9170001 -0.86000001 3.954
1.946 -0.86199999 3.951
1.974 -0.86299998 3.947
2.003 -0.86500001 3.944
2.0350001 -0.86799997 3.9449999
2.0710001 -0.87199998 3.9549999
2.0929999 -0.87099999 3.937
2.1259999 -0.87400001 3.9389999
2.164 -0.87900001 3.95
2.1900001 -0.87900001 3.9389999
2.2219999 -0.88200003 3.938
2.2520001 -0.884 3.934
-2.45 -0.93800002 4.3000002
-2.405 -0.93199998 4.2849998
-2.3699999 -0.92900002 4.2849998
-2.336 -0.926 4.2859998
-2.2969999 -0.92199999 4.2789998
-2.2639999 -0.92000002 4.2810001
-2.2290001 -0.91600001 4.2779999
-2.197 -0.91500002 4.2820001
-2.164 -0.912 4.283
-2.1329999 -0.91100001 4.2870002
-2.0940001 -0.90600002 4.2750001
-2.059 -0.90200001 4.27
-2.0250001 -0.89899999 4.2659998
-1.994 -0.89700001 4.27
-1.964 -0.89600003 4.2729998
-1.929 -0.89200002 4.2659998
-1.893 -0.88800001 4.256
-1.864 -0.88599998 4.2589998
-1.8329999 -0.884 4.2610002
-1.7970001 -0.88 4.2490001
-1.771 -0.88 4.257
-1.742 -0.87800002 4.2620001
-1.705 -0.87300003 4.2449999
-1.678 -0.87199998 4.2509999
-1.649 -0.87099999 4.2529998
-1.619 -0.86900002 4.2529998
-1.592 -0.86799997 4.2579999
-1.556 -0.86299998 4.2399998
-1.525 -0.86000001 4.2329998
-1.5 -0.86000001 4.244
-1.47 -0.85799998 4.2389998
-1.442 -0.85699999 4.2420001
-1.415 -0.85600001 4.244
-1.383 -0.852 4.2319999
-1.352 -0.84799999 4.2210002
-1.326 -0.84799999 4.2290001
-1.294 -0.84399998 4.2150002
-1.271 -0.84500003 4.2280002
-1.243 -0.84299999 4.2270002
-1.214 -0.84100002 4.2210002
-1.1900001 -0.84100002 4.23
-1.161 -0.83899999 4.224
-1.135 -0.838 4.2249999
-1.107 -0.83499998 4.2179999
-1.082 -0.83600003 4.2270002
-1.0549999 -0.83399999 4.223
-1.027 -0.83099997 4.2150002
-0.99699998 -0.82800001 4.2030001
-0.97399998 -0.829 4.2150002
-0.94499999 -0.82499999 4.1999998
-0.92199999 -0.82700002 4.2140002
-0.89399999 -0.82300001 4.2010002
-0.87 -0.824 4.2090001
-0.84500003 -0.824 4.2129998
-0.81699997 -0.82099998 4.2030001
-0.79100001 -0.81900001 4.198
-0.76499999 -0.81800002 4.1929998
-0.741 -0.81800002 4.1999998
-0.71499997 -0.81599998 4.1929998
-0.68800002 -0.81400001 4.1869998
-0.662 -0.81099999 4.177
-0.639 -0.81300002 4.1880002
-0.61299998 -0.81099999 4.1830001
-0.58700001 -0.80900002 4.1719999
-0.56400001 -0.81 4.1820002
-0.53799999 -0.80800003 4.1729999
-0.514 -0.80800003 4.178
-0.48800001 -0.80500001 4.1659999
-0.465 -0.80699998 4.1760001
-0.44 -0.80500001 4.1719999
-0.41499999 -0.80299997 4.1609998
-0.38999999 -0.801 4.1560001
-0.366 -0.80299997 4.164
-0.34200001 -0.80199999 4.1609998
-0.317 -0.80000001 4.1560001
-0.29300001 -0.79799998 4.1479998
-0.26899999 -0.80000001 4.1570001
-0.245 -0.79699999 4.1459999
-0.221 -0.79900002 4.1529999
-0.197 -0.79699999 4.145
-0.17299999 -0.796 4.1440001
-0.149 -0.79500002 4.1399999
-0.125 -0.79799998 4.152
-0.101 -0.796 4.1469998
-0.077 -0.79400003 4.1350002
-0.054000001 -0.79400003 4.1339998
-0.029999999 -0.79400003 4.1360002
-0.0060000001 -0.79500002 4.1399999
0.017000001 -0.79299998 4.1279998
0.039999999 -0.792 4.1220002
0.064000003 -0.79400003 4.1329999
0.088 -0.792 4.1209998
0.112 -0.792 4.1240001
0.13500001 -0.79100001 4.1199999
0.15899999 -0.79299998 4.125
0.183 -0.792 4.1220002
0.206 -0.79000002 4.1100001
0.23 -0.79000002 4.1100001
0.25299999 -0.79100001 4.112
0.27700001 -0.79100001 4.112
0.30000001 -0.78899997 4.098
0.324 -0.79000002 4.1059999
0.34900001 -0.792 4.1129999
0.37099999 -0.78799999 4.092
0.39500001 -0.79100001 4.1020002
0.41999999 -0.792 4.1040001
0.44299999 -0.792 4.1040001
0.46700001 -0.792 4.1009998
0.491 -0.79100001 4.0970001
0.51300001 -0.79000002 4.0890002
0.53799999 -0.792 4.0929999
0.56 -0.78899997 4.0770001
0.58399999 -0.78899997 4.0760002
0.60799998 -0.79000002 4.0739999
0.634 -0.79299998 4.0869999
0.65600002 -0.79100001 4.0770001
0.68099999 -0.79299998 4.0819998
0.70499998 -0.79299998 4.079
0.72899997 -0.79299998 4.073
0.75199997 -0.792 4.066
0.77700001 -0.79400003 4.0700002
0.80000001 -0.79299998 4.0640001
0.82599998 -0.79500002 4.0700002
0.847 -0.792 4.0489998
0.87400001 -0.796 4.0619998
0.89899999 -0.79699999 4.0640001
0.92299998 -0.796 4.0570002
0.94800001 -0.79799998 4.0599999
0.972 -0.79799998 4.0539999
0.99400002 -0.79699999 4.0430002
1.021 -0.79900002 4.0500002
1.045 -0.79900002 4.0450001
1.069 -0.79900002 4.04
1.095 -0.801 4.0419998
1.1210001 -0.80199999 4.0409999
1.146 -0.80299997 4.04
1.168 -0.80199999 4.0279999
1.2 -0.80699998 4.0479999
1.223 -0.80599999 4.039
1.2460001 -0.80500001 4.0279999
1.276 -0.80900002 4.04
1.298 -0.80800003 4.026
1.324 -0.80900002 4.0250001
1.35 -0.80900002 4.0209999
1.377 -0.81199998 4.0240002
1.403 -0.81199998 4.0209999
1.432 -0.815 4.027
1.4579999 -0.81599998 4.0229998
1.485 -0.81800002 4.0229998
1.511 -0.81800002 4.0170002
1.53 -0.815 3.9949999
1.5650001 -0.82099998 4.013
1.59 -0.82099998 4.006
1.614 -0.82099998 3.9960001
1.641 -0.82200003 3.9920001
1.674 -0.82599998 4.0050001
1.696 -0.82499999 3.9890001
1.735 -0.83200002 4.013
1.751 -0.82800001 3.983
1.774 -0.82700002 3.97
1.811 -0.83200002 3.9860001
1.839 -0.83399999 3.983
1.862 -0.833 3.97
1.892 -0.83499998 3.9690001
1.921 -0.83700001 3.9679999
1.947 -0.83700001 3.9590001
1.977 -0.83899999 3.957
2.0039999 -0.83999997 3.95
2.039 -0.84399998 3.9579999
2.062 -0.84299999 3.9430001
2.092 -0.84500003 3.941
2.1210001 -0.847 3.9349999
2.155 -0.85000002 3.9400001
2.1900001 -0.85399997 3.9460001
2.223 -0.85699999 3.9460001
2.2520001 -0.85799998 3.9400001
-2.454 -0.912 4.3130002
-2.411 -0.90600002 4.3000002
-2.3710001 -0.90200001 4.2919998
-2.3299999 -0.89600003 4.2810001
-2.299 -0.89499998 4.2859998
-2.2650001 -0.89200002 4.2870002
-2.234 -0.89099997 4.2940001
-2.2030001 -0.88999999 4.3000002
-2.164 -0.88499999 4.289
-2.1270001 -0.88099998 4.2789998
-2.0929999 -0.87800002 4.277
-2.066 -0.87800002 4.289
-2.0280001 -0.87300003 4.2779999
-1.9960001 -0.87099999 4.2779999
-1.964 -0.86900002 4.2779999
-1.931 -0.866 4.2750001
-1.895 -0.86199999 4.2659998
-1.867 -0.861 4.2729998
-1.8329999 -0.85799998 4.2639999
-1.804 -0.85699999 4.2690001
-1.77 -0.85299999 4.2610002
-1.744 -0.85299999 4.2709999
-1.705 -0.847 4.2490001
-1.679 -0.847 4.2589998
-1.646 -0.84299999 4.2509999
-1.614 -0.83999997 4.244
-1.5880001 -0.83999997 4.2509999
-1.556 -0.83700001 4.243
-1.527 -0.83499998 4.243
-1.503 -0.83600003 4.256
-1.466 -0.82999998 4.2319999
-1.443 -0.83099997 4.2480001
-1.414 -0.829 4.2449999
-1.387 -0.82800001 4.2480001
-1.355 -0.82499999 4.2379999
-1.329 -0.824 4.2420001
-1.2970001 -0.81999999 4.2290001
-1.271 -0.81999999 4.2340002
-1.242 -0.81699997 4.2249999
-1.2180001 -0.81800002 4.237
-1.188 -0.815 4.2270002
-1.163 -0.815 4.2350001
-1.133 -0.81099999 4.2220001
-1.107 -0.81099999 4.224
-1.079 -0.80800003 4.2189999
-1.054 -0.80800003 4.223
-1.029 -0.80800003 4.23
-1 -0.80500001 4.2179999
-0.97299999 -0.80299997 4.2140002
-0.94499999 -0.801 4.2059999
-0.921 -0.801 4.2140002
-0.89300001 -0.79799998 4.204
-0.86799997 -0.79799998 4.2049999
-0.84200001 -0.796 4.2020001
-0.81800002 -0.79699999 4.21
-0.78899997 -0.79299998 4.191
-0.76599997 -0.79400003 4.2030001
-0.74000001 -0.79299998 4.1999998
-0.71600002 -0.79299998 4.2049999
-0.68800002 -0.78899997 4.1859999
-0.66399997 -0.78899997 4.1919999
-0.63800001 -0.787 4.184
-0.61299998 -0.787 4.1890001
-0.58999997 -0.78799999 4.197
-0.56300002 -0.78399998 4.178
-0.53899997 -0.78500003 4.1859999
-0.514 -0.78399998 4.1820002
-0.49000001 -0.78299999 4.1820002
-0.46399999 -0.77999997 4.1700001
-0.44 -0.78100002 4.177
-0.41499999 -0.77999997 4.1739998
-0.38999999 -0.77700001 4.1599998
-0.36700001 -0.77899998 4.1739998
-0.34099999 -0.77499998 4.1529999
-0.31799999 -0.778 4.1669998
-0.29300001 -0.77499998 4.1560001
-0.26899999 -0.77499998 4.1550002
-0.245 -0.77600002 4.1620002
-0.221 -0.77499998 4.158
-0.197 -0.77399999 4.1539998
-0.17299999 -0.77200001 4.1459999
-0.149 -0.77200001 4.1469998
-0.125 -0.76999998 4.138
-0.101 -0.77200001 4.1490002
-0.077 -0.76999998 4.1360002
-0.054000001 -0.76999998 4.1399999
-0.029999999 -0.77200001 4.1469998
-0.0060000001 -0.76999998 4.1370001
0.017000001 -0.76999998 4.1360002
0.039999999 -0.76700002 4.125
0.064000003 -0.76700002 4.1199999
0.088 -0.76800001 4.1259999
0.112 -0.76999998 4.138
0.13500001 -0.76899999 4.132
0.15899999 -0.76700002 4.1209998
0.182 -0.76700002 4.1199999
0.206 -0.76700002 4.1199999
0.229 -0.76499999 4.1090002
0.25400001 -0.76800001 4.1209998
0.27700001 -0.76599997 4.1100001
0.301 -0.76800001 4.1160002
0.324 -0.76599997 4.1079998
0.34900001 -0.76899999 4.1230001
0.37099999 -0.76499999 4.0999999
0.39399999 -0.76499999 4.0939999
0.41999999 -0.76800001 4.1110001
0.442 -0.76599997 4.0970001
0.46700001 -0.76700002 4.1020002
0.49000001 -0.76700002 4.099
0.514 -0.76700002 4.0970001
0.53899997 -0.76999998 4.1069999
0.56 -0.76499999 4.079
0.58600003 -0.76899999 4.0949998
0.60900003 -0.76700002 4.085
0.634 -0.76899999 4.0910001
0.65700001 -0.76800001 4.0840001
0.68099999 -0.76899999 4.086
0.70700002 -0.77100003 4.0910001
0.72899997 -0.76999998 4.0809999
0.75 -0.76700002 4.0619998
0.77499998 -0.76800001 4.0640001
0.80000001 -0.76899999 4.0679998
0.82499999 -0.76999998 4.0689998
0.84899998 -0.77100003 4.0669999
0.87199998 -0.76999998 4.059
0.89999998 -0.773 4.0710001
0.92500001 -0.77399999 4.072
0.94599998 -0.77200001 4.053
0.97399998 -0.77600002 4.0689998
0.99699998 -0.77399999 4.0570002
1.024 -0.77700001 4.0630002
1.0470001 -0.77600002 4.0549998
1.071 -0.77600002 4.0500002
1.098 -0.778 4.0549998
1.124 -0.77999997 4.0570002
1.148 -0.77999997 4.0500002
1.171 -0.77899998 4.0419998
1.199 -0.78100002 4.0469999
1.224 -0.78200001 4.046
1.249 -0.78299999 4.04
1.273 -0.78299999 4.0339999
1.3 -0.78500003 4.0370002
1.327 -0.78600001 4.039
1.353 -0.787 4.0349998
1.378 -0.78799999 4.0300002
1.41 -0.792 4.046
1.432 -0.79100001 4.0310001
1.455 -0.79000002 4.0190001
1.482 -0.79100001 4.0190001
1.51 -0.79299998 4.0180001
1.5369999 -0.79400003 4.0180001
1.5650001 -0.796 4.0180001
1.595 -0.79900002 4.0229998
1.617 -0.79799998 4.0089998
1.642 -0.79799998 3.9990001
1.67 -0.79900002 3.9990001
1.699 -0.801 4
1.728 -0.80400002 4.0019999
1.751 -0.80199999 3.987
1.781 -0.80500001 3.99
1.812 -0.80800003 3.993
1.837 -0.80800003 3.983
1.862 -0.80800003 3.974
1.895 -0.81099999 3.98
1.925 -0.81300002 3.9790001
1.949 -0.81300002 3.9660001
1.975 -0.81300002 3.957
2.006 -0.81599998 3.96
2.0380001 -0.81800002 3.961
2.0639999 -0.81900001 3.9519999
2.095 -0.82099998 3.951
2.1270001 -0.824 3.9519999
2.1530001 -0.824 3.9400001
2.187 -0.82700002 3.9449999
2.22 -0.82999998 3.944
2.2539999 -0.833 3.948
-2.451 -0.88200003 4.3119998
-2.418 -0.88 4.3169999
-2.369 -0.87300003 4.2930002
-2.335 -0.87099999 4.2950001
-2.302 -0.86799997 4.2969999
-2.267 -0.866 4.2969999
-2.233 -0.86299998 4.296
-2.198 -0.86000001 4.2940001
-2.1619999 -0.85699999 4.29
-2.1210001 -0.85100001 4.2729998
-2.0929999 -0.85100001 4.2839999
-2.0610001 -0.84899998 4.2849998
-2.0239999 -0.84500003 4.2740002
-1.9910001 -0.84200001 4.2729998
-1.962 -0.84100002 4.2779999
-1.926 -0.83700001 4.2690001
-1.893 -0.83399999 4.2649999
-1.865 -0.83399999 4.2729998
-1.834 -0.83200002 4.2719998
-1.801 -0.829 4.2659998
-1.771 -0.82700002 4.2680001
-1.743 -0.82599998 4.2750001
-1.706 -0.82099998 4.257
-1.678 -0.81999999 4.2610002
-1.647 -0.81800002 4.257
-1.62 -0.81699997 4.2639999
-1.587 -0.81400001 4.2540002
-1.557 -0.81199998 4.2519999
-1.528 -0.81 4.2519999
-1.497 -0.80699998 4.244
-1.47 -0.80599999 4.2470002
-1.443 -0.80599999 4.2529998
-1.4119999 -0.80299997 4.2449999
-1.383 -0.80000001 4.2410002
-1.3559999 -0.79900002 4.243
-1.325 -0.796 4.2329998
-1.301 -0.79699999 4.2459998
-1.271 -0.79400003 4.2379999
-1.243 -0.79299998 4.2350001
-1.215 -0.79100001 4.2319999
-1.187 -0.78899997 4.2290001
-1.1619999 -0.78899997 4.2350001
-1.133 -0.78600001 4.2270002
-1.107 -0.78600001 4.23
-1.079 -0.78299999 4.2220001
-1.052 -0.78200001 4.2210002
-1.026 -0.78100002 4.223
-0.99900001 -0.77899998 4.2160001
-0.97299999 -0.778 4.2179999
-0.94499999 -0.77600002 4.211
-0.921 -0.77700001 4.2179999
-0.89600003 -0.77600002 4.2189999
-0.86799997 -0.773 4.21
-0.84100002 -0.77100003 4.2010002
-0.81599998 -0.77100003 4.204
-0.79000002 -0.76899999 4.2030001
-0.76599997 -0.76899999 4.2059999
-0.73900002 -0.76700002 4.197
-0.713 -0.76499999 4.1929998
-0.68900001 -0.76599997 4.1999998
-0.66500002 -0.76599997 4.204
-0.63800001 -0.76300001 4.1919999
-0.61299998 -0.76300001 4.1919999
-0.588 -0.76099998 4.184
-0.565 -0.76200002 4.197
-0.53899997 -0.75999999 4.1880002
-0.514 -0.75999999 4.1869998
-0.48899999 -0.75800002 4.1820002
-0.46399999 -0.75599998 4.1719999
-0.43900001 -0.755 4.171
-0.41499999 -0.755 4.1700001
-0.38999999 -0.75400001 4.1669998
-0.36700001 -0.75599998 4.1789999
-0.34200001 -0.75400001 4.1690001
-0.31799999 -0.75300002 4.1680002
-0.294 -0.75300002 4.1680002
-0.26899999 -0.75099999 4.1630001
-0.245 -0.75099999 4.1599998
-0.221 -0.74900001 4.1529999
-0.197 -0.75 4.1570001
-0.17299999 -0.74900001 4.1560001
-0.149 -0.74599999 4.1399999
-0.125 -0.74699998 4.145
-0.101 -0.74800003 4.1490002
-0.078000002 -0.74900001 4.1560001
-0.052999999 -0.745 4.1360002
-0.029999999 -0.745 4.1360002
-0.0060000001 -0.745 4.1360002
0.017000001 -0.74599999 4.1430001
0.041000001 -0.74599999 4.1409998
0.064000003 -0.745 4.1360002
0.088 -0.74400002 4.132
0.111 -0.74199998 4.1209998
0.13500001 -0.74400002 4.1300001
0.15899999 -0.74400002 4.1300001
0.183 -0.745 4.1339998
0.206 -0.74400002 4.1269999
0.23 -0.74400002 4.1269999
0.25299999 -0.74299997 4.1209998
0.278 -0.745 4.1290002
0.301 -0.74299997 4.1139998
0.324 -0.74199998 4.1100001
0.347 -0.741 4.1040001
0.37200001 -0.74400002 4.1149998
0.396 -0.74400002 4.1149998
0.419 -0.74199998 4.1030002
0.442 -0.74299997 4.1030002
0.46700001 -0.74400002 4.1059999
0.48899999 -0.74199998 4.0949998
0.51200002 -0.741 4.0869999
0.537 -0.74299997 4.0929999
0.56099999 -0.74299997 4.0910001
0.58399999 -0.74199998 4.086
0.60799998 -0.74199998 4.0830002
0.63200003 -0.74299997 4.0840001
0.65700001 -0.74400002 4.086
0.68199998 -0.74599999 4.0929999
0.704 -0.74400002 4.079
0.72899997 -0.74599999 4.085
0.75300002 -0.74599999 4.0830002
0.778 -0.74699998 4.0819998
0.801 -0.74599999 4.0739999
0.82700002 -0.74800003 4.0799999
0.852 -0.74900001 4.085
0.87599999 -0.74900001 4.0770001
0.89899999 -0.74900001 4.0710001
0.92400002 -0.75 4.0710001
0.94999999 -0.75199997 4.0770001
0.972 -0.75 4.0630002
1 -0.75300002 4.0749998
1.022 -0.75199997 4.0630002
1.0470001 -0.75199997 4.059
1.075 -0.755 4.0679998
1.097 -0.75400001 4.0580001
1.122 -0.75400001 4.0539999
1.149 -0.75700003 4.0599999
1.175 -0.75700003 4.0580001
1.2 -0.75800002 4.0560002
1.224 -0.75800002 4.0500002
1.249 -0.75800002 4.0440001
1.277 -0.76099998 4.0510001
1.301 -0.76099998 4.0440001
1.331 -0.764 4.052
1.35 -0.76099998 4.0320001
1.38 -0.764 4.039
1.408 -0.76599997 4.0430002
1.433 -0.76700002 4.0380001
1.457 -0.76599997 4.0279999
1.484 -0.76700002 4.027
1.511 -0.76899999 4.0279999
1.538 -0.76999998 4.0240002
1.5650001 -0.77100003 4.0229998
1.596 -0.77399999 4.0289998
1.6160001 -0.77200001 4.0089998
1.643 -0.77399999 4.0079999
1.671 -0.77499998 4.007
1.696 -0.77499998 3.997
1.725 -0.77700001 3.9979999
1.751 -0.778 3.9920001
1.781 -0.77999997 3.9949999
1.803 -0.77899998 3.9779999
1.84 -0.78399998 3.994
1.865 -0.78399998 3.984
1.897 -0.787 3.9890001
1.914 -0.78399998 3.961
1.947 -0.787 3.9679999
1.972 -0.787 3.9560001
2.0090001 -0.79100001 3.9690001
2.0380001 -0.79299998 3.9649999
2.0710001 -0.796 3.9679999
2.0910001 -0.79400003 3.948
2.1259999 -0.79799998 3.954
2.1559999 -0.80000001 3.951
2.1900001 -0.80199999 3.9530001
2.22 -0.80400002 3.95
2.2509999 -0.80599999 3.947
-2.4549999 -0.85600001 4.3249998
-2.4070001 -0.84799999 4.302
-2.3710001 -0.84600002 4.302
-2.336 -0.84299999 4.3010001
-2.299 -0.83999997 4.296
-2.273 -0.83999997 4.3119998
-2.2260001 -0.833 4.2870002
-2.1900001 -0.82999998 4.283
-2.165 -0.82999998 4.2989998
-2.132 -0.82800001 4.2989998
-2.096 -0.82499999 4.2940001
-2.062 -0.82200003 4.2919998
-2.0309999 -0.81999999 4.2930002
-1.994 -0.81599998 4.2839999
-1.965 -0.815 4.289
-1.9299999 -0.81199998 4.2820001
-1.899 -0.81 4.2839999
-1.865 -0.80699998 4.277
-1.8329999 -0.80500001 4.2750001
-1.798 -0.801 4.2639999
-1.77 -0.80000001 4.2709999
-1.7410001 -0.79900002 4.2729998
-1.711 -0.79699999 4.2740002
-1.682 -0.796 4.276
-1.646 -0.79100001 4.2579999
-1.617 -0.78899997 4.2589998
-1.592 -0.79000002 4.2719998
-1.558 -0.78600001 4.2600002
-1.526 -0.78299999 4.2509999
-1.503 -0.78399998 4.2649999
-1.473 -0.78200001 4.2620001
-1.437 -0.77700001 4.2399998
-1.413 -0.778 4.2529998
-1.382 -0.77499998 4.244
-1.354 -0.773 4.244
-1.325 -0.77100003 4.2389998
-1.2970001 -0.76899999 4.2360001
-1.271 -0.76899999 4.243
-1.2410001 -0.76599997 4.2329998
-1.215 -0.76599997 4.237
-1.188 -0.764 4.2350001
-1.159 -0.76099998 4.2270002
-1.135 -0.76300001 4.2399998
-1.1059999 -0.75999999 4.2290001
-1.081 -0.75999999 4.2350001
-1.053 -0.75700003 4.2270002
-1.024 -0.755 4.217
-0.99699998 -0.75300002 4.2160001
-0.97299999 -0.75400001 4.2220001
-0.94499999 -0.75099999 4.2129998
-0.92000002 -0.75099999 4.2179999
-0.89600003 -0.75099999 4.223
-0.86799997 -0.74800003 4.2129998
-0.84200001 -0.74699998 4.211
-0.81599998 -0.74599999 4.21
-0.79000002 -0.745 4.2059999
-0.76599997 -0.745 4.21
-0.73799998 -0.74199998 4.1960001
-0.71200001 -0.74000001 4.191
-0.69099998 -0.74400002 4.2150002
-0.66299999 -0.74000001 4.198
-0.63800001 -0.73799998 4.1929998
-0.61199999 -0.73699999 4.1890001
-0.588 -0.73699999 4.1939998
-0.56300002 -0.73699999 4.1919999
-0.53899997 -0.73699999 4.1960001
-0.514 -0.73500001 4.1880002
-0.48899999 -0.73299998 4.1830001
-0.463 -0.73199999 4.1739998
-0.43900001 -0.73000002 4.1700001
-0.414 -0.73000002 4.1719999
-0.389 -0.72799999 4.1620002
-0.366 -0.73000002 4.1719999
-0.34200001 -0.72899997 4.1690001
-0.317 -0.72799999 4.165
-0.29300001 -0.727 4.164
-0.26800001 -0.72500002 4.1539998
-0.245 -0.72500002 4.1560001
-0.22 -0.72399998 4.1479998
-0.197 -0.72500002 4.1560001
-0.17299999 -0.72500002 4.158
-0.149 -0.72500002 4.1570001
-0.125 -0.72399998 4.1539998
-0.101 -0.72399998 4.1550002
-0.077 -0.72299999 4.151
-0.052999999 -0.72100002 4.1399999
-0.029999999 -0.72100002 4.138
-0.0060000001 -0.72000003 4.1350002
0.017000001 -0.72100002 4.1360002
0.041000001 -0.722 4.1440001
0.064000003 -0.72100002 4.1370001
0.088 -0.72100002 4.1350002
0.112 -0.72100002 4.1350002
0.13500001 -0.72000003 4.131
0.15899999 -0.72000003 4.132
0.182 -0.71899998 4.1220002
0.206 -0.72000003 4.1300001
0.23 -0.72000003 4.1279998
0.25400001 -0.72000003 4.1269999
0.27599999 -0.71700001 4.1090002
0.30199999 -0.722 4.138
0.324 -0.71799999 4.1100001
0.34799999 -0.71899998 4.1139998
0.37200001 -0.72000003 4.119
0.396 -0.72000003 4.1199999
0.419 -0.71899998 4.112
0.44299999 -0.71899998 4.1079998
0.46700001 -0.72000003 4.1090002
0.48899999 -0.71799999 4.0960002
0.514 -0.72000003 4.1069999
0.537 -0.71899998 4.099
0.56 -0.71799999 4.0890002
0.58499998 -0.71899998 4.0939999
0.60900003 -0.72000003 4.0929999
0.63300002 -0.72100002 4.0949998
0.65899998 -0.72299999 4.1020002
0.68099999 -0.72100002 4.0890002
0.70599997 -0.722 4.092
0.73100001 -0.72399998 4.0999999
0.75400001 -0.72299999 4.0900002
0.77600002 -0.72100002 4.0780001
0.801 -0.72299999 4.0799999
0.82599998 -0.72399998 4.0819998
0.852 -0.72500002 4.0879998
0.87400001 -0.72399998 4.0749998
0.898 -0.72399998 4.0679998
0.92500001 -0.72600001 4.0780001
0.94599998 -0.72399998 4.0609999
0.97299999 -0.72600001 4.0689998
0.99699998 -0.727 4.0679998
1.022 -0.72799999 4.066
1.05 -0.73100001 4.0770001
1.074 -0.73000002 4.0700002
1.099 -0.73100001 4.0679998
1.125 -0.73199999 4.0700002
1.15 -0.73299998 4.066
1.171 -0.73100001 4.0479999
1.199 -0.73299998 4.0570002
1.225 -0.73400003 4.0560002
1.249 -0.73400003 4.0489998
1.276 -0.736 4.0500002
1.299 -0.73500001 4.04
1.323 -0.73500001 4.0339999
1.353 -0.73799998 4.0430002
1.381 -0.74000001 4.0469999
1.405 -0.74000001 4.039
1.433 -0.74199998 4.0409999
1.46 -0.74400002 4.0419998
1.488 -0.745 4.0430002
1.508 -0.74299997 4.0229998
1.544 -0.74900001 4.0450001
1.566 -0.74699998 4.0289998
1.596 -0.75 4.0339999
1.618 -0.74900001 4.02
1.649 -0.75199997 4.026
1.677 -0.75300002 4.0240002
1.7 -0.75199997 4.0110002
1.7309999 -0.755 4.0159998
1.7539999 -0.75400001 4.0040002
1.7819999 -0.755 4
1.808 -0.75599998 3.9920001
1.839 -0.75800002 3.9960001
1.864 -0.759 3.987
1.899 -0.76300001 3.997
1.92 -0.76099998 3.9790001
1.9450001 -0.76099998 3.9679999
1.978 -0.764 3.973
2.006 -0.76499999 3.967
2.0420001 -0.76899999 3.977
2.0639999 -0.76800001 3.96
2.099 -0.77200001 3.967
2.128 -0.773 3.9619999
2.164 -0.77700001 3.9690001
2.1860001 -0.77499998 3.951
2.217 -0.77700001 3.9489999
2.2479999 -0.77899998 3.9460001
-2.447 -0.82499999 4.3150001
-2.4059999 -0.81999999 4.3049998
-2.3610001 -0.81400001 4.2870002
-2.336 -0.815 4.3049998
-2.303 -0.81300002 4.309
-2.2679999 -0.81099999 4.3080001
-2.23 -0.80699998 4.2989998
-2.1960001 -0.80400002 4.2989998
-2.171 -0.80500001 4.3150001
-2.1229999 -0.79799998 4.2870002
-2.0910001 -0.796 4.2870002
-2.0599999 -0.79400003 4.2919998
-2.029 -0.79299998 4.2950001
-1.993 -0.78899997 4.2870002
-1.96 -0.787 4.2839999
-1.928 -0.78500003 4.283
-1.893 -0.78100002 4.2740002
-1.863 -0.77999997 4.277
-1.831 -0.77700001 4.2750001
-1.804 -0.77700001 4.283
-1.763 -0.77100003 4.257
-1.7359999 -0.76999998 4.2659998
-1.714 -0.77200001 4.2849998
-1.6799999 -0.76899999 4.2750001
-1.653 -0.76800001 4.2820001
-1.6160001 -0.76300001 4.2610002
-1.5829999 -0.75999999 4.2529998
-1.558 -0.75999999 4.2620001
-1.526 -0.75700003 4.2550001
-1.502 -0.75800002 4.2680001
-1.471 -0.75599998 4.2620001
-1.4400001 -0.75199997 4.2519999
-1.41 -0.75 4.2459998
-1.3839999 -0.75 4.2519999
-1.357 -0.74900001 4.2550001
-1.3279999 -0.74699998 4.25
-1.298 -0.745 4.2449999
-1.273 -0.745 4.2509999
-1.244 -0.74199998 4.2449999
-1.215 -0.74000001 4.2379999
-1.1900001 -0.741 4.2490001
-1.161 -0.73799998 4.2389998
-1.1339999 -0.73699999 4.2389998
-1.107 -0.73500001 4.2379999
-1.079 -0.73299998 4.23
-1.0549999 -0.73400003 4.2399998
-1.024 -0.73000002 4.2220001
-1.001 -0.73100001 4.2350001
-0.97299999 -0.72899997 4.2280002
-0.94599998 -0.727 4.223
-0.92199999 -0.727 4.2280002
-0.89099997 -0.72299999 4.2069998
-0.86699998 -0.72299999 4.2119999
-0.84200001 -0.72299999 4.2150002
-0.815 -0.72000003 4.2059999
-0.79000002 -0.72000003 4.2090001
-0.76499999 -0.72000003 4.2119999
-0.741 -0.72000003 4.2150002
-0.71100003 -0.71499997 4.1890001
-0.68900001 -0.71700001 4.2049999
-0.66500002 -0.71700001 4.2129998
-0.63800001 -0.71499997 4.2010002
-0.61199999 -0.71200001 4.191
-0.588 -0.71200001 4.1919999
-0.56300002 -0.71200001 4.1950002
-0.53799999 -0.71100003 4.1900001
-0.51300001 -0.70899999 4.1820002
-0.48899999 -0.70999998 4.1880002
-0.46399999 -0.708 4.1810002
-0.43900001 -0.70700002 4.178
-0.41499999 -0.70700002 4.1820002
-0.38999999 -0.70599997 4.178
-0.366 -0.70599997 4.1760001
-0.34099999 -0.704 4.1690001
-0.317 -0.704 4.171
-0.29300001 -0.704 4.1719999
-0.26899999 -0.70300001 4.1690001
-0.245 -0.70300001 4.1669998
-0.221 -0.70099998 4.1599998
-0.197 -0.70099998 4.1570001
-0.17299999 -0.70200002 4.1680002
-0.149 -0.699 4.1469998
-0.125 -0.70099998 4.165
-0.101 -0.699 4.152
