# .PCD v0.7 - Point Cloud Data file format
VERSION 0.7
FIELDS x y z
SIZE 4 4 4
TYPE F F F
COUNT 1 1 1
WIDTH 1845
HEIGHT 1
VIEWPOINT 0 0 0 1 0 0 0
POINTS 1845
DATA ascii
1.3430001 0.041000001 4.1539998
1.367 0.041000001 4.1469998
1.3940001 0.041999999 4.1459999
1.421 0.041999999 4.1459999
1.446 0.041999999 4.1409998
1.474 0.041999999 4.1409998
1.502 0.041999999 4.1440001
1.529 0.041999999 4.1389999
1.556 0.041999999 4.138
1.584 0.041999999 4.138
1.61 0.041999999 4.131
1.638 0.041999999 4.131
1.666 0.041999999 4.1300001
1.694 0.041999999 4.1290002
1.72 0.041999999 4.1220002
1.751 0.041999999 4.1259999
1.778 0.043000001 4.1209998
1.8049999 0.043000001 4.1160002
1.8329999 0.043000001 4.1129999
1.864 0.043000001 4.1160002
1.893 0.043000001 4.112
1.9170001 0.043000001 4.0999999
1.9529999 0.043000001 4.1110001
1.98 0.043000001 4.1030002
2.0090001 0.043000001 4.099
2.0350001 0.043000001 4.0900002
2.0699999 0.043000001 4.0970001
2.1010001 0.044 4.0970001
2.1289999 0.044 4.0890002
2.1589999 0.044 4.085
2.194 0.044 4.0910001
2.2249999 0.044 4.0890002
2.2590001 0.044 4.0900002
2.2869999 0.044 4.0809999
-0.021 0.0020000001 0.022
-0.013 0.0020000001 0.0060000001
-2.414 0.075000003 4.4520001
-2.3710001 0.075000003 4.4380002
-2.3399999 0.075000003 4.4450002
-2.306 0.075000003 4.4460001
-2.2709999 0.074000001 4.447
-2.2360001 0.074000001 4.4439998
-2.2019999 0.074000001 4.4439998
-2.165 0.074000001 4.4369998
-2.132 0.072999999 4.4380002
-2.098 0.072999999 4.4359999
-2.0639999 0.072999999 4.434
-2.029 0.072999999 4.4289999
-1.992 0.071999997 4.4180002
-1.962 0.071999997 4.4219999
-1.925 0.071999997 4.4120002
-1.895 0.071999997 4.415
-1.8609999 0.071999997 4.4070001
-1.831 0.071999997 4.4099998
-1.796 0.071000002 4.4000001
-1.766 0.071000002 4.402
-1.737 0.071000002 4.4050002
-1.7029999 0.071000002 4.3959999
-1.6720001 0.07 4.3920002
-1.643 0.07 4.3940001
-1.613 0.07 4.3940001
-1.5829999 0.07 4.3920002
-1.552 0.07 4.3870001
-1.517 0.07 4.3720002
-1.4910001 0.07 4.3800001
-1.46 0.068999998 4.3720002
-1.429 0.068999998 4.3649998
-1.401 0.068999998 4.3649998
-1.369 0.068999998 4.3540001
-1.341 0.068999998 4.3540001
-1.316 0.068999998 4.362
-1.285 0.068000004 4.3530002
-1.258 0.068000004 4.3520002
-1.228 0.068000004 4.3449998
-1.2 0.068000004 4.342
-1.173 0.068000004 4.3429999
-1.145 0.068000004 4.3369999
-1.119 0.068000004 4.3400002
-1.091 0.067000002 4.335
-1.0650001 0.067000002 4.3369999
-1.0369999 0.067000002 4.3330002
-1.013 0.067000002 4.3439999
-1.012 0.068999998 4.454
-0.99400002 0.068999998 4.494
-0.96100003 0.068999998 4.467
-0.94 0.068999998 4.4970002
-0.90600002 0.068999998 4.4619999
-0.89899999 0.07 4.5599999
-0.84899998 0.068000004 4.4419999
-0.82499999 0.068000004 4.4520001
-0.79699999 0.068000004 4.4450002
-0.77999997 0.068999998 4.5009999
-0.74299997 0.068000004 4.4330001
-0.71200001 0.067000002 4.4039998
-0.67900002 0.067000002 4.3600001
-0.65100002 0.066 4.3410001
-0.63300002 0.067000002 4.3940001
-0.60600001 0.067000002 4.381
-0.57200003 0.066 4.3150001
-0.54400003 0.066 4.296
-0.51999998 0.066 4.2979999
-0.495 0.066 4.2989998
-0.47 0.064999998 4.2919998
-0.44499999 0.064999998 4.2940001
-0.421 0.064999998 4.296
-0.396 0.064999998 4.2909999
-0.37099999 0.064999998 4.283
-0.347 0.064999998 4.2909999
-0.322 0.064999998 4.283
-0.29699999 0.064999998 4.2820001
-0.273 0.064999998 4.2789998
-0.248 0.064999998 4.2709999
-0.22400001 0.064999998 4.276
-0.199 0.064999998 4.2540002
-0.16500001 0.061000001 4.0139999
-0.139 0.059999999 3.9219999
-0.121 0.061999999 4.0739999
-0.097000003 0.061000001 4.02
-0.072999999 0.059999999 3.973
-0.048 0.057 3.7709999
-0.025 0.052999999 3.497
-0.0049999999 0.052999999 3.4719999
0.014 0.052999999 3.477
0.033 0.052999999 3.48
0.052999999 0.052999999 3.49
0.072999999 0.052999999 3.4860001
0.093000002 0.052999999 3.4890001
0.112 0.052999999 3.484
0.132 0.052999999 3.4909999
0.152 0.052999999 3.487
0.17200001 0.052999999 3.493
0.192 0.052999999 3.493
0.211 0.052999999 3.4860001
0.23 0.052999999 3.474
0.25099999 0.052999999 3.4790001
0.271 0.052999999 3.4820001
0.29100001 0.052999999 3.4860001
0.31099999 0.052999999 3.487
0.331 0.052999999 3.487
0.352 0.054000001 3.4949999
0.37099999 0.054000001 3.4920001
0.391 0.054000001 3.494
0.412 0.054000001 3.4960001
0.43099999 0.054000001 3.4890001
0.45199999 0.054000001 3.4920001
0.472 0.054000001 3.4960001
0.49399999 0.054000001 3.5020001
0.514 0.054000001 3.5050001
0.53500003 0.054000001 3.506
0.55500001 0.054000001 3.5009999
0.57499999 0.054000001 3.503
0.59500003 0.054000001 3.5
0.61500001 0.054000001 3.4949999
0.63499999 0.054000001 3.493
0.65700001 0.054000001 3.4979999
0.67699999 0.054000001 3.4960001
0.704 0.055 3.5239999
0.74199998 0.056000002 3.608
0.81599998 0.059999999 3.858
0.89200002 0.064000003 4.0999999
0.93099999 0.064999998 4.164
0.95999998 0.064999998 4.1799998
0.98699999 0.064999998 4.1869998
1.011 0.064999998 4.1820002
1.0369999 0.064999998 4.1820002
1.063 0.064999998 4.1849999
1.087 0.064999998 4.177
1.113 0.066 4.178
1.1390001 0.066 4.1799998
1.1619999 0.066 4.1690001
1.189 0.066 4.1719999
1.214 0.066 4.1680002
1.24 0.066 4.1669998
1.2640001 0.066 4.1560001
1.291 0.066 4.1599998
1.318 0.066 4.1609998
1.3430001 0.066 4.1560001
1.369 0.066 4.1529999
1.395 0.066 4.1490002
1.423 0.066 4.151
1.448 0.066 4.145
1.477 0.067000002 4.1500001
1.503 0.067000002 4.145
1.531 0.067000002 4.145
1.556 0.067000002 4.1389999
1.585 0.067000002 4.1409998
1.6109999 0.067000002 4.1339998
1.638 0.067000002 4.131
1.668 0.067000002 4.1360002
1.696 0.068000004 4.1339998
1.721 0.068000004 4.1240001
1.749 0.068000004 4.1220002
1.775 0.068000004 4.1139998
1.808 0.068000004 4.1240001
1.836 0.068000004 4.118
1.863 0.068000004 4.1129999
1.892 0.068000004 4.1110001
1.924 0.068999998 4.1149998
1.952 0.068999998 4.1090002
1.98 0.068999998 4.1040001
2.01 0.068999998 4.1020002
2.046 0.068999998 4.112
2.0699999 0.068999998 4.0970001
2.1010001 0.068999998 4.0970001
2.1329999 0.07 4.0960002
2.1630001 0.07 4.0929999
2.1949999 0.07 4.0929999
2.2260001 0.07 4.0890002
2.2579999 0.07 4.0879998
2.289 0.07 4.0840001
-0.022 0.0020000001 0.023
-0.0099999998 0.0020000001 0.001
-2.4119999 0.104 4.448
-2.3789999 0.103 4.4530001
-2.342 0.103 4.4489999
-2.3080001 0.103 4.4510002
-2.273 0.103 4.4499998
-2.237 0.102 4.447
-2.2030001 0.102 4.4460001
-2.171 0.102 4.4489999
-2.135 0.101 4.4450002
-2.0999999 0.101 4.4400001
-2.0669999 0.101 4.4390001
-2.029 0.1 4.4289999
-1.998 0.1 4.4310002
-1.9630001 0.1 4.4239998
-1.929 0.098999999 4.4190001
-1.895 0.098999999 4.4130001
-1.865 0.098999999 4.4159999
-1.831 0.097999997 4.4109998
-1.799 0.097999997 4.408
-1.766 0.097999997 4.4000001
-1.732 0.097000003 4.3930001
-1.691 0.097000003 4.3649998
-1.654 0.096000001 4.3439999
-1.624 0.096000001 4.3449998
-1.596 0.096000001 4.348
-1.5650001 0.094999999 4.3439999
-1.541 0.094999999 4.355
-1.511 0.094999999 4.3520002
-1.48 0.094999999 4.348
-1.456 0.094999999 4.3610001
-1.426 0.094999999 4.3559999
-1.393 0.093999997 4.3390002
-1.369 0.093999997 4.3530002
-1.346 0.094999999 4.369
-1.313 0.093999997 4.3509998
-1.286 0.093999997 4.3540001
-1.26 0.093999997 4.3610001
-1.229 0.093999997 4.348
-1.202 0.093000002 4.348
-1.173 0.093000002 4.3410001
-1.147 0.093000002 4.3449998
-1.119 0.093000002 4.3410001
-1.091 0.093000002 4.3369999
-1.064 0.093000002 4.3340001
-1.0369999 0.092 4.3330002
-1.012 0.092 4.3369999
-1.016 0.094999999 4.4749999
-1.013 0.097000003 4.5830002
-0.96399999 0.094999999 4.4829998
-0.94400001 0.096000001 4.5159998
-0.90399998 0.093999997 4.4510002
-0.884 0.094999999 4.4840002
-0.85000002 0.093999997 4.4450002
-0.83700001 0.094999999 4.5190001
-0.79900002 0.093999997 4.4590001
-0.78600001 0.096000001 4.5359998
-0.74000001 0.093000002 4.4180002
-0.70899999 0.092 4.3839998
-0.67400002 0.090999998 4.3260002
-0.65399998 0.092 4.362
-0.63599998 0.093000002 4.4109998
-0.60699999 0.092 4.3909998
-0.57099998 0.090000004 4.3109999
-0.54500002 0.090000004 4.3000002
-0.51999998 0.090000004 4.3000002
-0.49599999 0.090000004 4.302
-0.47 0.090000004 4.2969999
-0.44600001 0.090000004 4.2989998
-0.421 0.090000004 4.3010001
-0.396 0.090000004 4.296
-0.37099999 0.090000004 4.2870002
-0.34599999 0.090000004 4.2849998
-0.322 0.090000004 4.2849998
-0.29800001 0.090000004 4.289
-0.273 0.089000002 4.2839999
-0.248 0.089000002 4.2740002
-0.22400001 0.089000002 4.2789998
-0.199 0.089000002 4.2639999
-0.16599999 0.083999999 4.0440001
-0.14 0.082999997 3.954
-0.118 0.082999997 3.964
-0.093999997 0.082000002 3.9119999
-0.071000002 0.081 3.8870001
-0.048 0.079000004 3.7909999
-0.025 0.075000003 3.569
-0.0049999999 0.072999999 3.4960001
0.014 0.072999999 3.4890001
0.034000002 0.072999999 3.49
0.052999999 0.072999999 3.4890001
0.072999999 0.072999999 3.487
0.093000002 0.072999999 3.4890001
0.113 0.072999999 3.4890001
0.132 0.072999999 3.493
0.152 0.072999999 3.4920001
0.17200001 0.072999999 3.4909999
0.192 0.072999999 3.4860001
0.20999999 0.072999999 3.4679999
0.229 0.072999999 3.4590001
0.249 0.072999999 3.4630001
0.26899999 0.072999999 3.46
0.28999999 0.072999999 3.4749999
0.31099999 0.072999999 3.4890001
0.331 0.072999999 3.4909999
0.352 0.074000001 3.4960001
0.37200001 0.074000001 3.4960001
0.39199999 0.074000001 3.497
0.412 0.074000001 3.5
0.43200001 0.074000001 3.494
0.45300001 0.074000001 3.4979999
0.47299999 0.074000001 3.4990001
0.493 0.074000001 3.5
0.514 0.074000001 3.5009999
0.53399998 0.074000001 3.5
0.55500001 0.074000001 3.5050001
0.57499999 0.074000001 3.4990001
0.59500003 0.074000001 3.5
0.616 0.074000001 3.5
0.63599998 0.074000001 3.4960001
0.65700001 0.074000001 3.4979999
0.69199997 0.075999998 3.572
0.75300002 0.079999998 3.773
0.80400002 0.082999997 3.9119999
0.84100002 0.085000001 3.974
0.87400001 0.086000003 4.0180001
0.912 0.086999997 4.0760002
0.949 0.088 4.1339998
0.98500001 0.089000002 4.178
1.011 0.090000004 4.1799998
1.0369999 0.090000004 4.184
1.062 0.090000004 4.1789999
1.089 0.090000004 4.1859999
1.114 0.090000004 4.1799998
1.14 0.090000004 4.1799998
1.164 0.090000004 4.1729999
1.189 0.090000004 4.1690001
1.215 0.090000004 4.1690001
1.242 0.090999998 4.1719999
1.2690001 0.090999998 4.1729999
1.2920001 0.090999998 4.1620002
1.317 0.090999998 4.1560001
1.346 0.090999998 4.164
1.369 0.090999998 4.1529999
1.395 0.090999998 4.1490002
1.423 0.090999998 4.151
1.45 0.090999998 4.1490002
1.478 0.092 4.151
1.5039999 0.092 4.1469998
1.531 0.092 4.1440001
1.558 0.092 4.1430001
1.586 0.092 4.1430001
1.615 0.092 4.1459999
1.642 0.092 4.1420002
1.67 0.093000002 4.1389999
1.697 0.093000002 4.1360002
1.725 0.093000002 4.1339998
1.753 0.093000002 4.131
1.7819999 0.093000002 4.1290002
1.812 0.093000002 4.131
1.836 0.093000002 4.119
1.867 0.093999997 4.1220002
1.897 0.093999997 4.1209998
1.923 0.093999997 4.112
1.954 0.093999997 4.1129999
1.984 0.093999997 4.1110001
2.013 0.094999999 4.1079998
2.0420001 0.094999999 4.1030002
2.073 0.094999999 4.1030002
2.102 0.094999999 4.098
2.1340001 0.096000001 4.099
2.165 0.096000001 4.0970001
2.1930001 0.096000001 4.0879998
2.2260001 0.096000001 4.0890002
2.2620001 0.097000003 4.0960002
2.2920001 0.097000003 4.0890002
-0.024 0.0020000001 0.027000001
-0.015 0.0020000001 0.0099999998
-2.4089999 0.132 4.441
-2.3759999 0.132 4.4460001
-2.3410001 0.131 4.4450002
-2.3110001 0.131 4.4549999
-2.273 0.131 4.448
-2.24 0.13 4.4520001
-2.201 0.13 4.441
-2.168 0.12899999 4.4429998
-2.1340001 0.12899999 4.4419999
-2.0999999 0.12899999 4.4380002
-2.0650001 0.12800001 4.434
-2.0309999 0.12800001 4.4320002
-1.992 0.127 4.4180002
-1.964 0.127 4.4260001
-1.928 0.126 4.4169998
-1.895 0.126 4.414
-1.864 0.126 4.414
-1.832 0.125 4.4130001
-1.801 0.125 4.4120002
-1.7690001 0.125 4.408
-1.7309999 0.124 4.3899999
-1.6289999 0.119 4.204
-1.582 0.117 4.1550002
-1.5549999 0.117 4.158
-1.5369999 0.117 4.1859999
-1.5039999 0.117 4.1719999
-1.478 0.117 4.177
-1.45 0.116 4.177
-1.4220001 0.116 4.1760001
-1.41 0.117 4.2210002
-1.4069999 0.119 4.2950001
-1.383 0.119 4.309
-1.3609999 0.12 4.3280001
-1.341 0.12 4.3509998
-1.317 0.12 4.3649998
-1.2869999 0.12 4.3579998
-1.256 0.119 4.3470001
-1.23 0.119 4.349
-1.2029999 0.119 4.3499999
-1.175 0.119 4.348
-1.147 0.119 4.3439999
-1.119 0.118 4.3390002
-1.091 0.118 4.335
-1.0650001 0.118 4.3390002
-1.039 0.118 4.3390002
-1.013 0.118 4.3439999
-1.015 0.121 4.4679999
-0.99000001 0.121 4.4770002
-0.95099998 0.119 4.4200001
-0.92199999 0.119 4.4099998
-0.91100001 0.121 4.487
-0.87900001 0.12 4.461
-0.86199999 0.121 4.507
-0.815 0.118 4.4000001
-0.78799999 0.118 4.3940001
-0.76599997 0.119 4.4169998
-0.74599999 0.119 4.4530001
-0.72299999 0.12 4.473
-0.69599998 0.12 4.4689999
-0.65100002 0.116 4.3429999
-0.64200002 0.119 4.4530001
-0.61000001 0.118 4.4089999
-0.57200003 0.115 4.3189998
-0.54500002 0.115 4.3000002
-0.52100003 0.115 4.3049998
-0.49599999 0.115 4.3039999
-0.47099999 0.115 4.2989998
-0.44600001 0.115 4.303
-0.421 0.114 4.2989998
-0.396 0.114 4.2950001
-0.37200001 0.114 4.2950001
-0.34599999 0.114 4.2870002
-0.322 0.114 4.2849998
-0.29699999 0.114 4.2849998
-0.273 0.114 4.2820001
-0.249 0.114 4.2849998
-0.22400001 0.114 4.2810001
-0.199 0.113 4.2709999
-0.17 0.11 4.132
-0.14 0.105 3.9449999
-0.116 0.104 3.915
-0.093000002 0.103 3.8599999
-0.07 0.102 3.8269999
-0.048 0.101 3.8069999
-0.027000001 0.1 3.7509999
-0.0049999999 0.097000003 3.651
0.014 0.094999999 3.573
0.034000002 0.093999997 3.5309999
0.054000001 0.093999997 3.516
0.072999999 0.093000002 3.4979999
0.093000002 0.093000002 3.49
0.113 0.093000002 3.493
0.133 0.093000002 3.4990001
0.152 0.093000002 3.4920001
0.17200001 0.093000002 3.4920001
0.192 0.093000002 3.4860001
0.211 0.093000002 3.4719999
0.23 0.092 3.46
0.249 0.092 3.457
0.26800001 0.092 3.4530001
0.28999999 0.093000002 3.47
0.31099999 0.093000002 3.4879999
0.33199999 0.093000002 3.4949999
0.35100001 0.093000002 3.49
0.37099999 0.093000002 3.494
0.39199999 0.093999997 3.494
0.412 0.093999997 3.4979999
0.43200001 0.093999997 3.497
0.45199999 0.093999997 3.4960001
0.47299999 0.093999997 3.497
0.493 0.093999997 3.4990001
0.51499999 0.093999997 3.507
0.53500003 0.093999997 3.503
0.55599999 0.093999997 3.5109999
0.57599998 0.093999997 3.5079999
0.597 0.094999999 3.507
0.61699998 0.094999999 3.5020001
0.63700002 0.094999999 3.5020001
0.67199999 0.097000003 3.5780001
0.76800001 0.107 3.9660001
0.83099997 0.112 4.1609998
0.86000001 0.113 4.184
0.884 0.113 4.1760001
0.89600003 0.112 4.1160002
0.889 0.108 3.9749999
0.91399997 0.108 3.98
0.95899999 0.111 4.0679998
1.007 0.113 4.1620002
1.0369999 0.114 4.1820002
1.064 0.114 4.1869998
1.089 0.114 4.184
1.115 0.115 4.1859999
1.141 0.115 4.1859999
1.164 0.115 4.1750002
1.1900001 0.115 4.1739998
1.215 0.115 4.1690001
1.243 0.115 4.1760001
1.267 0.115 4.1669998
1.2920001 0.115 4.1620002
1.319 0.115 4.1609998
1.346 0.116 4.1620002
1.372 0.116 4.1609998
1.397 0.116 4.1539998
1.425 0.116 4.1570001
1.451 0.116 4.152
1.479 0.116 4.1539998
1.503 0.116 4.1440001
1.534 0.117 4.152
1.559 0.117 4.145
1.587 0.117 4.145
1.6160001 0.117 4.1459999
1.643 0.118 4.1440001
1.67 0.118 4.1399999
1.698 0.118 4.138
1.724 0.118 4.1290002
1.752 0.118 4.1290002
1.7819999 0.119 4.1300001
1.8099999 0.119 4.125
1.8380001 0.119 4.1230001
1.868 0.119 4.1220002
1.896 0.119 4.118
1.926 0.12 4.1170001
1.956 0.12 4.118
1.987 0.12 4.1170001
2.0150001 0.12 4.112
2.0439999 0.121 4.1069999
2.073 0.121 4.1020002
2.1040001 0.121 4.1009998
2.1370001 0.122 4.1040001
2.1659999 0.122 4.0970001
2.1960001 0.122 4.0929999
2.23 0.122 4.0949998
2.2590001 0.123 4.0900002
2.296 0.123 4.0970001
-0.025 0.003 0.028999999
-0.0080000004 0.0020000001 -0.001
-0.003 0.001 -0.011
-2.3770001 0.16 4.447
-2.3410001 0.15899999 4.4460001
-2.3099999 0.15899999 4.4530001
-2.2720001 0.15899999 4.4460001
-2.2379999 0.15800001 4.4460001
-2.204 0.15800001 4.4460001
-2.1719999 0.15700001 4.4489999
-2.1370001 0.15700001 4.4460001
-2.098 0.156 4.434
-2.0680001 0.156 4.4400001
-2.033 0.155 4.4359999
-1.997 0.155 4.428
-1.965 0.154 4.428
-1.9299999 0.154 4.4200001
-1.899 0.153 4.4219999
-1.864 0.153 4.4130001
-1.831 0.152 4.408
-1.8 0.152 4.4089999
-1.767 0.15099999 4.4029999
-1.733 0.15099999 4.3930001
-1.628 0.14399999 4.1989999
-1.574 0.141 4.132
-1.545 0.141 4.132
-1.536 0.142 4.1810002
-1.508 0.142 4.1820002
-1.461 0.14 4.1269999
-1.429 0.139 4.1149998
-1.403 0.139 4.118
-1.3890001 0.14 4.158
-1.4 0.14399999 4.2750001
-1.383 0.145 4.3060002
-1.3609999 0.145 4.3270001
-1.341 0.146 4.3499999
-1.316 0.146 4.3590002
-1.288 0.146 4.3590002
-1.2589999 0.145 4.355
-1.232 0.145 4.3579998
-1.2029999 0.145 4.349
-1.176 0.14399999 4.3520002
-1.146 0.14399999 4.342
-1.12 0.14399999 4.3439999
-1.092 0.14399999 4.3390002
-1.0650001 0.14300001 4.3369999
-1.0369999 0.14300001 4.3330002
-1.012 0.14300001 4.3379998
-1.006 0.146 4.4260001
-0.99800003 0.148 4.513
-0.96899998 0.148 4.5040002
-0.93199998 0.146 4.4590001
-0.92900002 0.15000001 4.572
-0.889 0.148 4.5089998
-0.84600002 0.145 4.4260001
-0.81999999 0.145 4.4250002
-0.792 0.14399999 4.4180002
-0.79100001 0.149 4.5599999
-0.73500001 0.14300001 4.388
-0.71899998 0.145 4.447
-0.68599999 0.14300001 4.4050002
-0.65799999 0.14300001 4.3860002
-0.63800001 0.14399999 4.427
-0.61199999 0.14399999 4.4229999
-0.574 0.14 4.3280001
-0.546 0.14 4.3060002
-0.52100003 0.14 4.309
-0.49599999 0.139 4.3039999
-0.472 0.139 4.3080001
-0.44600001 0.139 4.2969999
-0.421 0.139 4.3000002
-0.39700001 0.139 4.3000002
-0.37200001 0.139 4.3000002
-0.347 0.139 4.2919998
-0.322 0.138 4.2870002
-0.29800001 0.138 4.2909999
-0.273 0.138 4.2870002
-0.249 0.138 4.2909999
-0.22400001 0.138 4.2779999
-0.199 0.13699999 4.263
-0.16500001 0.13 4.0209999
-0.13500001 0.123 3.8169999
-0.11 0.12 3.71
-0.086999997 0.116 3.6010001
-0.064999998 0.114 3.543
-0.045000002 0.113 3.4979999
-0.025 0.112 3.4530001
-0.0049999999 0.111 3.428
0.014 0.111 3.441
0.033 0.113 3.487
0.054000001 0.113 3.5039999
0.074000001 0.114 3.5139999
0.093000002 0.113 3.513
0.113 0.113 3.51
0.133 0.113 3.5039999
0.153 0.113 3.5
0.17200001 0.113 3.49
0.192 0.113 3.494
0.211 0.113 3.4860001
0.23100001 0.113 3.484
0.25099999 0.113 3.483
0.27000001 0.113 3.4760001
0.28999999 0.113 3.4790001
0.31200001 0.113 3.4960001
0.33199999 0.114 3.5
0.352 0.114 3.5020001
0.37099999 0.113 3.4909999
0.39199999 0.113 3.493
0.412 0.114 3.4990001
0.433 0.114 3.503
0.45300001 0.114 3.4990001
0.47299999 0.114 3.497
0.49399999 0.114 3.5020001
0.51499999 0.114 3.507
0.53500003 0.114 3.507
0.55699998 0.115 3.516
0.57700002 0.115 3.5090001
0.597 0.115 3.5109999
0.61699998 0.115 3.503
0.639 0.115 3.513
0.70300001 0.123 3.743
0.80500001 0.13600001 4.152
0.83399999 0.13699999 4.1750002
0.84500003 0.13500001 4.1100001
0.84799999 0.132 4.0040002
0.84200001 0.127 3.869
0.861 0.127 3.849
0.89200002 0.12800001 3.881
0.93000001 0.13 3.9449999
0.97600001 0.133 4.033
1.025 0.13699999 4.131
1.063 0.139 4.1830001
1.0880001 0.139 4.1820002
1.114 0.139 4.1820002
1.142 0.139 4.1869998
1.166 0.139 4.1820002
1.191 0.14 4.178
1.219 0.14 4.1820002
1.243 0.14 4.1760001
1.271 0.14 4.1799998
1.295 0.14 4.1700001
1.319 0.14 4.1620002
1.347 0.14 4.165
1.373 0.141 4.164
1.4 0.141 4.1620002
1.426 0.141 4.158
1.4529999 0.141 4.1570001
1.4809999 0.142 4.1589999
1.505 0.141 4.1490002
1.5319999 0.142 4.1469998
1.562 0.142 4.152
1.585 0.142 4.1399999
1.6160001 0.142 4.145
1.645 0.14300001 4.1479998
1.671 0.14300001 4.1399999
1.699 0.14300001 4.1389999
1.725 0.14300001 4.1329999
1.755 0.14399999 4.1339998
1.781 0.14399999 4.1259999
1.813 0.14399999 4.1329999
1.84 0.14399999 4.1269999
1.87 0.145 4.1259999
1.893 0.145 4.112
1.9299999 0.145 4.125
1.956 0.146 4.1149998
1.987 0.146 4.1170001
2.0139999 0.146 4.1079998
2.046 0.147 4.1110001
2.0769999 0.147 4.1090002
2.108 0.147 4.1079998
2.1389999 0.148 4.1059999
2.1719999 0.148 4.1090002
2.2 0.148 4.0999999
2.233 0.149 4.0999999
2.263 0.149 4.0960002
2.296 0.149 4.0949998
-0.016000001 0.0020000001 0.012
-0.012 0.0020000001 0.0049999999
-0.003 0.001 -0.0099999998
-2.3740001 0.18799999 4.441
-2.3469999 0.18799999 4.4569998
-2.306 0.18700001 4.4439998
-2.276 0.18700001 4.4530001
-2.24 0.186 4.4499998
-2.2049999 0.186 4.447
-2.1719999 0.185 4.4489999
-2.1370001 0.185 4.4460001
-2.0999999 0.184 4.4380002
-2.0669999 0.183 4.4380002
-2.0339999 0.183 4.4369998
-1.997 0.182 4.4260001
-1.967 0.182 4.4299998
-1.932 0.18099999 4.4250002
-1.896 0.18000001 4.4130001
-1.865 0.18000001 4.415
-1.832 0.17900001 4.4099998
-1.801 0.17900001 4.4109998
-1.77 0.178 4.408
-1.7359999 0.178 4.401
-1.631 0.17 4.2080002
-1.575 0.16599999 4.1350002
-1.543 0.16599999 4.1240001
-1.518 0.16599999 4.131
-1.485 0.16500001 4.1170001
-1.4579999 0.164 4.118
-1.429 0.164 4.1139998
-1.401 0.164 4.1110001
-1.385 0.16500001 4.1440001
-1.401 0.17 4.277
-1.381 0.17 4.3010001
-1.372 0.17200001 4.3600001
-1.346 0.17200001 4.3660002
-1.316 0.17200001 4.3600001
-1.288 0.171 4.3579998
-1.2589999 0.171 4.355
-1.233 0.171 4.3579998
-1.205 0.17 4.3559999
-1.175 0.17 4.3470001
-1.15 0.17 4.3530002
-1.12 0.169 4.3429999
-1.0930001 0.169 4.3400002
-1.066 0.169 4.342
-1.039 0.168 4.3390002
-1.012 0.168 4.335
-0.99800003 0.17 4.3930001
-0.977 0.171 4.4159999
-0.97500002 0.175 4.5300002
-0.949 0.175 4.5370002
-0.917 0.17399999 4.5120001
-0.87400001 0.171 4.4330001
-0.86299998 0.17399999 4.5110002
-0.82800001 0.17200001 4.4660001
-0.80500001 0.17200001 4.4860001
-0.76499999 0.169 4.408
-0.74800003 0.171 4.4650002
-0.72899997 0.17299999 4.5089998
-0.69300002 0.17 4.4450002
-0.66000003 0.168 4.401
-0.64399999 0.171 4.4689999
-0.60900003 0.168 4.3969998
-0.57300001 0.16500001 4.3249998
-0.546 0.164 4.3080001
-0.52100003 0.164 4.3070002
-0.49700001 0.164 4.3109999
-0.472 0.164 4.3080001
-0.44600001 0.164 4.302
-0.42199999 0.164 4.3070002
-0.39700001 0.164 4.303
-0.37200001 0.163 4.296
-0.347 0.163 4.2969999
-0.322 0.163 4.29
-0.29800001 0.163 4.2950001
-0.273 0.163 4.2880001
-0.249 0.163 4.2870002
-0.22400001 0.162 4.2810001
-0.198 0.161 4.2360001
-0.15000001 0.139 3.6470001
-0.113 0.121 3.1830001
-0.094999999 0.121 3.187
-0.074000001 0.117 3.072
-0.055 0.113 2.977
-0.037999999 0.111 2.9230001
-0.021 0.109 2.872
-0.0040000002 0.109 2.8629999
0.011 0.108 2.8369999
0.027000001 0.108 2.8380001
0.043000001 0.109 2.855
0.059999999 0.11 2.888
0.078000002 0.112 2.9349999
0.097000003 0.114 3.0039999
0.118 0.118 3.1040001
0.14 0.122 3.21
0.162 0.125 3.2950001
0.184 0.127 3.3499999
0.206 0.12899999 3.3900001
0.226 0.13 3.4130001
0.24699999 0.131 3.4330001
0.26699999 0.131 3.4300001
0.287 0.131 3.434
0.30700001 0.131 3.441
0.32800001 0.132 3.4519999
0.34900001 0.132 3.464
0.37 0.133 3.4790001
0.38999999 0.133 3.48
0.41100001 0.133 3.487
0.43099999 0.133 3.4849999
0.449 0.133 3.4719999
0.46799999 0.133 3.461
0.48699999 0.132 3.4560001
0.509 0.133 3.4690001
0.52999997 0.133 3.473
0.551 0.133 3.474
0.57099998 0.134 3.473
0.59200001 0.134 3.4749999
0.611 0.134 3.47
0.63099998 0.134 3.4679999
0.676 0.139 3.599
0.70700002 0.141 3.645
0.699 0.13500001 3.497
0.68900001 0.13 3.349
0.69 0.126 3.2579999
0.70599997 0.126 3.243
0.73500001 0.12800001 3.2820001
0.77600002 0.131 3.3759999
0.82700002 0.13699999 3.507
0.88800001 0.14300001 3.671
0.95099998 0.149 3.8329999
1.041 0.16 4.0960002
1.087 0.163 4.1739998
1.114 0.163 4.1799998
1.142 0.164 4.1869998
1.1670001 0.164 4.1849999
1.193 0.164 4.1820002
1.217 0.164 4.1760001
1.242 0.164 4.171
1.27 0.16500001 4.1750002
1.293 0.16500001 4.164
1.322 0.16500001 4.171
1.348 0.16500001 4.1690001
1.373 0.16500001 4.1609998
1.401 0.16599999 4.1630001
1.426 0.16599999 4.1570001
1.454 0.16599999 4.1589999
1.478 0.16599999 4.1500001
1.507 0.167 4.152
1.534 0.167 4.152
1.564 0.167 4.1570001
1.589 0.167 4.1490002
1.6160001 0.168 4.1440001
1.643 0.168 4.1420002
1.6720001 0.168 4.1430001
1.7 0.169 4.1409998
1.728 0.169 4.138
1.756 0.169 4.1350002
1.788 0.17 4.1409998
1.813 0.17 4.132
1.8430001 0.17 4.1329999
1.87 0.17 4.125
1.902 0.171 4.1300001
1.929 0.171 4.1240001
1.961 0.17200001 4.1259999
1.989 0.17200001 4.119
2.0179999 0.17200001 4.1170001
2.0480001 0.17299999 4.1139998
2.0769999 0.17299999 4.1079998
2.108 0.17299999 4.1079998
2.1400001 0.17399999 4.1079998
2.171 0.17399999 4.105
2.2019999 0.175 4.1030002
2.233 0.175 4.099
2.263 0.175 4.0949998
2.299 0.176 4.0999999
-0.0099999998 0.0020000001 0.001
-0.003 0.001 -0.011
-2.4119999 0.21699999 4.4429998
-2.375 0.21600001 4.441
-2.3429999 0.21600001 4.4460001
-2.313 0.21600001 4.4559999
-2.2750001 0.215 4.4489999
-2.243 0.215 4.454
-2.2060001 0.214 4.4489999
-2.1719999 0.213 4.448
-2.1370001 0.212 4.4439998
-2.1010001 0.212 4.4380002
-2.0669999 0.211 4.4359999
-2.033 0.20999999 4.434
-1.997 0.20900001 4.4260001
-1.965 0.20900001 4.4250002
-1.931 0.208 4.4200001
-1.898 0.208 4.4190001
-1.868 0.207 4.421
-1.8329999 0.206 4.4120002
-1.8 0.206 4.4060001
-1.77 0.205 4.4070001
-1.735 0.204 4.3969998
-1.636 0.19599999 4.2199998
-1.573 0.191 4.1279998
-1.539 0.19 4.1129999
-1.508 0.189 4.1040001
-1.483 0.189 4.1110001
-1.461 0.19 4.1269999
-1.427 0.18799999 4.1079998
-1.406 0.189 4.1240001
-1.385 0.189 4.1420002
-1.392 0.19400001 4.2470002
-1.377 0.19499999 4.2870002
-1.372 0.198 4.3600001
-1.345 0.198 4.3629999
-1.308 0.19599999 4.3319998
-1.273 0.19499999 4.3070002
-1.248 0.19499999 4.316
-1.223 0.19499999 4.322
-1.2 0.19499999 4.3379998
-1.17 0.19499999 4.3280001
-1.145 0.19499999 4.336
-1.117 0.19400001 4.3299999
-1.09 0.19400001 4.3299999
-1.072 0.19499999 4.3639998
-1.0470001 0.19499999 4.3720002
-1.016 0.19400001 4.3520002
-1.003 0.197 4.4120002
-1.006 0.20200001 4.5469999
-0.96899998 0.2 4.5019999
-0.926 0.197 4.427
-0.91399997 0.199 4.4970002
-0.87800002 0.197 4.4520001
-0.85399997 0.198 4.4650002
-0.83600003 0.199 4.513
-0.79100001 0.19499999 4.4089999
-0.778 0.198 4.4850001
-0.73400003 0.193 4.381
-0.71100003 0.19400001 4.3979998
-0.69199997 0.19499999 4.4359999
-0.662 0.19400001 4.4130001
-0.63499999 0.19400001 4.402
-0.61500001 0.19499999 4.4400001
-0.574 0.19 4.329
-0.546 0.189 4.3080001
-0.52200001 0.189 4.3119998
-0.49700001 0.189 4.3119998
-0.472 0.189 4.309
-0.447 0.18799999 4.3049998
-0.42199999 0.18799999 4.3070002
-0.39700001 0.18799999 4.303
-0.37200001 0.18799999 4.3010001
-0.34799999 0.18799999 4.2969999
-0.32300001 0.18799999 4.2930002
-0.29800001 0.18700001 4.2849998
-0.27399999 0.18799999 4.296
-0.25 0.18799999 4.2969999
-0.22400001 0.186 4.2729998
-0.19 0.177 4.066
-0.13 0.138 3.158
-0.107 0.132 3.006
-0.088 0.13 2.96
-0.07 0.126 2.885
-0.052999999 0.124 2.839
-0.035999998 0.124 2.8239999
-0.02 0.123 2.802
-0.0040000002 0.122 2.7850001
0.011 0.121 2.7690001
0.026000001 0.121 2.7639999
0.041999999 0.121 2.7520001
0.057 0.121 2.7520001
0.072999999 0.12 2.744
0.088 0.12 2.743
0.103 0.12 2.7360001
0.119 0.12 2.7379999
0.13500001 0.121 2.7520001
0.15099999 0.121 2.7509999
0.168 0.121 2.7679999
0.185 0.122 2.786
0.20100001 0.123 2.7969999
0.219 0.124 2.8150001
0.236 0.124 2.829
0.25400001 0.125 2.8540001
0.27399999 0.127 2.8840001
0.29699999 0.13 2.948
0.322 0.133 3.027
0.347 0.13600001 3.0929999
0.36700001 0.13699999 3.115
0.382 0.13600001 3.0910001
0.39300001 0.134 3.0350001
0.40000001 0.131 2.961
0.41499999 0.13 2.941
0.42899999 0.12899999 2.9219999
0.44499999 0.12899999 2.918
0.461 0.12899999 2.908
0.47600001 0.12800001 2.8959999
0.49000001 0.12800001 2.8770001
0.50400001 0.127 2.859
0.51700002 0.126 2.8380001
0.52499998 0.124 2.7950001
0.54000002 0.124 2.7869999
0.55900002 0.125 2.796
0.574 0.125 2.79
0.59299999 0.125 2.8010001
0.61299998 0.126 2.8110001
0.63499999 0.127 2.8380001
0.662 0.12899999 2.881
0.704 0.134 2.9820001
0.75599998 0.14 3.122
0.82599998 0.149 3.329
0.92900002 0.164 3.6530001
1.054 0.182 4.0479999
1.114 0.18799999 4.1810002
1.141 0.18799999 4.1810002
1.168 0.189 4.1859999
1.193 0.189 4.1830001
1.2180001 0.189 4.178
1.242 0.189 4.171
1.271 0.19 4.178
1.296 0.19 4.1729999
1.321 0.19 4.165
1.348 0.19 4.1659999
1.375 0.19 4.1659999
1.4 0.19 4.1620002
1.427 0.191 4.1609998
1.452 0.191 4.1529999
1.484 0.192 4.164
1.511 0.192 4.1620002
1.533 0.192 4.1479998
1.5650001 0.192 4.158
1.591 0.193 4.1529999
1.619 0.193 4.1529999
1.648 0.193 4.1529999
1.675 0.19400001 4.1490002
1.7 0.19400001 4.1389999
1.726 0.19400001 4.132
1.757 0.19499999 4.138
1.786 0.19499999 4.1360002
1.813 0.19499999 4.131
1.8430001 0.19599999 4.132
1.872 0.19599999 4.1290002
1.901 0.19599999 4.1269999
1.929 0.197 4.1220002
1.96 0.197 4.1220002
1.9910001 0.198 4.1230001
2.0209999 0.198 4.1209998
2.0510001 0.199 4.118
2.0780001 0.199 4.1100001
2.109 0.199 4.1090002
2.1429999 0.2 4.1129999
2.175 0.2 4.1110001
2.2 0.2 4.099
2.2349999 0.20100001 4.1020002
2.2690001 0.20200001 4.105
2.299 0.20200001 4.0999999
-2.4590001 0.245 4.3990002
-2.424 0.244 4.3990002
-2.3929999 0.244 4.408
-2.3610001 0.243 4.4130001
-2.3280001 0.243 4.4180002
-2.296 0.242 4.4219999
-2.26 0.241 4.4190001
-2.2279999 0.241 4.4229999
-2.1919999 0.23999999 4.4200001
-2.168 0.241 4.4390001
-2.1289999 0.23899999 4.427
-2.1010001 0.23899999 4.4369998
-2.0680001 0.23899999 4.4359999
-2.0320001 0.23800001 4.4289999
-2.0020001 0.237 4.4359999
-1.966 0.236 4.4260001
-1.9349999 0.236 4.428
-1.904 0.235 4.4299998
-1.869 0.234 4.4219999
-1.8380001 0.234 4.4219999
-1.802 0.233 4.4089999
-1.771 0.23199999 4.4099998
-1.735 0.23100001 4.3940001
-1.636 0.221 4.2189999
-1.576 0.21699999 4.1360002
-1.53 0.214 4.0879998
-1.495 0.212 4.0679998
-1.472 0.212 4.0799999
-1.464 0.215 4.1329999
-1.426 0.213 4.105
-1.406 0.213 4.1230001
-1.382 0.214 4.1339998
-1.3940001 0.219 4.2529998
-1.382 0.221 4.302
-1.3710001 0.22400001 4.355
-1.351 0.22499999 4.381
-1.278 0.21699999 4.2319999
-1.244 0.215 4.2059999
-1.221 0.21600001 4.2199998
-1.192 0.215 4.211
-1.164 0.214 4.2069998
-1.138 0.214 4.2090001
-1.114 0.214 4.2160001
-1.086 0.213 4.2090001
-1.064 0.214 4.223
-1.076 0.221 4.3779998
-1.043 0.22 4.3559999
-1.0140001 0.219 4.3449998
-0.99699998 0.221 4.3850002
-0.995 0.226 4.494
-0.96100003 0.22400001 4.4629998
-0.93000001 0.223 4.4429998
-0.93000001 0.229 4.5749998
-0.87900001 0.223 4.4530001
-0.84100002 0.22 4.3959999
-0.824 0.222 4.4429998
-0.76099998 0.219 4.381
-0.73100001 0.21699999 4.3590002
-0.70700002 0.21799999 4.3720002
-0.69400001 0.222 4.4499998
-0.64999998 0.215 4.3309999
-0.64300001 0.221 4.454
-0.60399997 0.21699999 4.3649998
-0.57499999 0.215 4.3379998
-0.54799998 0.214 4.3179998
-0.52200001 0.214 4.3109999
-0.49700001 0.214 4.3099999
-0.472 0.213 4.3080001
-0.44800001 0.213 4.3119998
-0.42199999 0.213 4.3060002
-0.39700001 0.213 4.302
-0.37200001 0.213 4.3000002
-0.34799999 0.213 4.302
-0.32300001 0.212 4.2969999
-0.29800001 0.212 4.29
-0.273 0.212 4.2880001
-0.249 0.211 4.2779999
-0.22400001 0.211 4.2690001
-0.18700001 0.197 4.0019999
-0.131 0.15800001 3.191
-0.104 0.145 2.9200001
-0.085000001 0.142 2.859
-0.068000004 0.14 2.8210001
-0.052000001 0.139 2.7969999
-0.035999998 0.138 2.779
-0.02 0.13699999 2.767
-0.0040000002 0.13699999 2.7609999
0.0099999998 0.13600001 2.7479999
0.026000001 0.13600001 2.74
0.041000001 0.13600001 2.7390001
0.057 0.13600001 2.7379999
0.071999997 0.13500001 2.7320001
0.088 0.13500001 2.727
0.103 0.13500001 2.7219999
0.119 0.13500001 2.7309999
0.134 0.13500001 2.7279999
0.15000001 0.13600001 2.7360001
0.16599999 0.13600001 2.7349999
0.182 0.13600001 2.743
0.197 0.13600001 2.7409999
0.214 0.13699999 2.75
0.229 0.13699999 2.7490001
0.245 0.13699999 2.7490001
0.26100001 0.13699999 2.7520001
0.27700001 0.13699999 2.7520001
0.29300001 0.13699999 2.7550001
0.30899999 0.13699999 2.756
0.32600001 0.138 2.7690001
0.34099999 0.13699999 2.7579999
0.35600001 0.13699999 2.75
0.373 0.138 2.756
0.38800001 0.13699999 2.7509999
0.40400001 0.138 2.7520001
0.41999999 0.138 2.753
0.435 0.13699999 2.7460001
0.45100001 0.138 2.7460001
0.46700001 0.13699999 2.74
0.48199999 0.13699999 2.7349999
0.498 0.138 2.737
0.514 0.138 2.7360001
0.53100002 0.138 2.7379999
0.54799998 0.138 2.7379999
0.565 0.138 2.744
0.58499998 0.139 2.76
0.602 0.14 2.7639999
0.62199998 0.14 2.776
0.64200002 0.141 2.793
0.667 0.14300001 2.8269999
0.70099998 0.147 2.892
0.741 0.152 2.984
0.80400002 0.161 3.1600001
0.96100003 0.18799999 3.6889999
1.113 0.212 4.1760001
1.142 0.213 4.1869998
1.17 0.214 4.1919999
1.193 0.213 4.1789999
1.22 0.214 4.184
1.245 0.214 4.1789999
1.27 0.214 4.1739998
1.2970001 0.215 4.1760001
1.323 0.215 4.1729999
1.348 0.215 4.165
1.375 0.215 4.1669998
1.403 0.21600001 4.1680002
1.431 0.21600001 4.1690001
1.456 0.21600001 4.1630001
1.483 0.21699999 4.1620002
1.51 0.21699999 4.1589999
1.538 0.21699999 4.1599998
1.562 0.21699999 4.1500001
1.592 0.21799999 4.1550002
1.618 0.21799999 4.1490002
1.647 0.219 4.1490002
1.676 0.219 4.1490002
1.702 0.219 4.1430001
1.73 0.22 4.1409998
1.761 0.22 4.1440001
1.788 0.22 4.1389999
1.814 0.221 4.132
1.845 0.221 4.1350002
1.875 0.222 4.1350002
1.903 0.222 4.1290002
1.932 0.223 4.1269999
1.96 0.223 4.1220002
1.994 0.22400001 4.1269999
2.0190001 0.22400001 4.1160002
2.05 0.22400001 4.1160002
2.0840001 0.22499999 4.1199999
2.1099999 0.22499999 4.1079998
2.145 0.226 4.1139998
2.175 0.227 4.1110001
2.207 0.227 4.1100001
2.2390001 0.228 4.1100001
2.2690001 0.228 4.1030002
2.3010001 0.229 4.1009998
-2.4330001 0.27000001 4.3499999
-2.4000001 0.26899999 4.3540001
-2.3670001 0.26899999 4.3579998
-2.3369999 0.26899999 4.368
-2.303 0.26800001 4.368
-2.2720001 0.26800001 4.375
-2.2390001 0.26699999 4.3769999
-2.207 0.266 4.381
-2.1760001 0.266 4.3850002
-2.1440001 0.26499999 4.388
-2.109 0.264 4.3850002
-2.082 0.264 4.395
-2.0510001 0.264 4.3990002
-2.02 0.264 4.4029999
-1.985 0.26300001 4.3969998
-1.955 0.26199999 4.402
-1.924 0.26199999 4.402
-1.888 0.25999999 4.3920002
-1.852 0.259 4.381
-1.824 0.259 4.3860002
-1.789 0.25799999 4.3759999
-1.756 0.257 4.3709998
-1.727 0.25600001 4.3730001
-1.6569999 0.25 4.2709999
-1.591 0.244 4.1750002
-1.541 0.23999999 4.1149998
-1.508 0.23899999 4.1009998
-1.475 0.237 4.0869999
-1.466 0.23999999 4.1389999
-1.434 0.23899999 4.1240001
-1.409 0.23899999 4.132
-1.385 0.23899999 4.1409998
-1.391 0.244 4.2420001
-1.382 0.24699999 4.3000002
-1.36 0.248 4.3169999
-1.332 0.24699999 4.3179998
-1.286 0.243 4.2579999
-1.25 0.241 4.2270002
-1.224 0.241 4.2309999
-1.192 0.23999999 4.2119999
-1.1670001 0.23999999 4.2160001
-1.1339999 0.23800001 4.1900001
-1.11 0.23800001 4.2010002
-1.0779999 0.236 4.177
-1.059 0.23800001 4.204
-1.067 0.245 4.3429999
-1.049 0.24699999 4.3779998
-1.021 0.24600001 4.3730001
-0.995 0.24600001 4.3759999
-0.995 0.252 4.4970002
-0.95300001 0.248 4.4239998
-0.93800002 0.25099999 4.4829998
-0.90200001 0.248 4.4359999
-0.87900001 0.249 4.4549999
-0.86199999 0.25099999 4.5019999
-0.81599998 0.24600001 4.401
-0.79299998 0.24600001 4.4159999
-0.76899999 0.24600001 4.4260001
-0.75099999 0.249 4.4749999
-0.72000003 0.24699999 4.447
-0.67699999 0.241 4.3369999
-0.63300002 0.234 4.2160001
-0.61299998 0.236 4.2480001
-0.602 0.241 4.349
-0.57499999 0.23999999 4.3330002
-0.54799998 0.23899999 4.3169999
-0.52200001 0.23899999 4.3130002
-0.49700001 0.23800001 4.3070002
-0.47099999 0.23800001 4.302
-0.447 0.23800001 4.3080001
-0.42199999 0.23800001 4.3060002
-0.398 0.23800001 4.3070002
-0.373 0.237 4.3010001
-0.34799999 0.237 4.3000002
-0.32300001 0.237 4.3000002
-0.29800001 0.236 4.2909999
-0.27399999 0.236 4.2880001
-0.249 0.236 4.2820001
-0.223 0.234 4.256
-0.19599999 0.23100001 4.1929998
-0.164 0.22 4.0029998
-0.123 0.191 3.4649999
-0.090999998 0.169 3.0539999
-0.068999998 0.15800001 2.858
-0.052000001 0.155 2.8039999
-0.035999998 0.153 2.779
-0.02 0.153 2.766
-0.0040000002 0.152 2.757
0.0099999998 0.15099999 2.7420001
0.026000001 0.15099999 2.7349999
0.041000001 0.15099999 2.734
0.057 0.15099999 2.7290001
0.071999997 0.15099999 2.7290001
0.088 0.15099999 2.7390001
0.104 0.15099999 2.7390001
0.119 0.152 2.744
0.13500001 0.152 2.747
0.15099999 0.152 2.75
0.167 0.152 2.7479999
0.183 0.152 2.756
0.198 0.152 2.7520001
0.214 0.153 2.7590001
0.229 0.152 2.75
0.24600001 0.153 2.7539999
0.26199999 0.153 2.756
0.27700001 0.153 2.7550001
0.29300001 0.153 2.7509999
0.308 0.153 2.747
0.324 0.153 2.7520001
0.34099999 0.153 2.756
0.35600001 0.153 2.7520001
0.373 0.153 2.7539999
0.38800001 0.153 2.7520001
0.40400001 0.153 2.7509999
0.421 0.154 2.757
0.43700001 0.154 2.7539999
0.45199999 0.154 2.75
0.46900001 0.154 2.753
0.48500001 0.154 2.753
0.5 0.154 2.7420001
0.51700002 0.154 2.7460001
0.53100002 0.154 2.7360001
0.54799998 0.154 2.7390001
0.56599998 0.155 2.747
0.57999998 0.154 2.7360001
0.59899998 0.155 2.75
0.616 0.155 2.7479999
0.63599998 0.156 2.766
0.65600002 0.15700001 2.779
0.68099999 0.15899999 2.812
0.713 0.163 2.869
0.78399998 0.175 3.079
1 0.21699999 3.836
1.114 0.237 4.1750002
1.1440001 0.23800001 4.1929998
1.1670001 0.23800001 4.1799998
1.196 0.23899999 4.1880002
1.221 0.23899999 4.1849999
1.2460001 0.23899999 4.1789999
1.273 0.23899999 4.1830001
1.2970001 0.23899999 4.1739998
1.326 0.23999999 4.1789999
1.349 0.23999999 4.1669998
1.378 0.23999999 4.1729999
1.401 0.23999999 4.1620002
1.428 0.241 4.1599998
1.456 0.241 4.1609998
1.482 0.241 4.1570001
1.511 0.242 4.1599998
1.538 0.242 4.158
1.5650001 0.243 4.1550002
1.594 0.243 4.158
1.619 0.243 4.1490002
1.648 0.244 4.1500001
1.674 0.244 4.1440001
1.702 0.244 4.1430001
1.73 0.245 4.1399999
1.758 0.245 4.1360002
1.788 0.24600001 4.1370001
1.816 0.24600001 4.1360002
1.846 0.24699999 4.1339998
1.876 0.248 4.1360002
1.903 0.248 4.1290002
1.932 0.248 4.1259999
1.961 0.249 4.1220002
1.9910001 0.249 4.1209998
2.0209999 0.25 4.119
2.053 0.25099999 4.1209998
2.0810001 0.25099999 4.1129999
2.112 0.25099999 4.112
2.1440001 0.252 4.112
2.1760001 0.25299999 4.112
2.21 0.25400001 4.1149998
2.24 0.25400001 4.1090002
2.2709999 0.255 4.105
2.303 0.255 4.1030002
-2.4089999 0.29499999 4.3070002
-2.382 0.29499999 4.3200002
-2.348 0.294 4.322
-2.3199999 0.294 4.3340001
-2.2809999 0.29300001 4.3249998
-2.256 0.29300001 4.342
-2.224 0.29300001 4.3449998
-2.1949999 0.292 4.355
-2.1670001 0.292 4.3649998
-2.132 0.29100001 4.3610001
-2.0940001 0.28999999 4.3499999
-2.0639999 0.289 4.3569999
-2.033 0.289 4.3579998
-2.0020001 0.28799999 4.3600001
-1.961 0.28600001 4.3410001
-1.927 0.285 4.336
-1.901 0.285 4.348
-1.872 0.285 4.3530002
-1.842 0.28400001 4.355
-1.808 0.28299999 4.3460002
-1.778 0.28299999 4.348
-1.747 0.28200001 4.3470001
-1.715 0.28099999 4.3429999
-1.671 0.278 4.3060002
-1.6210001 0.27399999 4.2509999
-1.564 0.26899999 4.1750002
-1.536 0.26800001 4.1760001
-1.506 0.26699999 4.1700001
-1.485 0.26800001 4.191
-1.455 0.26699999 4.1849999
-1.426 0.266 4.1789999
-1.409 0.26800001 4.2129998
-1.398 0.271 4.2610002
-1.378 0.27200001 4.2859998
-1.3559999 0.27200001 4.3039999
-1.322 0.271 4.2839999
-1.29 0.26899999 4.2670002
-1.258 0.26800001 4.2529998
-1.239 0.26899999 4.2800002
-1.207 0.26800001 4.2610002
-1.177 0.26699999 4.2519999
-1.151 0.266 4.2529998
-1.115 0.264 4.2150002
-1.092 0.264 4.2290001
-1.077 0.26699999 4.2740002
-1.067 0.27000001 4.3400002
-1.04 0.27000001 4.3369999
-1.016 0.27000001 4.3509998
-1 0.273 4.3959999
-1 0.28 4.5170002
-0.95700002 0.27500001 4.4439998
-0.91100001 0.26899999 4.3499999
-0.912 0.27700001 4.4819999
-0.86799997 0.271 4.3959999
-0.85600001 0.27500001 4.4699998
-0.83200002 0.27599999 4.4840002
-0.787 0.26899999 4.3790002
-0.76300001 0.27000001 4.3920002
-0.74900001 0.27399999 4.4629998
-0.70899999 0.26899999 4.3790002
-0.66500002 0.26100001 4.2579999
-0.64600003 0.264 4.3010001
-0.63300002 0.26899999 4.3860002
-0.60600001 0.26699999 4.3709998
-0.57300001 0.264 4.3140001
-0.54799998 0.264 4.3130002
-0.52100003 0.26300001 4.302
-0.49599999 0.26199999 4.2950001
-0.47099999 0.26199999 4.2989998
-0.447 0.26199999 4.3010001
-0.42300001 0.26300001 4.3119998
-0.398 0.26199999 4.3070002
-0.373 0.26199999 4.3010001
-0.34799999 0.26100001 4.296
-0.322 0.26100001 4.2859998
-0.29800001 0.26100001 4.2909999
-0.27399999 0.26100001 4.29
-0.248 0.25999999 4.2719998
-0.219 0.25400001 4.1750002
-0.19499999 0.25299999 4.1690001
-0.17 0.25099999 4.1269999
-0.145 0.25 4.1100001
-0.119 0.242 3.9879999
-0.085000001 0.213 3.5079999
-0.054000001 0.17900001 2.9319999
-0.035999998 0.17 2.7969999
-0.02 0.169 2.779
-0.0040000002 0.169 2.7720001
0.0099999998 0.168 2.756
0.026000001 0.167 2.743
0.041999999 0.168 2.7509999
0.057 0.167 2.7449999
0.072999999 0.167 2.7460001
0.088 0.167 2.743
0.104 0.168 2.7490001
0.12 0.168 2.7539999
0.13600001 0.168 2.7539999
0.15099999 0.168 2.75
0.167 0.168 2.756
0.183 0.168 2.7539999
0.198 0.168 2.7550001
0.214 0.168 2.7520001
0.23 0.168 2.753
0.24600001 0.169 2.7590001
0.26100001 0.168 2.7509999
0.278 0.169 2.7579999
0.29300001 0.168 2.7509999
0.30899999 0.169 2.7539999
0.32499999 0.169 2.757
0.34099999 0.169 2.7590001
0.35699999 0.169 2.753
0.37200001 0.169 2.7509999
0.389 0.169 2.757
0.405 0.169 2.7550001
0.41999999 0.169 2.7509999
0.43700001 0.17 2.757
0.454 0.17 2.76
0.47 0.17 2.76
0.486 0.17 2.757
0.50099999 0.17 2.75
0.51800001 0.17 2.7520001
0.53399998 0.17 2.7520001
0.55000001 0.17 2.7490001
0.56599998 0.17 2.7460001
0.583 0.171 2.7509999
0.60000002 0.171 2.7520001
0.61699998 0.171 2.753
0.63800001 0.17299999 2.7709999
0.65700001 0.17399999 2.7820001
0.685 0.177 2.826
0.78200001 0.197 3.1470001
0.98699999 0.242 3.881
1.0829999 0.25999999 4.1560001
1.1160001 0.26199999 4.184
1.143 0.26199999 4.1849999
1.169 0.26300001 4.1849999
1.194 0.26300001 4.1830001
1.219 0.26300001 4.178
1.2460001 0.264 4.1789999
1.27 0.26300001 4.1700001
1.299 0.264 4.178
1.325 0.26499999 4.177
1.348 0.264 4.164
1.378 0.26499999 4.171
1.402 0.26499999 4.1630001
1.429 0.266 4.1620002
1.455 0.266 4.1589999
1.484 0.26699999 4.1609998
1.5089999 0.26699999 4.1550002
1.5369999 0.26699999 4.1539998
1.564 0.26800001 4.152
1.592 0.26800001 4.152
1.62 0.26800001 4.1500001
1.648 0.26899999 4.1500001
1.676 0.26899999 4.1469998
1.7029999 0.27000001 4.1420002
1.732 0.27000001 4.1420002
1.76 0.271 4.1399999
1.7869999 0.271 4.1350002
1.817 0.27200001 4.1370001
1.844 0.27200001 4.1300001
1.874 0.273 4.1290002
1.902 0.273 4.125
1.931 0.27399999 4.1230001
1.961 0.27399999 4.1209998
1.9960001 0.27599999 4.1290002
2.0220001 0.27599999 4.119
2.052 0.27599999 4.1160002
2.0810001 0.27700001 4.1110001
2.1129999 0.27700001 4.112
2.1429999 0.278 4.1090002
2.1760001 0.27900001 4.1100001
2.2079999 0.28 4.1090002
2.24 0.28 4.1079998
2.273 0.28099999 4.1079998
2.3080001 0.28200001 4.1110001
-2.3929999 0.32100001 4.2750001
-2.359 0.31999999 4.277
-2.3299999 0.31999999 4.2870002
-2.2980001 0.31900001 4.2909999
-2.2679999 0.31799999 4.2969999
-2.2309999 0.317 4.2909999
-2.2030001 0.317 4.303
-2.1670001 0.31600001 4.2969999
-2.145 0.31600001 4.3189998
-2.1070001 0.315 4.3080001
-2.0739999 0.31400001 4.3070002
-2.0380001 0.31299999 4.2989998
-2.0020001 0.31099999 4.2909999
-1.98 0.31200001 4.3119998
-1.954 0.31200001 4.3239999
-1.923 0.31099999 4.3249998
-1.893 0.31099999 4.329
-1.858 0.30899999 4.3179998
-1.834 0.31 4.335
-1.803 0.30899999 4.3340001
-1.771 0.308 4.329
-1.738 0.30700001 4.322
-1.692 0.303 4.283
-1.6569999 0.30199999 4.2670002
-1.6109999 0.29800001 4.223
-1.579 0.29699999 4.2150002
-1.541 0.294 4.1880002
-1.5089999 0.29300001 4.178
-1.479 0.292 4.171
-1.456 0.292 4.1859999
-1.433 0.29300001 4.1989999
-1.415 0.294 4.2270002
-1.398 0.296 4.2620001
-1.37 0.296 4.2600002
-1.348 0.296 4.276
-1.326 0.29699999 4.296
-1.2970001 0.296 4.289
-1.271 0.296 4.2950001
-1.243 0.29499999 4.2909999
-1.215 0.29499999 4.2909999
-1.186 0.294 4.283
-1.163 0.294 4.2969999
-1.135 0.294 4.2909999
-1.1109999 0.294 4.302
-1.085 0.294 4.3060002
-1.062 0.294 4.3179998
-1.036 0.294 4.322
-1.006 0.29300001 4.3060002
-0.98799998 0.29499999 4.3410001
-0.96899998 0.296 4.3730001
-0.93900001 0.29499999 4.3559999
-0.90100002 0.29100001 4.2989998
-0.90899998 0.30199999 4.4689999
-0.86900002 0.29699999 4.3979998
-0.84899998 0.29899999 4.4359999
-0.81400001 0.296 4.388
-0.78299999 0.29300001 4.3600001
-0.76800001 0.29699999 4.4219999
-0.71899998 0.28799999 4.2839999
-0.70700002 0.29300001 4.3629999
-0.68199998 0.29300001 4.3720002
-0.65499997 0.292 4.3610001
-0.62599999 0.28999999 4.336
-0.60900003 0.294 4.3940001
-0.58099997 0.29300001 4.375
-0.54900002 0.289 4.3200002
-0.523 0.289 4.3189998
-0.49700001 0.28799999 4.3070002
-0.47 0.28600001 4.2859998
-0.44100001 0.28299999 4.2449999
-0.421 0.28600001 4.2870002
-0.398 0.287 4.3080001
-0.37400001 0.287 4.316
-0.34799999 0.28600001 4.302
-0.32300001 0.28600001 4.2940001
-0.29899999 0.28600001 4.2989998
-0.273 0.285 4.2789998
-0.243 0.278 4.184
-0.215 0.27200001 4.0910001
-0.192 0.273 4.1079998
-0.169 0.27200001 4.1009998
-0.146 0.273 4.1139998
-0.123 0.27399999 4.1199999
-0.097999997 0.27000001 4.0650001
-0.068999998 0.248 3.7260001
-0.037999999 0.19599999 2.937
-0.02 0.186 2.79
-0.0040000002 0.185 2.7750001
0.0099999998 0.184 2.766
0.026000001 0.184 2.7550001
0.041999999 0.184 2.7579999
0.057 0.183 2.7449999
0.072999999 0.183 2.7490001
0.088 0.183 2.7490001
0.104 0.183 2.747
0.12 0.184 2.756
0.13600001 0.184 2.753
0.15099999 0.184 2.7509999
0.167 0.184 2.7579999
0.183 0.184 2.756
0.199 0.184 2.7620001
0.214 0.184 2.7509999
0.23 0.184 2.753
0.24600001 0.184 2.7539999
0.26199999 0.185 2.7579999
0.278 0.185 2.7590001
0.29300001 0.184 2.7539999
0.30899999 0.185 2.757
0.32600001 0.185 2.76
0.34099999 0.185 2.756
0.35800001 0.185 2.7609999
0.373 0.185 2.7539999
0.389 0.185 2.757
0.40599999 0.186 2.7590001
0.421 0.186 2.7550001
0.43799999 0.186 2.7609999
0.45500001 0.18700001 2.766
0.47 0.186 2.756
0.48699999 0.18700001 2.7620001
0.50199997 0.186 2.756
0.51800001 0.186 2.7520001
0.53600001 0.18700001 2.7590001
0.55000001 0.18700001 2.75
0.56800002 0.18700001 2.7550001
0.58499998 0.18700001 2.7579999
0.602 0.18799999 2.7590001
0.62 0.18799999 2.7639999
0.639 0.189 2.777
0.66299999 0.192 2.8069999
0.75800002 0.213 3.1259999
0.99699998 0.27399999 4.0120001
1.062 0.285 4.1719999
1.092 0.28600001 4.1869998
1.117 0.287 4.1869998
1.1440001 0.287 4.1869998
1.169 0.287 4.1859999
1.194 0.287 4.1789999
1.222 0.28799999 4.184
1.245 0.28799999 4.1729999
1.271 0.28799999 4.171
1.3 0.289 4.1799998
1.323 0.289 4.1669998
1.35 0.289 4.1669998
1.377 0.28999999 4.1680002
1.402 0.28999999 4.1630001
1.429 0.28999999 4.1609998
1.456 0.29100001 4.1599998
1.482 0.29100001 4.1529999
1.5089999 0.292 4.1529999
1.536 0.292 4.152
1.566 0.29300001 4.1550002
1.592 0.29300001 4.151
1.619 0.29300001 4.1459999
1.648 0.294 4.1490002
1.676 0.29499999 4.1469998
1.7029999 0.29499999 4.1430001
1.733 0.296 4.145
1.757 0.296 4.131
1.79 0.29699999 4.1399999
1.816 0.29699999 4.132
1.846 0.29800001 4.132
1.876 0.29899999 4.132
1.904 0.29899999 4.1279998
1.931 0.29899999 4.1209998
1.964 0.30000001 4.1259999
1.993 0.301 4.1220002
2.023 0.30199999 4.119
2.0550001 0.30199999 4.1209998
2.0829999 0.303 4.1129999
2.1140001 0.30399999 4.1139998
2.1459999 0.30500001 4.1129999
2.177 0.30500001 4.1110001
2.21 0.30599999 4.112
2.243 0.30700001 4.112
2.273 0.308 4.1069999
2.3069999 0.30899999 4.1079998
-2.3710001 0.345 4.2340002
-2.3340001 0.34400001 4.23
-2.3039999 0.34299999 4.237
-2.2780001 0.34299999 4.2519999
-2.25 0.34299999 4.2610002
-2.214 0.34200001 4.2579999
-2.1789999 0.34 4.2540002
-2.1500001 0.34 4.2610002
-2.122 0.34 4.27
-2.0739999 0.336 4.2389998
-2.04 0.33500001 4.2340002
-2.0250001 0.33700001 4.27
-1.993 0.336 4.27
-1.961 0.33500001 4.27
-1.9349999 0.33500001 4.2789998
-1.905 0.33500001 4.2820001
-1.876 0.33399999 4.2859998
-1.8430001 0.333 4.283
-1.8099999 0.33199999 4.2750001
-1.7819999 0.33199999 4.2810001
-1.7539999 0.331 4.2849998
-1.724 0.33000001 4.2849998
-1.6849999 0.32800001 4.263
-1.653 0.32699999 4.2550001
-1.617 0.32499999 4.2379999
-1.5880001 0.324 4.2360001
-1.553 0.322 4.2199998
-1.524 0.32100001 4.217
-1.499 0.32100001 4.2259998
-1.4680001 0.31999999 4.2189999
-1.443 0.31999999 4.2280002
-1.414 0.31900001 4.223
-1.388 0.31900001 4.2290001
-1.364 0.31900001 4.2389998
-1.3430001 0.31999999 4.2600002
-1.323 0.322 4.283
-1.291 0.31999999 4.27
-1.267 0.31999999 4.2789998
-1.237 0.31900001 4.27
-1.209 0.31799999 4.2659998
-1.183 0.31799999 4.2680001
-1.158 0.31799999 4.276
-1.1339999 0.31799999 4.2849998
-1.105 0.317 4.277
-1.079 0.317 4.2779999
-1.053 0.317 4.2800002
-1.027 0.31600001 4.2789998
-0.99400002 0.31400001 4.2529998
-0.96200001 0.31099999 4.223
-0.91799998 0.30500001 4.1389999
-0.884 0.30199999 4.0999999
-0.85699999 0.301 4.0900002
