# .PCD v0.7 - Point Cloud Data file format
VERSION 0.7
FIELDS x y z
SIZE 4 4 4
TYPE F F F
COUNT 1 1 1
WIDTH 1779
HEIGHT 1
VIEWPOINT 0 0 0 1 0 0 0
POINTS 1779
DATA ascii
-0.51800001 0.40700001 2.9560001
-0.50099999 0.40700001 2.9619999
-0.48100001 0.405 2.947
-0.465 0.405 2.9519999
-0.454 0.41100001 2.994
-0.44499999 0.419 3.0580001
-0.43000001 0.421 3.0739999
-0.412 0.421 3.075
-0.38999999 0.417 3.046
-0.36700001 0.41100001 3.0050001
-0.34099999 0.40000001 2.928
-0.322 0.39700001 2.9100001
-0.30199999 0.39300001 2.878
-0.28200001 0.389 2.848
-0.26499999 0.38800001 2.845
-0.249 0.38699999 2.8410001
-0.233 0.389 2.8529999
-0.21699999 0.38800001 2.8510001
-0.20100001 0.38999999 2.869
-0.186 0.39300001 2.888
-0.17399999 0.403 2.961
-0.15800001 0.405 2.983
-0.14300001 0.41100001 3.027
-0.12800001 0.41999999 3.089
-0.112 0.42300001 3.118
-0.096000001 0.43200001 3.184
-0.078000002 0.43399999 3.1960001
-0.059999999 0.435 3.2090001
-0.041999999 0.43700001 3.22
-0.023 0.43799999 3.23
-0.0049999999 0.447 3.2939999
0.013 0.44999999 3.3169999
0.032000002 0.45500001 3.352
0.052000001 0.456 3.3599999
0.071000002 0.45500001 3.3499999
0.090000004 0.456 3.362
0.108 0.44999999 3.313
0.127 0.45199999 3.3280001
0.147 0.454 3.3429999
0.164 0.44800001 3.2980001
0.178 0.43700001 3.2160001
0.197 0.43799999 3.223
0.215 0.43799999 3.2249999
0.234 0.43900001 3.2279999
0.252 0.43900001 3.224
0.27000001 0.43700001 3.21
0.28999999 0.44 3.2320001
0.30700001 0.43799999 3.217
0.32600001 0.43799999 3.2130001
0.34799999 0.44299999 3.25
0.36500001 0.44100001 3.233
0.38499999 0.442 3.2409999
0.40400001 0.44299999 3.2420001
0.421 0.44100001 3.227
0.44400001 0.44600001 3.26
0.46200001 0.44499999 3.253
0.49000001 0.454 3.312
0.51499999 0.45899999 3.348
0.54299998 0.46599999 3.3989999
0.56400001 0.46799999 3.4070001
0.55900002 0.44800001 3.2609999
0.55199999 0.428 3.1099999
0.57099998 0.428 3.1110001
0.62800002 0.45699999 3.316
0.68800002 0.486 3.5220001
0.71200001 0.48800001 3.5350001
0.72600001 0.48300001 3.4990001
0.74900001 0.48500001 3.51
0.78200001 0.493 3.5639999
0.81099999 0.498 3.596
0.83899999 0.50199997 3.622
0.87099999 0.509 3.6619999
0.89700001 0.51099998 3.677
0.91900003 0.51200002 3.675
0.94499999 0.514 3.6889999
0.96700001 0.51499999 3.6860001
0.99400002 0.51700002 3.7
1.022 0.51999998 3.7160001
1.041 0.51899999 3.6989999
1.074 0.52399999 3.734
1.096 0.52399999 3.727
1.127 0.52899998 3.7539999
1.151 0.52999997 3.753
1.178 0.53200001 3.7609999
1.199 0.53100002 3.75
1.228 0.53399998 3.7650001
1.2539999 0.53600001 3.77
1.281 0.537 3.7739999
1.299 0.53500003 3.7550001
1.3099999 0.53100002 3.7160001
1.337 0.53299999 3.721
1.369 0.537 3.7420001
1.3940001 0.537 3.7390001
1.433 0.54299998 3.7750001
1.452 0.542 3.7590001
1.487 0.54699999 3.7820001
1.502 0.54400003 3.7520001
1.517 0.54100001 3.727
1.538 0.54000002 3.7119999
1.5829999 0.54799998 3.757
1.592 0.54299998 3.717
1.626 0.54699999 3.7320001
1.655 0.54900002 3.737
1.697 0.55500001 3.7709999
1.724 0.55599999 3.7679999
1.7460001 0.55599999 3.7579999
1.781 0.56 3.7720001
1.807 0.56 3.767
1.86 0.56999999 3.819
1.847 0.55800003 3.7320001
1.911 0.56999999 3.803
1.931 0.56900001 3.7850001
1.972 0.574 3.8069999
2.0020001 0.57599998 3.8069999
2.026 0.57599998 3.796
2.0369999 0.57200003 3.7609999
2.1210001 0.58899999 3.8570001
2.2219999 0.61000001 3.983
2.335 0.63300002 4.125
-1.947 0.55199999 3.4460001
-1.9220001 0.551 3.4519999
-1.916 0.55599999 3.493
-1.926 0.565 3.562
-1.899 0.56400001 3.566
-1.902 0.57200003 3.6259999
-1.846 0.56199998 3.573
-1.812 0.55800003 3.5599999
-1.799 0.56199998 3.5899999
-1.788 0.565 3.6240001
-1.749 0.56 3.5999999
-1.7130001 0.55599999 3.5810001
-1.6849999 0.55400002 3.579
-1.6799999 0.56 3.6270001
-1.658 0.56 3.6359999
-1.631 0.55900002 3.6370001
-1.5779999 0.54799998 3.576
-1.508 0.53100002 3.4749999
-1.443 0.51599997 3.3789999
-1.4170001 0.514 3.3759999
-1.4069999 0.51800001 3.4089999
-1.386 0.51800001 3.418
-1.3660001 0.51800001 3.427
-1.33 0.51200002 3.395
-1.321 0.51700002 3.4330001
-1.3049999 0.51899999 3.4530001
-1.28 0.51700002 3.4489999
-1.26 0.51700002 3.4579999
-1.2410001 0.51800001 3.471
-1.2079999 0.51300001 3.4430001
-1.1900001 0.51499999 3.4579999
-1.168 0.514 3.4619999
-1.148 0.514 3.4679999
-1.122 0.51200002 3.4590001
-1.108 0.51499999 3.4849999
-1.074 0.509 3.45
-1.053 0.509 3.454
-1.027 0.50599998 3.4419999
-1.013 0.509 3.467
-0.986 0.50599998 3.4519999
-0.96399999 0.505 3.45
-0.94300002 0.505 3.4530001
-0.917 0.50199997 3.438
-0.89899999 0.50300002 3.4519999
-0.87599999 0.50099999 3.444
-0.852 0.49900001 3.4360001
-0.83200002 0.49900001 3.441
-0.81300002 0.5 3.4489999
-0.79100001 0.49900001 3.4460001
-0.77399999 0.50099999 3.4649999
-0.75099999 0.49900001 3.4530001
-0.73000002 0.498 3.4549999
-0.708 0.49700001 3.4489999
-0.68300003 0.49399999 3.431
-0.662 0.493 3.427
-0.60000002 0.461 3.2060001
-0.54000002 0.428 2.9790001
-0.51899999 0.42500001 2.96
-0.5 0.42300001 2.9489999
-0.48100001 0.421 2.9389999
-0.46599999 0.42300001 2.9560001
-0.45899999 0.43200001 3.023
-0.447 0.43799999 3.0650001
-0.43399999 0.44299999 3.105
-0.42399999 0.45100001 3.161
-0.40599999 0.45199999 3.171
-0.39399999 0.45899999 3.2190001
-0.375 0.458 3.2160001
-0.35600001 0.458 3.217
-0.33399999 0.45300001 3.1819999
-0.30899999 0.44299999 3.1159999
-0.285 0.43399999 3.053
-0.26100001 0.42399999 2.9849999
-0.23899999 0.41499999 2.9200001
-0.21799999 0.40700001 2.8670001
-0.2 0.40400001 2.8469999
-0.182 0.40000001 2.8180001
-0.164 0.39700001 2.7950001
-0.148 0.396 2.7920001
-0.132 0.39500001 2.7850001
-0.116 0.396 2.7909999
-0.101 0.39700001 2.803
-0.085000001 0.398 2.8110001
-0.068999998 0.40200001 2.8369999
-0.054000001 0.40900001 2.8870001
-0.037999999 0.419 2.9590001
-0.022 0.42500001 3.003
-0.0049999999 0.44299999 3.132
0.012 0.44999999 3.1800001
0.030999999 0.45500001 3.214
0.050000001 0.45899999 3.2420001
0.068000004 0.461 3.2550001
0.086999997 0.46200001 3.2609999
0.106 0.46200001 3.2620001
0.126 0.46799999 3.3039999
0.141 0.456 3.2160001
0.156 0.44499999 3.141
0.17200001 0.44100001 3.1140001
0.189 0.43900001 3.096
0.208 0.442 3.1170001
0.227 0.44400001 3.1300001
0.24699999 0.44800001 3.1559999
0.266 0.44999999 3.1670001
0.28299999 0.447 3.1470001
0.30000001 0.44600001 3.1389999
0.32300001 0.45300001 3.1830001
0.347 0.46000001 3.234
0.37 0.465 3.2709999
0.38800001 0.465 3.267
0.405 0.463 3.253
0.42199999 0.461 3.2360001
0.44100001 0.461 3.233
0.46200001 0.46399999 3.2479999
0.48100001 0.46399999 3.2490001
0.50400001 0.46900001 3.2780001
0.53600001 0.47999999 3.3540001
0.52999997 0.458 3.197
0.53299999 0.44499999 3.105
0.546 0.44100001 3.0769999
0.57200003 0.447 3.115
0.63 0.47799999 3.325
0.67299998 0.495 3.441
0.68599999 0.49000001 3.4059999
0.713 0.495 3.434
0.741 0.5 3.47
0.764 0.50300002 3.4809999
0.79699999 0.50999999 3.53
0.82999998 0.51800001 3.582
0.85000002 0.51700002 3.5710001
0.87300003 0.51899999 3.5780001
0.898 0.52100003 3.589
0.93099999 0.528 3.6300001
0.949 0.52600002 3.6140001
0.97000003 0.52600002 3.6059999
1.0039999 0.53299999 3.648
1.028 0.53399998 3.6500001
1.05 0.53399998 3.6470001
1.074 0.53600001 3.6500001
1.094 0.53500003 3.6389999
1.124 0.53899997 3.661
1.152 0.542 3.675
1.1799999 0.54500002 3.688
1.202 0.54500002 3.6830001
1.227 0.546 3.6860001
1.261 0.551 3.7119999
1.276 0.54799998 3.6860001
1.298 0.54799998 3.6789999
1.303 0.54100001 3.6240001
1.324 0.54100001 3.6140001
1.358 0.546 3.641
1.3890001 0.54900002 3.6559999
1.4069999 0.54799998 3.638
1.432 0.54900002 3.6370001
1.461 0.551 3.6470001
1.4859999 0.55199999 3.6470001
1.5089999 0.55299997 3.6400001
1.533 0.55299997 3.6359999
1.566 0.55699998 3.6530001
1.587 0.55699998 3.641
1.632 0.56400001 3.6819999
1.66 0.56599998 3.6860001
1.668 0.56099999 3.645
1.7029999 0.565 3.661
1.7410001 0.56999999 3.6849999
1.7589999 0.56900001 3.6630001
1.802 0.57499999 3.6960001
1.825 0.57499999 3.6860001
1.873 0.583 3.724
1.8890001 0.57999998 3.7
1.946 0.59100002 3.7539999
1.949 0.58399999 3.704
1.9809999 0.58700001 3.7079999
1.9579999 0.57300001 3.6099999
1.988 0.57499999 3.6129999
2.102 0.60100001 3.7650001
2.2539999 0.63700002 3.9790001
-1.916 0.565 3.388
-1.878 0.56099999 3.3699999
-1.8839999 0.56900001 3.431
-1.864 0.56900001 3.4449999
-1.823 0.56400001 3.4200001
-1.794 0.56099999 3.4159999
-1.756 0.55599999 3.395
-1.761 0.565 3.4579999
-1.784 0.579 3.556
-1.752 0.57599998 3.5469999
-1.722 0.574 3.5409999
-1.6900001 0.57099998 3.5309999
-1.6619999 0.56900001 3.527
-1.67 0.579 3.6010001
-1.63 0.57300001 3.572
-1.5470001 0.551 3.4449999
-1.4859999 0.537 3.3629999
-1.4349999 0.52600002 3.302
-1.429 0.53100002 3.3440001
-1.41 0.53200001 3.3540001
-1.387 0.53100002 3.3570001
-1.368 0.53200001 3.3699999
-1.34 0.52899998 3.358
-1.316 0.52700001 3.3559999
-1.289 0.52499998 3.346
-1.271 0.52600002 3.3610001
-1.251 0.52600002 3.3670001
-1.237 0.52899998 3.3929999
-1.216 0.52899998 3.3989999
-1.188 0.52499998 3.3840001
-1.163 0.523 3.3770001
-1.1440001 0.52399999 3.3870001
-1.13 0.52700001 3.411
-1.112 0.528 3.4260001
-1.082 0.523 3.401
-1.058 0.52200001 3.3959999
-1.0369999 0.52100003 3.4000001
-1.011 0.51800001 3.3840001
-0.98699999 0.51599997 3.3759999
-0.96899998 0.51700002 3.3900001
-0.949 0.51700002 3.3940001
-0.92500001 0.51499999 3.385
-0.90899998 0.51700002 3.404
-0.88300002 0.514 3.3870001
-0.87 0.51800001 3.418
-0.84299999 0.514 3.3959999
-0.82200003 0.51300001 3.3940001
-0.80000001 0.51200002 3.391
-0.77899998 0.51099998 3.3900001
-0.76200002 0.51300001 3.408
-0.74000001 0.51200002 3.402
-0.71799999 0.50999999 3.3929999
-0.69599998 0.509 3.3889999
-0.67699999 0.509 3.3940001
-0.65200001 0.505 3.372
-0.60399997 0.48300001 3.224
-0.53899997 0.44400001 2.9690001
-0.51899999 0.442 2.9579999
-0.50199997 0.442 2.9590001
-0.48100001 0.43900001 2.941
-0.465 0.44 2.951
-0.456 0.447 3.0020001
-0.447 0.456 3.063
-0.43200001 0.45899999 3.0869999
-0.421 0.46599999 3.138
-0.40599999 0.47 3.1659999
-0.38999999 0.47299999 3.188
-0.373 0.47400001 3.2
-0.35699999 0.47799999 3.2260001
-0.34099999 0.48100001 3.25
-0.322 0.48100001 3.247
-0.30399999 0.48199999 3.256
-0.28600001 0.48300001 3.2679999
-0.26499999 0.479 3.24
-0.243 0.47299999 3.2
-0.222 0.46700001 3.161
-0.199 0.45500001 3.0829999
-0.17200001 0.43200001 2.9230001
-0.149 0.41299999 2.799
-0.132 0.412 2.7869999
-0.116 0.41 2.78
-0.098999999 0.40900001 2.7690001
-0.082999997 0.40700001 2.76
-0.067000002 0.40599999 2.753
-0.052000001 0.40599999 2.753
-0.035999998 0.405 2.7420001
-0.02 0.40400001 2.74
-0.0040000002 0.40599999 2.7550001
0.011 0.40900001 2.773
0.027000001 0.412 2.79
0.043000001 0.417 2.8269999
0.059999999 0.42399999 2.872
0.078000002 0.43099999 2.9189999
0.097000003 0.44 2.98
0.116 0.44800001 3.04
0.132 0.44499999 3.017
0.15000001 0.44600001 3.0190001
0.168 0.44800001 3.033
0.185 0.44800001 3.0350001
0.206 0.45500001 3.0829999
0.22499999 0.458 3.0969999
0.241 0.454 3.075
0.25999999 0.45699999 3.092
0.27900001 0.45899999 3.1029999
0.29699999 0.45899999 3.099
0.32600001 0.47499999 3.2079999
0.35100001 0.484 3.2720001
0.37099999 0.48699999 3.2850001
0.39399999 0.49200001 3.3169999
0.41 0.48800001 3.29
0.426 0.48500001 3.2650001
0.45300001 0.493 3.3210001
0.47 0.49200001 3.3069999
0.491 0.493 3.3139999
0.50999999 0.493 3.3139999
0.50999999 0.47499999 3.1889999
0.51300001 0.46200001 3.095
0.53200001 0.46200001 3.098
0.54699999 0.46000001 3.0780001
0.57099998 0.465 3.1070001
0.62800002 0.495 3.3099999
0.65399998 0.5 3.3410001
0.67299998 0.5 3.336
0.69700003 0.50300002 3.3540001
0.727 0.51099998 3.401
0.75199997 0.51499999 3.421
0.78100002 0.52100003 3.457
0.80699998 0.52399999 3.4790001
0.83600003 0.52999997 3.5120001
0.85699999 0.52999997 3.51
0.88499999 0.53500003 3.5350001
0.90700001 0.53500003 3.5320001
0.92900002 0.53600001 3.533
0.95899999 0.54100001 3.563
0.98100001 0.542 3.5610001
1.0039999 0.54299998 3.563
1.03 0.546 3.576
1.0549999 0.54799998 3.585
1.076 0.54699999 3.576
1.102 0.55000001 3.5869999
1.12 0.54799998 3.572
1.149 0.55199999 3.5880001
1.166 0.55000001 3.569
1.198 0.55500001 3.596
1.228 0.55800003 3.612
1.242 0.55500001 3.585
1.255 0.55199999 3.5539999
1.273 0.55000001 3.5369999
1.3 0.55299997 3.546
1.319 0.55199999 3.533
1.344 0.55299997 3.536
1.374 0.55599999 3.549
1.397 0.55699998 3.5469999
1.428 0.56099999 3.562
1.454 0.56199998 3.5650001
1.485 0.56599998 3.5780001
1.501 0.56400001 3.5569999
1.527 0.565 3.5569999
1.5549999 0.56699997 3.5639999
1.5779999 0.56800002 3.5569999
1.6160001 0.57300001 3.5840001
1.646 0.57599998 3.5929999
1.673 0.57800001 3.5929999
1.705 0.58099997 3.6040001
1.733 0.583 3.6070001
1.776 0.58999997 3.638
1.806 0.59200001 3.6440001
1.8329999 0.59299999 3.641
1.859 0.59399998 3.6370001
1.891 0.597 3.6440001
1.909 0.59600002 3.6240001
1.921 0.59200001 3.592
1.943 0.59200001 3.579
1.9450001 0.58600003 3.5309999
1.946 0.579 3.48
2.0610001 0.60600001 3.635
-1.846 0.56599998 3.26
-1.847 0.57300001 3.3110001
-1.802 0.565 3.277
-1.772 0.56199998 3.2709999
-1.742 0.56 3.2639999
-1.766 0.574 3.3599999
-1.775 0.58399999 3.4289999
-1.725 0.57499999 3.3829999
-1.7 0.574 3.385
-1.7079999 0.58399999 3.454
-1.699 0.588 3.4909999
-1.6720001 0.58600003 3.4890001
-1.624 0.57700002 3.4430001
-1.6 0.57599998 3.447
-1.5369999 0.56099999 3.365
-1.4630001 0.542 3.2550001
-1.432 0.53799999 3.2390001
-1.424 0.542 3.2739999
-1.401 0.54100001 3.276
-1.378 0.54000002 3.2750001
-1.353 0.53799999 3.2709999
-1.3380001 0.54000002 3.2920001
-1.316 0.53899997 3.2939999
-1.293 0.53799999 3.2939999
-1.2640001 0.53399998 3.277
-1.2410001 0.53299999 3.276
-1.221 0.53299999 3.283
-1.2 0.53299999 3.2880001
-1.186 0.53600001 3.3110001
-1.169 0.537 3.326
-1.149 0.537 3.3329999
-1.141 0.54299998 3.3729999
-1.122 0.54299998 3.385
-1.101 0.54299998 3.388
-1.071 0.53799999 3.3640001
-1.0420001 0.53399998 3.3410001
-1.0140001 0.52999997 3.3210001
-0.99299997 0.52899998 3.3210001
-0.97000003 0.52700001 3.313
-0.94499999 0.52399999 3.3
-0.92500001 0.52399999 3.3050001
-0.903 0.52200001 3.299
-0.889 0.52600002 3.3269999
-0.866 0.52399999 3.319
-0.84899998 0.52499998 3.3329999
-0.82800001 0.52499998 3.3329999
-0.81 0.52600002 3.3440001
-0.78799999 0.52399999 3.3369999
-0.76099998 0.51899999 3.3080001
-0.74400002 0.52100003 3.325
-0.72399998 0.51999998 3.323
-0.704 0.51999998 3.325
-0.68099999 0.51700002 3.3150001
-0.66399997 0.51899999 3.329
-0.64499998 0.51899999 3.332
-0.60399997 0.50099999 3.2190001
-0.54100001 0.463 2.9790001
-0.51899999 0.45899999 2.9549999
-0.50099999 0.45899999 2.954
-0.48199999 0.456 2.9419999
-0.465 0.45699999 2.9489999
-0.456 0.465 3
-0.44800001 0.47499999 3.0669999
-0.43399999 0.479 3.095
-0.419 0.48199999 3.118
-0.405 0.48699999 3.1530001
-0.38499999 0.48500001 3.1470001
-0.37099999 0.49000001 3.177
-0.35299999 0.491 3.1889999
-0.33700001 0.49399999 3.2060001
-0.31900001 0.495 3.2179999
-0.30000001 0.49399999 3.2090001
-0.28099999 0.493 3.2090001
-0.26300001 0.49399999 3.214
-0.244 0.493 3.211
-0.226 0.49399999 3.2179999
-0.208 0.49399999 3.2160001
-0.183 0.477 3.108
-0.15000001 0.435 2.8299999
-0.133 0.42899999 2.7969999
-0.116 0.428 2.789
-0.1 0.426 2.776
-0.083999999 0.42500001 2.767
-0.068000004 0.42500001 2.7690001
-0.050999999 0.42199999 2.747
-0.035999998 0.42300001 2.756
-0.02 0.41999999 2.7409999
-0.0040000002 0.42199999 2.7520001
0.0099999998 0.419 2.733
0.026000001 0.41800001 2.7260001
0.041000001 0.41600001 2.711
0.057 0.414 2.701
0.071999997 0.414 2.697
0.088 0.414 2.6989999
0.103 0.41499999 2.7019999
0.119 0.417 2.717
0.13600001 0.41999999 2.733
0.152 0.42199999 2.75
0.17 0.42699999 2.7809999
0.19 0.43700001 2.845
0.20999999 0.44299999 2.8859999
0.228 0.447 2.9100001
0.25099999 0.458 2.977
0.26899999 0.46000001 2.9879999
0.294 0.47299999 3.0710001
0.32300001 0.48899999 3.177
0.34200001 0.49000001 3.1830001
0.36700001 0.5 3.247
0.389 0.50400001 3.2709999
0.403 0.498 3.2279999
0.419 0.49599999 3.211
0.44400001 0.50199997 3.25
0.46599999 0.505 3.2709999
0.47299999 0.49399999 3.191
0.46700001 0.47 3.0320001
0.484 0.46799999 3.0209999
0.51099998 0.477 3.0769999
0.52899998 0.477 3.076
0.54900002 0.479 3.086
0.57499999 0.48699999 3.131
0.61699998 0.50599998 3.2509999
0.639 0.509 3.266
0.66600001 0.514 3.2980001
0.68699998 0.51599997 3.3039999
0.71100003 0.51999998 3.326
0.73500001 0.52200001 3.3399999
0.76800001 0.53200001 3.3989999
0.792 0.53500003 3.411
0.81599998 0.537 3.424
0.838 0.53899997 3.4289999
0.86299998 0.54100001 3.4419999
0.884 0.542 3.4430001
0.91000003 0.546 3.4590001
0.93099999 0.546 3.4560001
0.95099998 0.546 3.45
0.98500001 0.55299997 3.493
1.006 0.55400002 3.4890001
1.026 0.55299997 3.4809999
1.048 0.55400002 3.4820001
1.069 0.55400002 3.477
1.0930001 0.55599999 3.4809999
1.109 0.55400002 3.461
1.138 0.55800003 3.4809999
1.16 0.55800003 3.4790001
1.1849999 0.56 3.483
1.214 0.56400001 3.5009999
1.2359999 0.56400001 3.4960001
1.2539999 0.56300002 3.4809999
1.263 0.55800003 3.4430001
1.296 0.56300002 3.467
1.317 0.56300002 3.46
1.3430001 0.565 3.4679999
1.378 0.57099998 3.494
1.388 0.56599998 3.4590001
1.415 0.56900001 3.4660001
1.441 0.57099998 3.47
1.473 0.57499999 3.4860001
1.4960001 0.57499999 3.483
1.524 0.57800001 3.4890001
1.545 0.57800001 3.4809999
1.5779999 0.58200002 3.497
1.608 0.58499998 3.507
1.627 0.58399999 3.4920001
1.655 0.58600003 3.4949999
1.6950001 0.59200001 3.523
1.725 0.59500003 3.5320001
1.76 0.59899998 3.546
1.812 0.60900003 3.596
1.834 0.60900003 3.585
1.8660001 0.61199999 3.592
1.8890001 0.61199999 3.582
1.9069999 0.611 3.563
1.928 0.61000001 3.5480001
1.92 0.60100001 3.4820001
1.9450001 0.60100001 3.4760001
1.962 0.60000002 3.4560001
-1.786 0.56800002 3.1500001
-1.7690001 0.56900001 3.1659999
-1.726 0.56199998 3.135
-1.739 0.57300001 3.2060001
-1.73 0.57700002 3.2379999
-1.738 0.58600003 3.302
-1.73 0.59100002 3.3369999
-1.688 0.58399999 3.306
-1.646 0.57599998 3.273
-1.665 0.59100002 3.3640001
-1.638 0.588 3.3610001
-1.614 0.58700001 3.365
-1.552 0.57300001 3.2869999
-1.51 0.565 3.2490001
-1.444 0.54699999 3.158
-1.426 0.54799998 3.1689999
-1.405 0.54699999 3.1730001
-1.391 0.55000001 3.194
-1.354 0.54299998 3.1619999
-1.348 0.54799998 3.201
-1.324 0.546 3.1989999
-1.294 0.542 3.1800001
-1.296 0.551 3.2409999
-1.281 0.55400002 3.2620001
-1.2539999 0.55000001 3.2490001
-1.235 0.551 3.2579999
-1.21 0.54799998 3.2509999
-1.188 0.54699999 3.253
-1.1799999 0.55299997 3.2909999
-1.163 0.55400002 3.3050001
-1.14 0.55299997 3.3039999
-1.117 0.551 3.299
-1.092 0.54900002 3.2909999
-1.0599999 0.542 3.2579999
-1.05 0.54699999 3.293
-1.02 0.542 3.2679999
-1 0.542 3.27
-0.972 0.537 3.2479999
-0.94999999 0.53600001 3.2449999
-0.93099999 0.53600001 3.2509999
-0.91299999 0.53600001 3.2579999
-0.89899999 0.53899997 3.283
-0.87699997 0.53799999 3.2809999
-0.85299999 0.53500003 3.2639999
-0.83999997 0.53899997 3.2969999
-0.815 0.53500003 3.2750001
-0.79400003 0.53500003 3.276
-0.773 0.53299999 3.2690001
-0.74900001 0.52999997 3.2539999
-0.72899997 0.52899998 3.253
-0.71200001 0.53100002 3.267
-0.68900001 0.528 3.2539999
-0.667 0.52600002 3.244
-0.64399999 0.52200001 3.223
-0.62900001 0.52499998 3.247
-0.59299999 0.51099998 3.1600001
-0.54299998 0.48199999 2.9849999
-0.51899999 0.477 2.9530001
-0.5 0.47499999 2.9449999
-0.48300001 0.47499999 2.947
-0.46599999 0.47400001 2.947
-0.456 0.48199999 3
-0.44499999 0.48899999 3.0439999
-0.43200001 0.49399999 3.0780001
-0.417 0.498 3.1010001
-0.39899999 0.498 3.108
-0.382 0.49900001 3.1129999
-0.36700001 0.50300002 3.1440001
-0.34999999 0.505 3.154
-0.333 0.50700003 3.171
-0.31299999 0.50300002 3.148
-0.29699999 0.50700003 3.175
-0.27700001 0.505 3.1619999
-0.259 0.505 3.1670001
-0.241 0.50599998 3.1689999
-0.222 0.50300002 3.154
-0.205 0.505 3.1659999
-0.182 0.49200001 3.0869999
-0.15000001 0.44999999 2.822
-0.133 0.447 2.802
-0.116 0.44400001 2.7880001
-0.1 0.44400001 2.7839999
-0.083999999 0.44400001 2.7850001
-0.068000004 0.44 2.7639999
-0.052000001 0.44 2.76
-0.035999998 0.44 2.7620001
-0.02 0.44600001 2.8039999
-0.0040000002 0.46200001 2.9000001
0.011 0.46599999 2.928
0.028000001 0.46200001 2.9000001
0.044 0.45699999 2.8710001
0.059 0.44999999 2.825
0.074000001 0.44299999 2.779
0.089000002 0.43700001 2.74
0.104 0.433 2.7149999
0.118 0.43000001 2.697
0.133 0.42699999 2.677
0.147 0.42399999 2.6559999
0.163 0.42500001 2.6619999
0.178 0.42399999 2.6570001
0.193 0.42500001 2.6600001
0.208 0.42399999 2.655
0.22499999 0.426 2.6659999
0.242 0.43000001 2.6919999
0.25999999 0.43399999 2.7130001
0.28099999 0.442 2.763
0.30000001 0.44600001 2.789
0.32300001 0.45699999 2.852
0.34099999 0.45899999 2.8629999
0.36199999 0.465 2.901
0.38299999 0.46900001 2.928
0.403 0.47299999 2.951
0.41999999 0.47400001 2.95
0.43599999 0.472 2.9360001
0.44299999 0.46200001 2.8740001
0.484 0.486 3.0190001
0.514 0.498 3.0929999
0.53299999 0.5 3.1010001
0.56300002 0.50999999 3.165
0.57999998 0.509 3.1530001
0.60900003 0.51800001 3.2060001
0.63 0.51999998 3.217
0.65799999 0.528 3.26
0.68099999 0.53100002 3.2739999
0.70700002 0.53600001 3.3050001
0.72799999 0.537 3.3080001
0.75099999 0.54000002 3.3210001
0.77700001 0.54500002 3.345
0.792 0.54100001 3.3210001
0.824 0.54900002 3.3659999
0.84100002 0.54799998 3.3510001
0.861 0.54799998 3.3510001
0.88800001 0.55199999 3.372
0.91100001 0.55400002 3.3800001
0.935 0.55699998 3.3889999
0.95499998 0.55699998 3.3829999
0.98000002 0.56 3.3970001
0.99800003 0.55800003 3.3829999
1.016 0.55699998 3.372
1.0369999 0.55800003 3.368
1.063 0.56099999 3.382
1.081 0.56 3.3710001
1.109 0.56400001 3.3889999
1.132 0.565 3.3900001
1.164 0.57099998 3.4200001
1.177 0.56699997 3.391
1.2079999 0.57200003 3.414
1.2309999 0.57300001 3.414
1.244 0.56999999 3.388
1.268 0.57200003 3.3900001
1.298 0.57599998 3.408
1.324 0.57800001 3.4130001
1.346 0.579 3.4100001
1.368 0.579 3.405
1.3890001 0.579 3.3989999
1.425 0.58499998 3.427
1.452 0.588 3.434
1.48 0.58999997 3.441
1.501 0.59100002 3.434
1.517 0.588 3.4119999
1.548 0.59200001 3.427
1.574 0.59399998 3.4289999
1.603 0.597 3.4360001
1.6289999 0.59799999 3.4360001
1.659 0.602 3.4449999
1.682 0.602 3.4400001
1.727 0.61000001 3.477
1.757 0.61299998 3.484
1.809 0.62400001 3.533
1.826 0.62199998 3.5120001
1.844 0.62 3.494
1.862 0.61900002 3.474
1.905 0.62599999 3.5039999
1.916 0.62199998 3.471
1.932 0.62 3.45
1.9170001 0.60799998 3.3729999
-1.719 0.56699997 3.029
-1.7130001 0.57099998 3.0639999
-1.717 0.579 3.1170001
-1.717 0.58600003 3.1619999
-1.71 0.58999997 3.1960001
-1.678 0.58600003 3.184
-1.6619999 0.588 3.2019999
-1.647 0.58999997 3.2219999
-1.627 0.58999997 3.2320001
-1.628 0.59799999 3.2850001
-1.595 0.59399998 3.27
-1.533 0.57800001 3.1919999
-1.471 0.56199998 3.1110001
-1.4220001 0.551 3.0550001
-1.411 0.55400002 3.082
-1.387 0.55199999 3.079
-1.375 0.55500001 3.102
-1.344 0.55000001 3.0829999
-1.327 0.551 3.0940001
-1.299 0.54799998 3.082
-1.288 0.551 3.1070001
-1.2690001 0.551 3.1159999
-1.256 0.55400002 3.1370001
-1.228 0.54900002 3.1210001
-1.209 0.55000001 3.128
-1.2 0.55400002 3.161
-1.178 0.55299997 3.161
-1.156 0.55199999 3.1619999
-1.14 0.55299997 3.175
-1.117 0.55199999 3.1719999
-1.1059999 0.55500001 3.2
-1.0880001 0.55599999 3.21
-1.054 0.54900002 3.1730001
-1.03 0.546 3.164
-1.011 0.546 3.1689999
-0.995 0.54799998 3.1849999
-0.97000003 0.54500002 3.1700001
-0.95300001 0.546 3.181
-0.93699998 0.54799998 3.198
-0.921 0.54900002 3.2119999
-0.89099997 0.542 3.177
-0.88200003 0.54900002 3.2190001
-0.86500001 0.55000001 3.2290001
-0.84299999 0.54799998 3.223
-0.82499999 0.54900002 3.233
-0.80599999 0.54900002 3.237
-0.78200001 0.546 3.223
-0.755 0.54000002 3.191
-0.74000001 0.542 3.2130001
-0.71600002 0.53899997 3.1930001
-0.69 0.53299999 3.165
-0.67500001 0.53500003 3.181
-0.65100002 0.53100002 3.158
-0.63700002 0.53500003 3.1849999
-0.611 0.528 3.1489999
-0.58499998 0.52100003 3.1110001
-0.53899997 0.49700001 2.9649999
-0.51899999 0.49399999 2.951
-0.50099999 0.493 2.948
-0.48300001 0.49200001 2.9460001
-0.46599999 0.491 2.944
-0.45500001 0.498 2.9879999
-0.44299999 0.505 3.029
-0.42699999 0.50599998 3.0420001
-0.41 0.50700003 3.046
-0.39199999 0.50599998 3.046
-0.377 0.51099998 3.0739999
-0.361 0.51200002 3.086
-0.34400001 0.51300001 3.0940001
-0.32499999 0.51300001 3.0929999
-0.308 0.514 3.1029999
-0.28999999 0.51300001 3.0940001
-0.273 0.51499999 3.1110001
-0.255 0.51499999 3.109
-0.236 0.51200002 3.096
-0.21799999 0.51300001 3.099
-0.20200001 0.51499999 3.115
-0.17900001 0.50199997 3.039
-0.15000001 0.46700001 2.823
-0.133 0.461 2.7920001
-0.116 0.461 2.7909999
-0.1 0.461 2.79
-0.083999999 0.46000001 2.7869999
-0.068000004 0.45899999 2.776
-0.052000001 0.456 2.763
-0.035999998 0.458 2.773
-0.021 0.465 2.816
-0.0049999999 0.48300001 2.9230001
0.011 0.48800001 2.9549999
0.028999999 0.498 3.0190001
0.046999998 0.50400001 3.0510001
0.064999998 0.50599998 3.0639999
0.082000002 0.50199997 3.0439999
0.097999997 0.49900001 3.02
0.115 0.49700001 3.0120001
0.13 0.48800001 2.951
0.145 0.47999999 2.9070001
0.15800001 0.47099999 2.8510001
0.17 0.46000001 2.78
0.183 0.45199999 2.73
0.19499999 0.44400001 2.6819999
0.20900001 0.44100001 2.661
0.222 0.43599999 2.632
0.237 0.43700001 2.6340001
0.25099999 0.43399999 2.6140001
0.26499999 0.433 2.6059999
0.28099999 0.43399999 2.612
0.29499999 0.433 2.6070001
0.31099999 0.433 2.6070001
0.32600001 0.43399999 2.6110001
0.34400001 0.43700001 2.6259999
0.36000001 0.43799999 2.631
0.377 0.44 2.6400001
0.40599999 0.456 2.7349999
0.44499999 0.48100001 2.8829999
0.48500001 0.505 3.0280001
0.51899999 0.52100003 3.1199999
0.546 0.52999997 3.171
0.56800002 0.53299999 3.187
0.574 0.52200001 3.118
0.59600002 0.52499998 3.135
0.62300003 0.53299999 3.1789999
0.64300001 0.53399998 3.1800001
0.66600001 0.53799999 3.201
0.69199997 0.54400003 3.2309999
0.71600002 0.54699999 3.2490001
0.74000001 0.551 3.267
0.764 0.55500001 3.2850001
0.78299999 0.55500001 3.2820001
0.80699998 0.55800003 3.2950001
0.82800001 0.55900002 3.2969999
0.85500002 0.56400001 3.3239999
0.87400001 0.56300002 3.316
0.89399999 0.56400001 3.312
0.92299998 0.56900001 3.342
0.94199997 0.56900001 3.335
0.954 0.56400001 3.303
0.97500002 0.565 3.302
1.001 0.56900001 3.319
1.025 0.57200003 3.3280001
1.041 0.56900001 3.309
1.066 0.57200003 3.3199999
1.092 0.57599998 3.335
1.115 0.57700002 3.336
1.135 0.57700002 3.329
1.16 0.579 3.3380001
1.1849999 0.58200002 3.3469999
1.196 0.57700002 3.3150001
1.232 0.58499998 3.352
1.245 0.58099997 3.3239999
1.278 0.588 3.3529999
1.301 0.588 3.3510001
1.322 0.58899999 3.3469999
1.351 0.59299999 3.3610001
1.365 0.58999997 3.3369999
1.391 0.59200001 3.3429999
1.429 0.59899998 3.3759999
1.447 0.59799999 3.362
1.459 0.59500003 3.3340001
1.4960001 0.60100001 3.362
1.524 0.60399997 3.3699999
1.546 0.60500002 3.3640001
1.579 0.60900003 3.381
1.592 0.60600001 3.355
1.632 0.61299998 3.3859999
1.668 0.61900002 3.4070001
1.71 0.62599999 3.4389999
1.738 0.62800002 3.4419999
1.75 0.625 3.4130001
1.784 0.62900001 3.428
1.827 0.63700002 3.4579999
1.842 0.634 3.434
1.902 0.64700001 3.494
1.913 0.64300001 3.4630001
1.933 0.64300001 3.448
1.9579999 0.64300001 3.441
-1.676 0.57200003 2.9489999
-1.693 0.58399999 3.023
-1.694 0.59100002 3.0710001
-1.663 0.58700001 3.059
-1.666 0.59500003 3.1110001
-1.642 0.59399998 3.1140001
-1.627 0.59600002 3.132
-1.603 0.59399998 3.132
-1.604 0.602 3.184
-1.586 0.60299999 3.1960001
-1.499 0.57700002 3.0680001
-1.432 0.55900002 2.977
-1.4119999 0.55800003 2.983
-1.403 0.56199998 3.0109999
-1.3710001 0.55699998 2.9890001
-1.355 0.55800003 3.003
-1.345 0.56199998 3.0309999
-1.309 0.55500001 2.9990001
-1.295 0.55699998 3.0179999
-1.2690001 0.55400002 3.0079999
-1.272 0.56300002 3.0650001
-1.245 0.55900002 3.0539999
-1.2130001 0.55400002 3.0280001
-1.21 0.56099999 3.073
-1.1849999 0.55800003 3.0639999
-1.168 0.55900002 3.076
-1.143 0.55599999 3.0650001
-1.123 0.55500001 3.0680001
-1.114 0.56 3.1010001
-1.095 0.56 3.1059999
-1.074 0.55900002 3.1059999
-1.044 0.55299997 3.0780001
-1.027 0.55299997 3.0880001
-1.0039999 0.551 3.0810001
-0.98299998 0.55000001 3.0780001
-0.96700001 0.551 3.0910001
-0.95099998 0.55199999 3.102
-0.93400002 0.55299997 3.1140001
-0.91500002 0.55299997 3.118
-0.90799999 0.56 3.1630001
-0.89099997 0.56099999 3.175
-0.86500001 0.55699998 3.155
-0.84899998 0.55900002 3.168
-0.82599998 0.55599999 3.1559999
-0.81099999 0.55800003 3.1730001
-0.79000002 0.55599999 3.1689999
-0.76200002 0.55000001 3.1340001
-0.755 0.55800003 3.187
-0.73100001 0.55400002 3.1689999
-0.70599997 0.54900002 3.1429999
-0.68199998 0.54500002 3.122
-0.65499997 0.53799999 3.0840001
-0.639 0.54000002 3.099
-0.61900002 0.53799999 3.092
-0.59200001 0.52999997 3.052
-0.56400001 0.52100003 3
-0.53500003 0.509 2.9349999
-0.51499999 0.50700003 2.925
-0.498 0.50700003 2.927
-0.48199999 0.50800002 2.9360001
-0.463 0.50599998 2.928
-0.44999999 0.50999999 2.954
-0.43700001 0.51499999 2.9820001
-0.42199999 0.51800001 3.0009999
-0.403 0.51599997 2.9920001
-0.38699999 0.51800001 3.01
-0.373 0.52200001 3.0320001
-0.354 0.52100003 3.03
-0.33700001 0.52200001 3.0350001
-0.31999999 0.52200001 3.039
-0.303 0.52399999 3.049
-0.28400001 0.51999998 3.0320001
-0.26800001 0.523 3.0510001
-0.25 0.523 3.0480001
-0.23199999 0.52100003 3.0409999
-0.215 0.52100003 3.0420001
-0.197 0.52200001 3.0469999
-0.177 0.514 3.0020001
-0.15099999 0.484 2.8269999
-0.133 0.479 2.799
-0.117 0.47999999 2.802
-0.101 0.479 2.7969999
-0.083999999 0.477 2.79
-0.068000004 0.477 2.7880001
-0.052000001 0.47299999 2.766
-0.035999998 0.47299999 2.767
-0.021 0.48300001 2.822
-0.0049999999 0.49900001 2.9159999
0.011 0.50599998 2.9619999
0.028999999 0.51599997 3.02
0.046999998 0.523 3.0610001
0.064999998 0.523 3.062
0.081 0.51800001 3.03
0.098999999 0.52200001 3.056
0.117 0.523 3.0580001
0.13500001 0.523 3.0580001
0.152 0.52100003 3.043
0.169 0.52200001 3.05
0.18700001 0.52100003 3.043
0.20299999 0.51800001 3.027
0.21799999 0.51200002 2.99
0.23199999 0.50599998 2.9489999
0.242 0.49200001 2.8710001
0.25400001 0.48300001 2.813
0.264 0.472 2.747
0.27200001 0.45899999 2.671
0.28099999 0.449 2.612
0.29499999 0.447 2.599
0.31 0.447 2.596
0.32499999 0.44800001 2.598
0.338 0.44499999 2.5829999
0.35100001 0.44299999 2.5669999
0.368 0.44499999 2.5780001
0.403 0.46900001 2.714
0.44600001 0.49900001 2.8889999
0.48800001 0.52600002 3.0439999
0.51599997 0.53600001 3.102
0.54400003 0.546 3.155
0.54799998 0.53299999 3.076
0.565 0.53100002 3.0639999
0.58899999 0.537 3.095
0.61199999 0.542 3.1199999
0.63300002 0.54500002 3.131
0.65899998 0.551 3.1630001
0.68300003 0.55500001 3.1830001
0.70200002 0.55500001 3.1830001
0.72500002 0.55900002 3.2
0.755 0.56699997 3.2420001
0.76899999 0.56400001 3.2190001
0.79500002 0.56900001 3.2449999
0.81599998 0.56999999 3.247
0.83999997 0.57300001 3.2609999
0.86299998 0.57599998 3.273
0.88800001 0.57999998 3.2880001
0.90799999 0.57999998 3.2850001
0.92299998 0.57700002 3.266
0.94700003 0.57999998 3.276
0.96600002 0.579 3.2679999
0.98900002 0.58200002 3.276
1.018 0.58700001 3.3
1.033 0.58499998 3.2820001
1.058 0.58700001 3.2909999
1.074 0.58499998 3.2739999
1.094 0.58600003 3.27
1.1109999 0.58399999 3.256
1.143 0.59100002 3.2869999
1.1569999 0.588 3.2650001
1.176 0.588 3.256
1.194 0.58700001 3.2449999
1.223 0.59100002 3.263
1.238 0.58899999 3.244
1.267 0.59299999 3.2609999
1.2920001 0.59600002 3.267
1.319 0.59899998 3.277
1.346 0.602 3.286
1.3710001 0.60399997 3.29
1.401 0.60799998 3.306
1.424 0.60900003 3.3050001
1.449 0.611 3.3080001
1.474 0.61299998 3.309
1.501 0.616 3.316
1.5039999 0.60900003 3.27
1.548 0.61799997 3.3110001
1.566 0.61699998 3.296
1.592 0.61900002 3.299
1.6210001 0.62199998 3.3069999
1.661 0.63 3.3380001
1.682 0.62900001 3.3269999
1.723 0.63700002 3.3559999
1.7589999 0.64200002 3.3759999
1.776 0.63999999 3.3570001
1.786 0.63700002 3.3269999
1.8329999 0.64499998 3.3629999
1.863 0.648 3.368
1.878 0.64600003 3.346
1.925 0.65499997 3.381
-1.656 0.58399999 2.911
-1.6849999 0.60100001 3.007
-1.649 0.59500003 2.9849999
-1.623 0.59299999 2.983
-1.596 0.58999997 2.977
-1.587 0.59299999 3.0039999
-1.591 0.602 3.0580001
-1.602 0.61400002 3.1270001
-1.549 0.60100001 3.0710001
-1.476 0.57999998 2.971
-1.423 0.56699997 2.908
-1.409 0.56800002 2.9260001
-1.399 0.57200003 2.951
-1.3710001 0.56800002 2.9389999
-1.349 0.56699997 2.9400001
-1.3150001 0.56 2.911
-1.311 0.56599998 2.9519999
-1.298 0.56800002 2.971
-1.27 0.56400001 2.954
-1.25 0.56300002 2.9579999
-1.225 0.56099999 2.95
-1.2079999 0.56099999 2.9579999
-1.184 0.55900002 2.9519999
-1.187 0.56800002 3.0120001
-1.168 0.56800002 3.016
-1.151 0.56900001 3.027
-1.136 0.57099998 3.0420001
-1.1059999 0.565 3.0179999
-1.09 0.56599998 3.029
-1.072 0.56599998 3.0380001
-1.053 0.56599998 3.0409999
-1.0319999 0.565 3.039
-1.008 0.56099999 3.026
-0.98500001 0.55900002 3.0190001
-0.96799999 0.55900002 3.026
-0.95200002 0.56099999 3.04
-0.93199998 0.56 3.0380001
-0.91500002 0.56 3.0469999
-0.89499998 0.55900002 3.0450001
-0.884 0.56400001 3.075
-0.866 0.56400001 3.082
-0.84500003 0.56199998 3.076
-0.82099998 0.55800003 3.0599999
-0.80400002 0.55900002 3.069
-0.77700001 0.55299997 3.0380001
-0.76099998 0.55400002 3.049
-0.741 0.55299997 3.0450001
-0.72600001 0.55500001 3.0639999
-0.70599997 0.55299997 3.0550001
-0.68099999 0.54799998 3.0320001
-0.662 0.54699999 3.026
-0.64899999 0.551 3.0550001
-0.62599999 0.546 3.0320001
-0.60500002 0.54299998 3.0179999
-0.58399999 0.54000002 3.0050001
-0.55599999 0.52999997 2.951
-0.53399998 0.52600002 2.9300001
-0.51300001 0.52200001 2.911
-0.495 0.52100003 2.905
-0.47600001 0.51800001 2.895
-0.461 0.52100003 2.9130001
-0.447 0.52399999 2.9289999
-0.42899999 0.523 2.9289999
-0.41600001 0.52700001 2.954
-0.398 0.52600002 2.95
-0.382 0.528 2.9630001
-0.366 0.52999997 2.977
-0.347 0.52700001 2.96
-0.33199999 0.53100002 2.9849999
-0.31400001 0.52899998 2.974
-0.296 0.528 2.971
-0.28 0.52999997 2.9820001
-0.26300001 0.53100002 2.9890001
-0.245 0.528 2.9779999
-0.228 0.52999997 2.987
-0.211 0.52899998 2.9860001
-0.193 0.528 2.98
-0.175 0.52600002 2.97
-0.15099999 0.5 2.823
-0.133 0.49599999 2.7980001
-0.117 0.49599999 2.799
-0.101 0.49399999 2.793
-0.085000001 0.49399999 2.7880001
-0.068000004 0.493 2.7869999
-0.052000001 0.48899999 2.7620001
-0.035999998 0.491 2.7739999
-0.021 0.49900001 2.8199999
-0.0049999999 0.51499999 2.9130001
0.011 0.523 2.9549999
0.028999999 0.52899998 2.9890001
0.046 0.52700001 2.9779999
0.063000001 0.528 2.987
0.081 0.53200001 3.0050001
0.097000003 0.52899998 2.9890001
0.115 0.53100002 3.0020001
0.132 0.53100002 2.9990001
0.15000001 0.53299999 3.013
0.167 0.53100002 2.9990001
0.185 0.53299999 3.0079999
0.20200001 0.53299999 3.01
0.219 0.53299999 3.01
0.237 0.53500003 3.0150001
0.25400001 0.53399998 3.0109999
0.27000001 0.53200001 2.9960001
0.285 0.52700001 2.967
0.287 0.50099999 2.8210001
0.28400001 0.46900001 2.6370001
0.296 0.46399999 2.605
0.31 0.463 2.598
0.32499999 0.463 2.5969999
0.33899999 0.461 2.5869999
0.352 0.45899999 2.5710001
0.36899999 0.461 2.5829999
0.40700001 0.48899999 2.7360001
0.44800001 0.51800001 2.9000001
0.484 0.53899997 3.0139999
0.51700002 0.55500001 3.102
0.52200001 0.542 3.026
0.53399998 0.537 2.993
0.55900002 0.54400003 3.03
0.58399999 0.551 3.0650001
0.60299999 0.55199999 3.0680001
0.62800002 0.55800003 3.0999999
0.65200001 0.56400001 3.128
0.67199999 0.56400001 3.1300001
0.69199997 0.56599998 3.1359999
0.713 0.56800002 3.142
0.74000001 0.57499999 3.177
0.75700003 0.57300001 3.164
0.78399998 0.57999998 3.1949999
0.80699998 0.583 3.207
0.829 0.58499998 3.2160001
0.85299999 0.588 3.2290001
0.87 0.58700001 3.2190001
0.89099997 0.588 3.2219999
0.91100001 0.58899999 3.2190001
0.93599999 0.59200001 3.234
0.95499998 0.59200001 3.2290001
0.972 0.59100002 3.2160001
0.986 0.588 3.1930001
1.003 0.58700001 3.1830001
1.034 0.59399998 3.214
1.053 0.59299999 3.2079999
1.073 0.59399998 3.2030001
1.099 0.597 3.217
1.117 0.597 3.2079999
1.143 0.60000002 3.2219999
1.163 0.60100001 3.217
1.182 0.60000002 3.2079999
1.196 0.59799999 3.188
1.219 0.60000002 3.1919999
1.239 0.60000002 3.1849999
1.265 0.60299999 3.194
1.288 0.60500002 3.198
1.326 0.61299998 3.2360001
1.345 0.61199999 3.224
1.363 0.61199999 3.214
1.383 0.61199999 3.2049999
1.397 0.60900003 3.1849999
1.425 0.61299998 3.1949999
1.446 0.61299998 3.1900001
1.48 0.61900002 3.2130001
1.508 0.62199998 3.221
1.535 0.625 3.227
1.564 0.62900001 3.237
1.595 0.63300002 3.2509999
1.594 0.625 3.1989999
1.63 0.63099998 3.221
1.664 0.63599998 3.2390001
1.702 0.64200002 3.2620001
1.735 0.64700001 3.276
1.755 0.64600003 3.2650001
1.772 0.64499998 3.2479999
1.808 0.65100002 3.2650001
1.8380001 0.65399998 3.2720001
1.898 0.667 3.329
-1.65 0.60100001 2.8970001
-1.6339999 0.602 2.9119999
-1.607 0.59899998 2.9059999
-1.5880001 0.59899998 2.915
-1.5829999 0.60399997 2.9489999
-1.579 0.61000001 2.987
-1.546 0.60500002 2.9690001
-1.4910001 0.58999997 2.9059999
-1.456 0.58399999 2.882
-1.416 0.57499999 2.846
-1.402 0.57599998 2.862
-1.3890001 0.579 2.8800001
-1.374 0.57999998 2.8959999
-1.339 0.57300001 2.8659999
-1.3200001 0.57200003 2.872
-1.302 0.57200003 2.8789999
-1.284 0.57200003 2.8859999
-1.276 0.57700002 2.9170001
-1.245 0.57099998 2.8940001
-1.226 0.57099998 2.8989999
-1.193 0.56400001 2.868
-1.188 0.56999999 2.9070001
-1.175 0.57200003 2.925
-1.156 0.57099998 2.928
-1.132 0.56800002 2.9189999
-1.122 0.57300001 2.947
-1.107 0.574 2.9619999
-1.0880001 0.574 2.964
-1.067 0.57200003 2.9619999
-1.053 0.574 2.9790001
-1.034 0.574 2.9820001
-1.012 0.57099998 2.9749999
-0.99199998 0.56999999 2.9760001
-0.98100001 0.57499999 3.0020001
-0.96100003 0.57300001 3.0020001
-0.93900001 0.57099998 2.994
-0.90799999 0.56300002 2.9560001
-0.88999999 0.56300002 2.96
-0.86799997 0.56 2.9519999
-0.85900003 0.56599998 2.987
-0.84200001 0.56599998 2.994
-0.824 0.56599998 2.997
-0.80199999 0.56300002 2.987
-0.78100002 0.56099999 2.9779999
-0.76700002 0.56300002 2.9949999
-0.74299997 0.55900002 2.9749999
-0.73199999 0.56400001 3.007
-0.708 0.55900002 2.983
-0.68599999 0.55599999 2.9690001
-0.667 0.55400002 2.9649999
-0.648 0.55299997 2.96
-0.62900001 0.551 2.9549999
-0.60900003 0.54900002 2.9460001
-0.59100002 0.54799998 2.944
-0.56699997 0.542 2.914
-0.54500002 0.537 2.892
-0.52700001 0.53600001 2.888
-0.50700003 0.53200001 2.872
-0.49000001 0.53200001 2.872
-0.47 0.52899998 2.858
-0.45699999 0.53200001 2.8789999
-0.43700001 0.52899998 2.8629999
-0.42399999 0.53399998 2.8900001
-0.40599999 0.53100002 2.881
-0.389 0.53200001 2.8859999
-0.37400001 0.53399998 2.9000001
-0.35800001 0.53500003 2.9070001
-0.34200001 0.537 2.9189999
-0.324 0.53399998 2.904
-0.30700001 0.53500003 2.911
-0.292 0.53799999 2.931
-0.27399999 0.53600001 2.921
-0.259 0.53899997 2.938
-0.241 0.53799999 2.9330001
-0.22400001 0.537 2.9300001
-0.20900001 0.542 2.957
-0.19 0.537 2.9289999
-0.17299999 0.53399998 2.918
-0.15099999 0.51700002 2.825
-0.133 0.51200002 2.796
-0.117 0.50999999 2.7880001
-0.101 0.50999999 2.7869999
-0.083999999 0.509 2.7809999
-0.068000004 0.50700003 2.7709999
-0.052000001 0.50599998 2.7690001
-0.035999998 0.50599998 2.7690001
-0.021 0.51599997 2.823
-0.0049999999 0.52999997 2.898
0.011 0.537 2.9400001
0.028000001 0.53600001 2.931
0.045000002 0.53500003 2.925
0.061999999 0.537 2.938
0.079000004 0.53799999 2.9419999
0.096000001 0.53799999 2.944
0.113 0.53899997 2.948
0.13 0.54100001 2.9579999
0.148 0.542 2.9619999
0.16500001 0.542 2.9619999
0.182 0.542 2.9590001
0.199 0.54299998 2.964
0.21600001 0.542 2.9560001
0.235 0.54699999 2.984
0.25099999 0.54400003 2.9660001
0.26699999 0.542 2.9530001
0.28299999 0.54100001 2.9449999
0.287 0.51700002 2.813
0.28299999 0.48300001 2.6270001
0.29699999 0.48100001 2.6129999
0.31200001 0.47999999 2.608
0.32600001 0.479 2.6010001
0.33899999 0.477 2.5869999
0.35499999 0.477 2.586
0.373 0.48199999 2.6110001
0.40700001 0.505 2.7360001
0.44600001 0.53299999 2.8840001
0.48899999 0.56199998 3.043
0.495 0.54900002 2.9690001
0.50800002 0.54400003 2.9400001
0.52899998 0.54900002 2.961
0.55000001 0.55299997 2.9790001
0.574 0.55900002 3.0090001
0.59200001 0.55900002 3.0090001
0.62 0.56900001 3.056
0.64099997 0.57099998 3.069
0.66500002 0.57700002 3.0940001
0.68599999 0.57999998 3.1059999
0.70700002 0.58200002 3.1140001
0.72799999 0.58399999 3.1210001
0.74599999 0.583 3.1140001
0.76700002 0.58600003 3.125
0.79000002 0.58899999 3.1370001
0.81 0.58999997 3.138
0.83200002 0.59200001 3.1459999
0.84799999 0.59100002 3.1340001
0.86500001 0.58999997 3.122
0.88800001 0.59200001 3.1329999
0.89899999 0.588 3.1029999
0.926 0.59299999 3.128
0.94999999 0.597 3.141
0.96799999 0.59600002 3.1340001
0.99299997 0.60000002 3.1459999
1.01 0.59899998 3.1370001
1.029 0.59899998 3.131
1.048 0.59899998 3.1259999
1.067 0.59899998 3.1229999
1.089 0.60100001 3.1240001
1.12 0.60699999 3.152
1.15 0.61299998 3.177
1.161 0.60900003 3.148
1.176 0.60699999 3.131
1.196 0.60699999 3.128
1.217 0.60799998 3.125
1.247 0.61400002 3.1470001
1.261 0.611 3.1270001
1.28 0.611 3.118
1.314 0.61799997 3.148
1.329 0.616 3.131
1.3559999 0.61900002 3.1400001
1.374 0.61900002 3.1289999
1.399 0.62099999 3.1329999
1.426 0.62400001 3.1429999
1.452 0.62699997 3.148
1.462 0.62300003 3.1199999
1.512 0.63599998 3.177
1.546 0.64200002 3.198
1.561 0.63999999 3.178
1.569 0.63499999 3.1459999
1.605 0.64099997 3.168
1.618 0.63800001 3.145
1.658 0.64600003 3.174
1.696 0.653 3.1989999
1.721 0.65499997 3.198
1.7410001 0.65399998 3.1860001
1.775 0.65899998 3.2019999
1.829 0.67199999 3.2509999
1.89 0.68599999 3.312
-1.589 0.597 2.786
-1.5829999 0.602 2.8169999
-1.562 0.60000002 2.8199999
-1.552 0.60299999 2.8440001
-1.544 0.60799998 2.8729999
-1.498 0.597 2.8280001
-1.47 0.59299999 2.819
-1.404 0.574 2.734
-1.41 0.583 2.7869999
-1.391 0.583 2.793
-1.368 0.57999998 2.79
-1.342 0.57700002 2.7809999
-1.3380001 0.583 2.816
-1.3200001 0.583 2.822
-1.2869999 0.57599998 2.7969999
-1.2640001 0.57300001 2.7920001
-1.245 0.57300001 2.7950001
-1.244 0.57999998 2.839
-1.22 0.57700002 2.832
-1.194 0.574 2.8199999
-1.176 0.57300001 2.825
-1.179 0.583 2.881
-1.15 0.57700002 2.859
-1.1289999 0.57599998 2.8570001
-1.119 0.57999998 2.8829999
-1.108 0.583 2.9059999
-1.08 0.57800001 2.885
-1.069 0.58099997 2.908
-1.046 0.57800001 2.8989999
-1.015 0.57099998 2.869
-0.99699998 0.57099998 2.872
-0.98199999 0.57200003 2.885
-0.97500002 0.57800001 2.921
-0.94199997 0.56900001 2.881
-0.93400002 0.57499999 2.914
-0.91000003 0.57099998 2.8989999
-0.88800001 0.56800002 2.8889999
-0.87099999 0.56800002 2.8940001
-0.86199999 0.574 2.927
-0.82999998 0.56400001 2.8800001
-0.81900001 0.56800002 2.9059999
-0.79799998 0.56599998 2.8989999
-0.78100002 0.56599998 2.905
-0.76599997 0.56800002 2.918
-0.74699998 0.56599998 2.915
-0.73000002 0.56599998 2.918
-0.708 0.56199998 2.9030001
-0.68900001 0.56099999 2.901
-0.66900003 0.55900002 2.8900001
-0.64999998 0.55699998 2.8870001
-0.63200003 0.55599999 2.8859999
-0.60900003 0.551 2.858
-0.59399998 0.55199999 2.869
-0.579 0.55400002 2.885
-0.55299997 0.54500002 2.8380001
-0.53899997 0.54799998 2.8570001
-0.51800001 0.54299998 2.836
-0.498 0.54000002 2.8199999
-0.48300001 0.54100001 2.8269999
-0.46399999 0.53799999 2.816
-0.447 0.53799999 2.8169999
-0.43000001 0.537 2.8169999
-0.414 0.537 2.8180001
-0.398 0.53799999 2.825
-0.38299999 0.54000002 2.835
-0.36700001 0.54100001 2.8440001
-0.35100001 0.542 2.8510001
-0.33399999 0.54000002 2.8440001
-0.31900001 0.54299998 2.858
-0.303 0.54299998 2.8640001
-0.28400001 0.53899997 2.8410001
-0.27000001 0.54400003 2.868
-0.252 0.542 2.859
-0.236 0.542 2.8640001
-0.22 0.54400003 2.8729999
-0.20299999 0.54400003 2.8729999
-0.18700001 0.54299998 2.8710001
-0.169 0.54000002 2.8570001
-0.15000001 0.53200001 2.816
-0.133 0.52700001 2.7869999
-0.117 0.52700001 2.7909999
-0.1 0.52399999 2.7720001
-0.083999999 0.523 2.7709999
-0.068000004 0.52200001 2.763
-0.052000001 0.523 2.7709999
-0.035999998 0.523 2.7679999
-0.021 0.53100002 2.8139999
-0.0049999999 0.54100001 2.8670001
0.011 0.542 2.872
0.028000001 0.54400003 2.882
0.044 0.54500002 2.888
0.061000001 0.546 2.8929999
0.078000002 0.546 2.892
0.093999997 0.54500002 2.888
0.112 0.54900002 2.908
0.12800001 0.54799998 2.9030001
0.145 0.54900002 2.904
0.162 0.54900002 2.9070001
0.17900001 0.55000001 2.9070001
0.19599999 0.55199999 2.9200001
0.213 0.551 2.9130001
0.23 0.551 2.9130001
0.248 0.55599999 2.9360001
0.26300001 0.551 2.911
0.27900001 0.55000001 2.9030001
0.28299999 0.52600002 2.7739999
0.285 0.50099999 2.6389999
0.29699999 0.49599999 2.612
0.31200001 0.495 2.6070001
0.32699999 0.495 2.6029999
0.34 0.493 2.592
0.35499999 0.493 2.5899999
0.37400001 0.49900001 2.6159999
0.40700001 0.52100003 2.733
0.44600001 0.54799998 2.875
0.472 0.55900002 2.931
0.47999999 0.55000001 2.8789999
0.50300002 0.55599999 2.9089999
0.52200001 0.55900002 2.9200001
0.54500002 0.565 2.951
0.565 0.56800002 2.961
0.58700001 0.57200003 2.9820001
0.60699999 0.57499999 2.993
0.62699997 0.57700002 3.0009999
0.65100002 0.58200002 3.026
0.66900003 0.583 3.0250001
0.69 0.58600003 3.036
0.70999998 0.58700001 3.04
0.73299998 0.59200001 3.059
0.74800003 0.58899999 3.0409999
0.77399999 0.59500003 3.0699999
0.796 0.59899998 3.082
0.81 0.59500003 3.0599999
0.82999998 0.597 3.0639999
0.847 0.59600002 3.056
0.87099999 0.59899998 3.0699999
0.88700002 0.59799999 3.059
0.90799999 0.60000002 3.063
0.92400002 0.59899998 3.0510001
0.95700002 0.60799998 3.092
0.97500002 0.60799998 3.0880001
0.99299997 0.60699999 3.079
1.008 0.60500002 3.0639999
1.036 0.611 3.0880001
1.0549999 0.611 3.082
1.074 0.611 3.0769999
1.089 0.60900003 3.062
1.114 0.61299998 3.075
1.15 0.62199998 3.1140001
1.165 0.62 3.0969999
1.182 0.61900002 3.0869999
1.2029999 0.62 3.086
1.223 0.62099999 3.0829999
1.252 0.62599999 3.0999999
1.272 0.62599999 3.095
1.273 0.61799997 3.046
1.309 0.62599999 3.0799999
1.329 0.62599999 3.075
1.354 0.62900001 3.0799999
1.3789999 0.63200003 3.086
1.402 0.63300002 3.086
1.432 0.63800001 3.1010001
1.457 0.64099997 3.1059999
1.461 0.634 3.0639999
1.494 0.63999999 3.086
1.518 0.64200002 3.086
1.549 0.64600003 3.0999999
1.558 0.64200002 3.0710001
1.587 0.64600003 3.082
1.596 0.64200002 3.0510001
1.642 0.65200001 3.0929999
1.676 0.65799999 3.1099999
1.715 0.66500002 3.1359999
1.737 0.66600001 3.1289999
1.774 0.67199999 3.1489999
1.848 0.69199997 3.233
-1.559 0.60399997 2.73
-1.5369999 0.602 2.73
-1.524 0.60399997 2.7479999
-1.49 0.597 2.727
-1.466 0.59500003 2.723
-1.432 0.588 2.7
-1.418 0.58899999 2.7149999
-1.38 0.58099997 2.684
-1.3710001 0.58399999 2.7060001
-1.34 0.57800001 2.687
-1.3329999 0.583 2.714
-1.306 0.579 2.7019999
-1.279 0.574 2.687
-1.283 0.58399999 2.74
-1.245 0.574 2.7030001
-1.242 0.58099997 2.74
-1.226 0.58099997 2.7490001
-1.2079999 0.58099997 2.7550001
-1.189 0.57999998 2.756
-1.171 0.57999998 2.7620001
-1.1670001 0.58600003 2.8
-1.137 0.579 2.7739999
-1.128 0.58399999 2.8010001
-1.101 0.579 2.7839999
-1.0880001 0.58099997 2.8
-1.069 0.57999998 2.8010001
-1.056 0.58200002 2.8169999
-1.045 0.58600003 2.8399999
-1.013 0.57800001 2.806
-0.99299997 0.57599998 2.803
-0.98299998 0.57999998 2.8269999
-0.95899999 0.57599998 2.813
-0.94499999 0.57700002 2.8269999
-0.92199999 0.574 2.8150001
-0.90799999 0.57599998 2.8299999
-0.88 0.56900001 2.8
-0.87099999 0.574 2.8299999
-0.84799999 0.56999999 2.8150001
-0.82999998 0.56999999 2.816
-0.815 0.56999999 2.8239999
-0.801 0.57200003 2.839
-0.78399998 0.57300001 2.845
-0.76800001 0.57300001 2.8529999
-0.74800003 0.57099998 2.8429999
-0.72799999 0.56800002 2.836
-0.71399999 0.57099998 2.8510001
-0.69 0.565 2.826
-0.67299998 0.565 2.829
-0.653 0.56199998 2.819
-0.63700002 0.56199998 2.822
-0.62 0.56199998 2.8269999
-0.60100001 0.56 2.816
-0.58700001 0.56300002 2.8340001
-0.565 0.55800003 2.812
-0.54799998 0.55699998 2.8110001
-0.528 0.55299997 2.7969999
-0.51200002 0.55400002 2.8
-0.49399999 0.551 2.79
-0.47600001 0.54900002 2.7839999
-0.45899999 0.54900002 2.7839999
-0.44299999 0.54900002 2.7869999
-0.42899999 0.55199999 2.802
-0.41 0.54799998 2.786
-0.39399999 0.54799998 2.7909999
-0.37599999 0.546 2.779
-0.361 0.54799998 2.793
-0.345 0.54900002 2.7969999
-0.329 0.54900002 2.8010001
-0.31400001 0.55000001 2.8099999
-0.296 0.54799998 2.7969999
-0.28 0.54799998 2.802
-0.26300001 0.54699999 2.799
-0.24699999 0.546 2.7950001
-0.23100001 0.54699999 2.8010001
-0.215 0.54799998 2.803
-0.199 0.54900002 2.8099999
