# .PCD v0.7 - Point Cloud Data file format
VERSION 0.7
FIELDS x y z
SIZE 4 4 4
TYPE F F F
COUNT 1 1 1
WIDTH 1792
HEIGHT 1
VIEWPOINT 0 0 0 1 0 0 0
POINTS 1792
DATA ascii
0.829 0.69700003 1.9450001
0.84299999 0.69800001 1.943
0.85500002 0.69700003 1.937
0.86699998 0.69700003 1.931
0.88200003 0.699 1.933
0.88999999 0.69599998 1.919
0.90499997 0.69800001 1.918
0.91900003 0.699 1.9170001
0.93400002 0.69999999 1.916
0.94800001 0.70200002 1.914
0.954 0.69700003 1.897
0.97100002 0.70099998 1.9
0.98100001 0.699 1.89
0.99599999 0.69999999 1.888
1.008 0.69999999 1.883
1.025 0.70300001 1.885
1.0369999 0.70300001 1.8789999
1.05 0.70300001 1.873
1.069 0.70700002 1.8789999
1.0779999 0.70499998 1.8660001
1.095 0.708 1.869
1.099 0.70200002 1.847
-1.052 0.685 1.766
-1.035 0.68199998 1.7640001
-1.027 0.685 1.777
-1.015 0.68400002 1.7819999
-0.99900001 0.68199998 1.781
-0.99000001 0.68400002 1.7920001
-0.97799999 0.68400002 1.7970001
-0.96399999 0.68300003 1.799
-0.95300001 0.68400002 1.807
-0.93800002 0.68099999 1.8049999
-0.92699999 0.68199998 1.813
-0.91799998 0.68400002 1.824
-0.903 0.68199998 1.823
-0.88599998 0.67799997 1.817
-0.87699997 0.68000001 1.8279999
-0.86400002 0.68000001 1.832
-0.85299999 0.68099999 1.839
-0.83999997 0.68000001 1.841
-0.82599998 0.67799997 1.841
-0.81300002 0.67699999 1.842
-0.80000001 0.676 1.844
-0.79100001 0.67799997 1.855
-0.778 0.67799997 1.858
-0.764 0.676 1.857
-0.755 0.67799997 1.868
-0.74400002 0.67900002 1.874
-0.727 0.67500001 1.8660001
-0.71899998 0.67799997 1.88
-0.70599997 0.67699999 1.881
-0.69300002 0.676 1.881
-0.68199998 0.67699999 1.8890001
-0.67000002 0.67699999 1.892
-0.65700001 0.676 1.892
-0.64499998 0.67500001 1.8940001
-0.634 0.676 1.901
-0.62099999 0.676 1.903
-0.611 0.67699999 1.91
-0.60000002 0.67799997 1.916
-0.58700001 0.67699999 1.916
-0.57499999 0.67699999 1.92
-0.56099999 0.67500001 1.916
-0.55000001 0.67500001 1.921
-0.53799999 0.67500001 1.924
-0.528 0.67799997 1.9349999
-0.514 0.676 1.931
-0.50300002 0.676 1.9349999
-0.491 0.676 1.938
-0.47799999 0.67500001 1.937
-0.46700001 0.676 1.941
-0.456 0.67699999 1.948
-0.44499999 0.67799997 1.954
-0.43099999 0.676 1.95
-0.41999999 0.676 1.9529999
-0.40700001 0.67500001 1.952
-0.396 0.676 1.957
-0.38499999 0.67799997 1.964
-0.37200001 0.676 1.96
-0.361 0.67699999 1.965
-0.34900001 0.67799997 1.97
-0.336 0.67500001 1.965
-0.32499999 0.67699999 1.97
-0.31400001 0.67900002 1.98
-0.30199999 0.68000001 1.982
-0.28999999 0.67799997 1.978
-0.278 0.67900002 1.983
-0.26699999 0.68000001 1.987
-0.25400001 0.67900002 1.9859999
-0.243 0.68000001 1.9910001
-0.23100001 0.68000001 1.993
-0.219 0.68000001 1.994
-0.208 0.68400002 2.007
-0.19599999 0.68199998 2.003
-0.184 0.68300003 2.0050001
-0.171 0.68099999 2
-0.16 0.68199998 2.0050001
-0.148 0.68199998 2.006
-0.13600001 0.68199998 2.007
-0.124 0.68300003 2.0090001
-0.112 0.68300003 2.0109999
-0.1 0.68599999 2.0190001
-0.088 0.68599999 2.0190001
-0.075999998 0.68599999 2.0190001
-0.064000003 0.68699998 2.023
-0.052000001 0.68599999 2.0220001
-0.039999999 0.68599999 2.023
-0.028000001 0.68599999 2.0209999
-0.016000001 0.68599999 2.0220001
-0.0040000002 0.68599999 2.023
0.0070000002 0.68599999 2.023
0.018999999 0.68599999 2.023
0.030999999 0.68699998 2.0250001
0.044 0.68800002 2.0280001
0.056000002 0.68900001 2.03
0.068000004 0.68699998 2.026
0.079999998 0.68800002 2.026
0.092 0.69 2.0320001
0.104 0.69099998 2.0339999
0.116 0.69 2.03
0.12899999 0.69 2.0309999
0.141 0.69099998 2.033
0.153 0.69 2.0309999
0.16500001 0.69199997 2.033
0.178 0.69199997 2.0350001
0.189 0.69 2.026
0.20200001 0.69199997 2.0320001
0.214 0.69099998 2.0280001
0.226 0.69300002 2.033
0.23800001 0.69099998 2.0239999
0.25099999 0.69300002 2.0280001
0.26300001 0.69300002 2.029
0.27599999 0.69400001 2.0309999
0.287 0.69400001 2.027
0.29899999 0.69300002 2.0239999
0.31200001 0.69400001 2.026
0.32499999 0.69499999 2.026
0.33700001 0.69499999 2.0250001
0.34799999 0.69400001 2.0190001
0.361 0.69400001 2.017
0.373 0.69499999 2.017
0.38600001 0.69599998 2.0190001
0.39899999 0.69800001 2.0220001
0.41 0.69599998 2.0139999
0.42199999 0.69400001 2.0079999
0.43399999 0.69499999 2.007
0.447 0.69599998 2.0079999
0.45899999 0.69599998 2.0050001
0.47 0.69300002 1.9960001
0.484 0.69599998 2.0009999
0.495 0.69499999 1.994
0.50700003 0.69400001 1.9910001
0.51999998 0.69499999 1.989
0.53200001 0.69499999 1.987
0.54500002 0.69599998 1.987
0.55699998 0.69599998 1.984
0.56900001 0.69599998 1.979
0.58200002 0.69599998 1.978
0.59399998 0.69599998 1.974
0.60699999 0.69700003 1.974
0.61799997 0.69599998 1.9680001
0.63099998 0.69599998 1.965
0.64300001 0.69700003 1.962
0.65600002 0.69700003 1.961
0.66799998 0.69700003 1.955
0.68199998 0.69800001 1.957
0.69300002 0.69700003 1.95
0.70599997 0.69800001 1.948
0.71700001 0.69700003 1.942
0.73100001 0.699 1.942
0.745 0.69999999 1.942
0.75700003 0.69999999 1.936
0.76700002 0.69800001 1.928
0.77999997 0.699 1.925
0.79400003 0.69999999 1.924
0.80900002 0.70300001 1.927
0.82099998 0.70200002 1.921
0.83099997 0.69999999 1.9119999
0.84600002 0.70200002 1.9119999
0.85799998 0.70300001 1.908
0.87 0.70200002 1.903
0.88200003 0.70200002 1.896
0.89399999 0.70200002 1.891
0.90799999 0.70300001 1.89
0.92000002 0.70300001 1.8839999
0.93400002 0.704 1.883
0.94700003 0.704 1.877
0.95700002 0.70300001 1.868
0.972 0.70499998 1.868
0.98400003 0.704 1.862
0.99699998 0.70499998 1.858
1.013 0.708 1.86
1.027 0.708 1.855
1.038 0.70700002 1.847
1.045 0.704 1.8329999
1.067 0.70999998 1.8430001
1.071 0.70499998 1.824
1.0829999 0.704 1.816
-1.038 0.68800002 1.739
-1.027 0.68900001 1.747
-1.012 0.68699998 1.747
-1.003 0.68800002 1.757
-0.986 0.685 1.753
-0.977 0.68699998 1.7640001
-0.96499997 0.68699998 1.7690001
-0.95200002 0.68599999 1.772
-0.935 0.68300003 1.7690001
-0.92699999 0.685 1.78
-0.91500002 0.685 1.785
-0.90200001 0.68400002 1.788
-0.89300001 0.68699998 1.8
-0.884 0.68900001 1.8099999
-0.86699998 0.685 1.804
-0.85399997 0.68400002 1.807
-0.84200001 0.68400002 1.811
-0.829 0.68199998 1.812
-0.81400001 0.68000001 1.811
-0.80500001 0.68199998 1.821
-0.79000002 0.67900002 1.817
-0.78100002 0.68199998 1.829
-0.76800001 0.68099999 1.83
-0.75800002 0.68199998 1.8380001
-0.74299997 0.67900002 1.834
-0.73500001 0.68199998 1.847
-0.72000003 0.68000001 1.844
-0.71100003 0.68300003 1.8559999
-0.69700003 0.68000001 1.853
-0.68599999 0.68099999 1.859
-0.67400002 0.68099999 1.8609999
-0.662 0.68099999 1.8660001
-0.64899999 0.67900002 1.865
-0.63800001 0.68000001 1.872
-0.62699997 0.68099999 1.877
-0.61400002 0.68000001 1.876
-0.60399997 0.68099999 1.885
-0.59100002 0.68000001 1.8839999
-0.57999998 0.68099999 1.89
-0.56699997 0.68000001 1.891
-0.55599999 0.68000001 1.893
-0.546 0.68300003 1.905
-0.53299999 0.68099999 1.903
-0.52200001 0.68099999 1.9069999
-0.50800002 0.68000001 1.904
-0.498 0.68199998 1.914
-0.48500001 0.68000001 1.9119999
-0.47499999 0.68199998 1.919
-0.46200001 0.68000001 1.915
-0.45100001 0.68199998 1.924
-0.44 0.68199998 1.927
-0.428 0.68300003 1.932
-0.41499999 0.68099999 1.929
-0.403 0.68099999 1.9299999
-0.39199999 0.68099999 1.933
-0.37900001 0.68000001 1.931
-0.36899999 0.68199998 1.939
-0.35600001 0.68099999 1.938
-0.345 0.68199998 1.943
-0.333 0.68199998 1.9450001
-0.322 0.68199998 1.948
-0.31 0.68199998 1.95
-0.29899999 0.68300003 1.955
-0.287 0.68400002 1.9579999
-0.27500001 0.68400002 1.959
-0.26300001 0.68300003 1.96
-0.252 0.68400002 1.964
-0.23999999 0.685 1.9680001
-0.228 0.685 1.9680001
-0.21600001 0.68199998 1.962
-0.205 0.685 1.971
-0.193 0.68400002 1.9680001
-0.18099999 0.685 1.971
-0.169 0.68400002 1.971
-0.15800001 0.68599999 1.978
-0.146 0.685 1.977
-0.134 0.68699998 1.9809999
-0.122 0.68699998 1.982
-0.111 0.68800002 1.987
-0.098999999 0.69 1.9910001
-0.086999997 0.68900001 1.989
-0.075000003 0.69099998 1.995
-0.063000001 0.68800002 1.988
-0.050999999 0.69099998 1.9960001
-0.039999999 0.69099998 1.9960001
-0.028000001 0.69099998 1.998
-0.016000001 0.69199997 2
-0.0040000002 0.69199997 2
0.0070000002 0.69300002 2.003
0.018999999 0.69300002 2.003
0.030999999 0.69199997 2
0.043000001 0.69300002 2.0020001
0.055 0.69300002 2.003
0.067000002 0.69099998 1.9960001
0.079000004 0.69400001 2.0039999
0.090999998 0.69199997 1.999
0.103 0.69300002 2.0020001
0.115 0.69400001 2.0050001
0.127 0.69300002 2
0.139 0.69499999 2.006
0.15099999 0.69300002 2
0.163 0.69300002 1.997
0.175 0.69499999 2.0039999
0.18700001 0.69499999 2.003
0.2 0.69700003 2.007
0.211 0.69499999 2.0009999
0.22400001 0.69700003 2.003
0.236 0.69700003 2.003
0.248 0.69700003 2.003
0.25999999 0.69800001 2.0020001
0.27200001 0.69700003 1.998
0.28400001 0.69700003 1.998
0.296 0.69800001 1.998
0.308 0.69800001 1.997
0.31999999 0.69800001 1.9960001
0.333 0.69800001 1.995
0.345 0.699 1.994
0.35800001 0.70099998 1.998
0.37 0.69999999 1.995
0.38100001 0.699 1.9910001
0.39300001 0.699 1.987
0.405 0.699 1.9859999
0.417 0.69800001 1.9809999
0.43000001 0.699 1.9809999
0.442 0.69999999 1.982
0.45300001 0.699 1.974
0.46599999 0.699 1.974
0.479 0.70099998 1.975
0.49000001 0.69999999 1.971
0.50199997 0.69999999 1.967
0.514 0.69999999 1.964
0.52600002 0.69999999 1.962
0.537 0.69800001 1.954
0.55199999 0.70099998 1.96
0.56300002 0.69999999 1.9529999
0.574 0.699 1.949
0.58700001 0.69999999 1.948
0.60000002 0.70099998 1.946
0.61199999 0.70099998 1.943
0.62400001 0.70099998 1.941
0.63499999 0.69999999 1.934
0.64899999 0.70200002 1.936
0.66100001 0.70200002 1.933
0.67299998 0.70200002 1.929
0.68599999 0.70200002 1.925
0.699 0.70300001 1.925
0.71100003 0.704 1.9220001
0.72299999 0.70300001 1.916
0.736 0.704 1.914
0.74800003 0.704 1.91
0.76099998 0.70499998 1.909
0.77399999 0.70499998 1.906
0.78500003 0.70499998 1.9
0.79900002 0.70599997 1.899
0.81 0.70499998 1.892
0.824 0.70599997 1.891
0.83700001 0.70700002 1.888
0.84799999 0.70599997 1.882
0.86299998 0.708 1.882
0.875 0.70899999 1.878
0.88499999 0.70599997 1.867
0.89700001 0.70700002 1.863
0.912 0.70899999 1.863
0.92000002 0.70599997 1.85
0.93400002 0.70700002 1.847
0.94599998 0.70700002 1.842
0.96200001 0.70999998 1.846
0.97399998 0.70899999 1.839
0.98400003 0.708 1.829
0.99599999 0.708 1.824
1.012 0.70999998 1.824
1.031 0.71499997 1.831
1.035 0.70899999 1.8099999
1.0470001 0.70899999 1.804
1.0549999 0.70599997 1.7920001
1.064 0.704 1.781
-1.033 0.69599998 1.726
-1.015 0.69199997 1.721
-1 0.69099998 1.723
-0.98699999 0.68900001 1.724
-0.97799999 0.69099998 1.735
-0.96700001 0.69199997 1.742
-0.95200002 0.69 1.742
-0.93900001 0.68800002 1.744
-0.93000001 0.69099998 1.756
-0.91600001 0.68900001 1.755
-0.90600002 0.69 1.763
-0.89099997 0.68800002 1.762
-0.87699997 0.685 1.762
-0.86900002 0.68900001 1.775
-0.861 0.69099998 1.786
-0.84500003 0.68800002 1.783
-0.83499998 0.68900001 1.791
-0.82099998 0.68800002 1.791
-0.80900002 0.68699998 1.795
-0.79799998 0.68800002 1.801
-0.78299999 0.685 1.798
-0.77100003 0.68400002 1.8
-0.76099998 0.68599999 1.809
-0.75099999 0.68800002 1.817
-0.736 0.68400002 1.813
-0.72500002 0.685 1.818
-0.71399999 0.68599999 1.825
-0.70300001 0.68699998 1.831
-0.69099998 0.68599999 1.834
-0.67900002 0.68599999 1.837
-0.66799998 0.68599999 1.84
-0.65200001 0.68199998 1.8329999
-0.64200002 0.68400002 1.842
-0.63200003 0.685 1.85
-0.62099999 0.68599999 1.855
-0.60799998 0.68400002 1.853
-0.59799999 0.68599999 1.863
-0.58499998 0.685 1.862
-0.57499999 0.68699998 1.87
-0.56300002 0.68599999 1.8710001
-0.55000001 0.685 1.87
-0.53899997 0.685 1.874
-0.52700001 0.685 1.877
-0.51599997 0.68599999 1.882
-0.505 0.68699998 1.888
-0.49200001 0.685 1.885
-0.48100001 0.685 1.8890001
-0.46900001 0.68599999 1.893
-0.45699999 0.68400002 1.891
-0.447 0.68699998 1.902
-0.43399999 0.685 1.898
-0.42300001 0.68599999 1.902
-0.41100001 0.685 1.904
-0.398 0.68300003 1.9
-0.38800001 0.685 1.908
-0.37599999 0.68599999 1.9119999
-0.36500001 0.68599999 1.914
-0.35299999 0.685 1.915
-0.34099999 0.685 1.914
-0.331 0.68800002 1.925
-0.31799999 0.685 1.918
-0.30599999 0.685 1.921
-0.294 0.685 1.921
-0.28200001 0.68300003 1.919
-0.271 0.685 1.925
-0.25999999 0.68699998 1.931
-0.249 0.68900001 1.938
-0.237 0.68699998 1.936
-0.226 0.68800002 1.9400001
-0.214 0.68900001 1.9450001
-0.20200001 0.68800002 1.942
-0.191 0.68800002 1.943
-0.17900001 0.69 1.949
-0.168 0.69 1.951
-0.156 0.68900001 1.949
-0.145 0.69099998 1.956
-0.133 0.69099998 1.956
-0.121 0.69 1.952
-0.11 0.69199997 1.961
-0.097999997 0.69199997 1.962
-0.086000003 0.69099998 1.9579999
-0.074000001 0.69199997 1.961
-0.063000001 0.69300002 1.965
-0.050999999 0.69300002 1.966
-0.039000001 0.69400001 1.9680001
-0.027000001 0.69300002 1.967
-0.016000001 0.69599998 1.974
-0.0040000002 0.69599998 1.974
0.0070000002 0.69800001 1.979
0.018999999 0.69599998 1.975
0.030999999 0.69999999 1.985
0.043000001 0.699 1.9809999
0.055 0.699 1.983
0.066 0.699 1.983
0.078000002 0.69800001 1.979
0.090000004 0.69999999 1.985
0.102 0.70200002 1.99
0.114 0.69999999 1.983
0.126 0.70200002 1.989
0.13699999 0.699 1.977
0.15000001 0.70099998 1.984
0.161 0.69800001 1.976
0.17299999 0.69800001 1.973
0.185 0.699 1.974
0.197 0.69999999 1.977
0.20900001 0.699 1.974
0.221 0.69999999 1.975
0.23199999 0.699 1.97
0.245 0.69999999 1.973
0.257 0.70200002 1.976
0.26800001 0.69999999 1.971
0.28 0.69999999 1.9680001
0.29300001 0.70200002 1.973
0.30500001 0.70200002 1.969
0.31600001 0.70200002 1.9680001
0.32800001 0.70099998 1.964
0.34 0.69999999 1.96
0.352 0.70200002 1.9630001
0.36500001 0.70300001 1.965
0.37599999 0.70200002 1.961
0.38800001 0.70200002 1.959
0.40099999 0.70300001 1.959
0.412 0.70300001 1.955
0.426 0.70499998 1.959
0.43700001 0.704 1.954
0.449 0.704 1.9529999
0.46200001 0.70499998 1.9529999
0.47299999 0.704 1.947
0.484 0.70300001 1.942
0.49599999 0.70200002 1.937
0.50800002 0.70300001 1.937
0.52100003 0.70499998 1.939
0.53200001 0.704 1.932
0.54500002 0.70499998 1.933
0.55699998 0.70499998 1.9299999
0.56800002 0.704 1.923
0.58099997 0.70499998 1.924
0.59200001 0.704 1.918
0.60399997 0.704 1.916
0.616 0.704 1.9119999
0.62699997 0.70300001 1.905
0.64099997 0.70499998 1.908
0.65200001 0.704 1.901
0.66500002 0.70599997 1.902
0.67900002 0.708 1.903
0.69 0.70700002 1.897
0.70099998 0.70599997 1.891
0.71499997 0.708 1.893
0.727 0.70700002 1.887
0.73900002 0.708 1.885
0.75099999 0.708 1.88
0.764 0.708 1.877
0.77499998 0.708 1.872
0.79000002 0.70999998 1.873
0.80199999 0.70999998 1.868
0.81300002 0.70999998 1.863
0.82499999 0.70899999 1.858
0.838 0.70999998 1.855
0.85000002 0.70999998 1.85
0.86299998 0.71100003 1.848
0.875 0.71100003 1.8430001
0.88599998 0.70999998 1.836
0.89600003 0.708 1.826
0.912 0.71200001 1.83
0.92500001 0.71200001 1.826
0.93599999 0.71200001 1.8200001
0.949 0.71200001 1.816
0.963 0.713 1.814
0.97500002 0.71399999 1.809
0.98500001 0.71200001 1.8
1.002 0.71499997 1.802
1.012 0.71399999 1.794
1.022 0.71200001 1.783
1.038 0.71600002 1.786
1.043 0.70999998 1.767
1.048 0.70599997 1.749
-1.015 0.69599998 1.692
-1.008 0.699 1.706
-0.99000001 0.69499999 1.701
-0.977 0.69400001 1.704
-0.96700001 0.69499999 1.712
-0.95599997 0.69499999 1.7180001
-0.94599998 0.69700003 1.727
-0.93300003 0.69499999 1.728
-0.91600001 0.69199997 1.725
-0.90899998 0.69499999 1.737
-0.89399999 0.69300002 1.737
-0.884 0.69400001 1.744
-0.87300003 0.69400001 1.751
-0.861 0.69400001 1.7539999
-0.84500003 0.69 1.749
-0.83399999 0.69099998 1.757
-0.82200003 0.69099998 1.76
-0.81 0.69 1.762
-0.79699999 0.68900001 1.7640001
-0.78500003 0.68800002 1.766
-0.77600002 0.69099998 1.778
-0.76300001 0.68900001 1.778
-0.75300002 0.69099998 1.7869999
-0.74000001 0.68900001 1.786
-0.73199999 0.69199997 1.798
-0.71600002 0.68800002 1.7920001
-0.708 0.69099998 1.8049999
-0.69199997 0.68699998 1.798
-0.68199998 0.68900001 1.806
-0.671 0.68900001 1.8099999
-0.66000003 0.69 1.816
-0.648 0.68900001 1.818
-0.634 0.68599999 1.814
-0.62599999 0.69 1.826
-0.61299998 0.68900001 1.827
-0.60299999 0.69 1.835
-0.59299999 0.69199997 1.8430001
-0.579 0.69 1.84
-0.565 0.68699998 1.835
-0.55599999 0.69 1.845
-0.546 0.69099998 1.852
-0.53200001 0.68800002 1.848
-0.52100003 0.68900001 1.853
-0.51099998 0.69 1.858
-0.49900001 0.69 1.862
-0.48699999 0.68900001 1.8609999
-0.477 0.69099998 1.869
-0.46399999 0.69 1.868
-0.45199999 0.68900001 1.868
-0.442 0.69099998 1.876
-0.42899999 0.68900001 1.874
-0.41800001 0.68900001 1.875
-0.40599999 0.68800002 1.876
-0.39399999 0.68800002 1.878
-0.38299999 0.68900001 1.881
-0.37200001 0.69 1.886
-0.36000001 0.68900001 1.887
-0.34900001 0.68900001 1.8890001
-0.33700001 0.68900001 1.891
-0.32699999 0.69199997 1.9
-0.315 0.69099998 1.9
-0.303 0.69099998 1.9
-0.292 0.69099998 1.904
-0.28 0.69099998 1.904
-0.26899999 0.69199997 1.909
-0.25799999 0.69199997 1.911
-0.24600001 0.69099998 1.909
-0.234 0.69099998 1.91
-0.22400001 0.69400001 1.92
-0.212 0.69300002 1.918
-0.2 0.69199997 1.916
-0.18799999 0.69199997 1.9170001
-0.177 0.69300002 1.921
-0.16599999 0.69300002 1.923
-0.154 0.69199997 1.921
-0.14300001 0.69300002 1.924
-0.131 0.69499999 1.929
-0.12 0.69499999 1.931
-0.108 0.69400001 1.928
-0.097000003 0.69700003 1.937
-0.085000001 0.69599998 1.936
-0.072999999 0.69400001 1.9299999
-0.061999999 0.69599998 1.936
-0.050000001 0.69700003 1.9400001
-0.039000001 0.69700003 1.938
-0.027000001 0.69800001 1.943
-0.015 0.69599998 1.938
-0.0040000002 0.69800001 1.943
0.0070000002 0.69999999 1.948
0.018999999 0.70099998 1.951
0.029999999 0.69999999 1.947
0.041999999 0.70099998 1.952
0.054000001 0.70300001 1.9579999
0.064999998 0.70200002 1.9529999
0.077 0.70200002 1.9529999
0.089000002 0.70200002 1.952
0.101 0.704 1.9579999
0.113 0.70599997 1.9630001
0.124 0.704 1.957
0.13600001 0.70499998 1.96
0.148 0.70499998 1.9579999
0.16 0.70499998 1.957
0.171 0.70300001 1.952
0.182 0.70200002 1.946
0.19400001 0.70200002 1.9450001
0.206 0.70300001 1.946
0.219 0.70499998 1.952
0.23 0.704 1.947
0.241 0.70300001 1.943
0.25400001 0.70499998 1.948
0.26499999 0.704 1.943
0.27700001 0.70499998 1.9450001
0.289 0.704 1.942
0.301 0.70499998 1.942
0.31200001 0.704 1.938
0.32300001 0.70300001 1.932
0.336 0.704 1.934
0.34799999 0.70499998 1.936
0.36000001 0.70499998 1.932
0.37200001 0.70599997 1.933
0.38499999 0.708 1.937
0.39500001 0.70599997 1.929
0.40700001 0.70599997 1.927
0.41999999 0.70700002 1.929
0.43200001 0.70700002 1.926
0.44299999 0.70700002 1.924
0.45500001 0.70700002 1.921
0.46799999 0.708 1.9220001
0.47799999 0.70700002 1.915
0.49200001 0.70999998 1.921
0.50199997 0.70700002 1.91
0.514 0.708 1.909
0.52499998 0.70599997 1.903
0.53799999 0.70700002 1.902
0.551 0.70899999 1.905
0.56099999 0.70700002 1.896
0.57300001 0.70700002 1.8940001
0.58499998 0.70700002 1.891
0.597 0.70700002 1.887
0.60900003 0.708 1.885
0.62099999 0.708 1.882
0.63200003 0.70700002 1.876
0.64499998 0.70899999 1.877
0.65700001 0.70899999 1.874
0.66799998 0.708 1.867
0.68199998 0.70999998 1.87
0.69300002 0.70999998 1.865
0.704 0.708 1.857
0.71499997 0.708 1.852
0.73100001 0.71200001 1.859
0.74299997 0.71200001 1.855
0.75400001 0.71100003 1.849
0.76700002 0.71200001 1.847
0.78100002 0.71399999 1.848
0.792 0.713 1.842
0.80400002 0.713 1.837
0.81599998 0.713 1.8329999
0.82700002 0.71200001 1.826
0.838 0.71200001 1.8200001
0.85000002 0.71200001 1.816
0.86500001 0.71399999 1.817
0.87699997 0.71499997 1.813
0.889 0.71499997 1.808
0.90200001 0.71600002 1.806
0.91500002 0.71600002 1.802
0.926 0.71600002 1.796
0.93900001 0.71600002 1.7920001
0.94700003 0.71399999 1.78
0.95899999 0.71399999 1.774
0.97299999 0.71600002 1.774
0.98900002 0.71799999 1.775
1.001 0.71799999 1.77
1.015 0.72000003 1.7690001
1.02 0.71499997 1.75
1.031 0.71399999 1.743
1.035 0.70899999 1.725
-1.007 0.70200002 1.675
-0.99400002 0.70099998 1.678
-0.97799999 0.69800001 1.676
-0.972 0.70200002 1.6900001
-0.96200001 0.70300001 1.699
-0.94800001 0.70099998 1.699
-0.93400002 0.69999999 1.701
-0.921 0.69800001 1.7029999
-0.91000003 0.69800001 1.7079999
-0.89999998 0.699 1.716
-0.88800001 0.699 1.721
-0.87400001 0.69700003 1.72
-0.86500001 0.699 1.73
-0.852 0.69800001 1.733
-0.83600003 0.69400001 1.727
-0.82599998 0.69599998 1.735
-0.815 0.69599998 1.74
-0.79900002 0.69199997 1.735
-0.78600001 0.69099998 1.7359999
-0.77700001 0.69300002 1.7460001
-0.76800001 0.69400001 1.7539999
-0.75400001 0.69300002 1.7539999
-0.74000001 0.69 1.75
-0.73199999 0.69300002 1.7640001
-0.71899998 0.69199997 1.7640001
-0.71100003 0.69499999 1.775
-0.699 0.69499999 1.779
-0.68599999 0.69300002 1.779
-0.67799997 0.69599998 1.791
-0.66399997 0.69300002 1.7869999
-0.65399998 0.69400001 1.794
-0.64200002 0.69499999 1.798
-0.63 0.69400001 1.8
-0.61799997 0.69300002 1.8
-0.60799998 0.69499999 1.808
-0.597 0.69499999 1.812
-0.58399999 0.69300002 1.812
-0.57300001 0.69300002 1.814
-0.56199998 0.69400001 1.819
-0.55000001 0.69300002 1.8200001
-0.53799999 0.69300002 1.823
-0.52700001 0.69300002 1.827
-0.51700002 0.69400001 1.8329999
-0.505 0.69400001 1.8329999
-0.493 0.69400001 1.836
-0.48199999 0.69300002 1.8380001
-0.47 0.69199997 1.8380001
-0.458 0.69099998 1.8380001
-0.44800001 0.69400001 1.848
-0.435 0.69099998 1.8430001
-0.42500001 0.69400001 1.853
-0.41299999 0.69300002 1.852
-0.40099999 0.69099998 1.849
-0.391 0.69400001 1.859
-0.37799999 0.69 1.851
-0.368 0.69400001 1.863
-0.35600001 0.69199997 1.858
-0.345 0.69199997 1.862
-0.33199999 0.69099998 1.86
-0.322 0.69300002 1.867
-0.31200001 0.69499999 1.874
-0.30000001 0.69400001 1.875
-0.28799999 0.69300002 1.874
-0.278 0.69499999 1.88
-0.266 0.69499999 1.88
-0.255 0.69499999 1.882
-0.244 0.69700003 1.8890001
-0.23199999 0.69599998 1.8890001
-0.22 0.69499999 1.887
-0.20900001 0.69599998 1.891
-0.198 0.69700003 1.893
-0.186 0.69499999 1.89
-0.175 0.69700003 1.897
-0.164 0.69700003 1.897
-0.153 0.69800001 1.9
-0.141 0.699 1.904
-0.13 0.699 1.906
-0.118 0.69800001 1.904
-0.107 0.69800001 1.904
-0.096000001 0.699 1.908
-0.083999999 0.699 1.909
-0.072999999 0.699 1.908
-0.061000001 0.70099998 1.914
-0.050000001 0.70200002 1.916
-0.037999999 0.70099998 1.915
-0.027000001 0.70099998 1.915
-0.015 0.70200002 1.918
-0.0040000002 0.704 1.9220001
0.0070000002 0.70300001 1.921
0.017999999 0.70200002 1.918
0.029999999 0.704 1.924
0.041000001 0.704 1.924
0.052999999 0.70499998 1.925
0.064999998 0.704 1.923
0.075999998 0.704 1.923
0.088 0.704 1.9220001
0.1 0.70700002 1.929
0.111 0.70700002 1.928
0.123 0.70700002 1.929
0.13500001 0.71100003 1.937
0.146 0.70899999 1.931
0.15800001 0.708 1.929
0.169 0.708 1.927
0.18000001 0.70499998 1.918
0.193 0.708 1.925
0.204 0.70599997 1.92
0.21600001 0.70700002 1.921
0.228 0.70899999 1.924
0.23899999 0.70700002 1.92
0.25 0.70700002 1.918
0.26300001 0.70899999 1.921
0.27399999 0.708 1.918
0.28600001 0.70899999 1.919
0.29699999 0.708 1.914
0.30899999 0.70899999 1.915
0.32100001 0.70899999 1.913
0.33199999 0.70899999 1.911
0.345 0.71100003 1.915
0.35600001 0.70999998 1.911
0.368 0.70999998 1.908
0.38 0.70999998 1.908
0.39300001 0.713 1.9119999
0.403 0.71100003 1.904
0.41499999 0.71100003 1.903
0.426 0.71100003 1.9
0.43799999 0.70999998 1.896
0.44999999 0.71200001 1.897
0.461 0.70999998 1.891
0.47299999 0.71100003 1.891
0.48500001 0.71200001 1.89
0.49700001 0.71100003 1.886
0.50800002 0.70999998 1.881
0.51999998 0.71200001 1.882
0.53100002 0.71100003 1.876
0.54500002 0.713 1.88
0.55599999 0.713 1.876
0.56599998 0.71100003 1.868
0.579 0.71200001 1.869
0.58999997 0.71100003 1.862
0.602 0.71200001 1.8609999
0.61400002 0.71200001 1.858
0.62699997 0.71399999 1.858
0.63700002 0.71200001 1.851
0.64899999 0.71200001 1.847
0.66100001 0.71200001 1.844
0.67400002 0.71399999 1.845
0.68699998 0.71499997 1.844
0.69700003 0.713 1.836
0.70999998 0.71499997 1.836
0.722 0.71499997 1.8329999
0.73299998 0.71399999 1.826
0.74699998 0.71700001 1.829
0.759 0.71600002 1.823
0.77100003 0.71700001 1.8200001
0.78200001 0.71600002 1.814
0.79299998 0.71499997 1.808
0.80800003 0.71799999 1.8099999
0.81900001 0.71799999 1.8049999
0.83099997 0.71799999 1.801
0.84399998 0.71899998 1.8
0.852 0.71600002 1.7869999
0.86199999 0.71399999 1.777
0.88 0.71899998 1.785
0.89099997 0.71899998 1.779
0.89999998 0.71700001 1.77
0.91299999 0.71799999 1.767
0.92799997 0.72000003 1.768
0.93599999 0.71700001 1.755
0.95300001 0.72100002 1.7589999
0.96399999 0.72100002 1.7539999
0.97799999 0.722 1.751
0.98900002 0.72100002 1.744
0.99900001 0.72000003 1.735
1.008 0.71899998 1.726
1.017 0.71700001 1.715
1.017 0.70899999 1.691
-0.99800003 0.708 1.656
-0.98500001 0.70599997 1.659
-0.97299999 0.70599997 1.663
-0.96399999 0.708 1.673
-0.949 0.70499998 1.671
-0.93699998 0.704 1.675
-0.92500001 0.704 1.681
-0.91299999 0.704 1.6849999
-0.90200001 0.704 1.691
-0.88999999 0.704 1.694
-0.87300003 0.699 1.687
-0.86199999 0.699 1.692
-0.85100001 0.69999999 1.699
-0.83999997 0.69999999 1.704
-0.82499999 0.69599998 1.7
-0.81800002 0.69999999 1.714
-0.80199999 0.69599998 1.709
-0.79400003 0.699 1.721
-0.78600001 0.70200002 1.7309999
-0.77100003 0.69800001 1.727
-0.75800002 0.69700003 1.729
-0.745 0.69599998 1.729
-0.73400003 0.69599998 1.734
-0.72299999 0.69599998 1.737
-0.70899999 0.69400001 1.7359999
-0.70099998 0.69599998 1.747
-0.69099998 0.69800001 1.7539999
-0.67799997 0.69599998 1.753
-0.66600001 0.69499999 1.756
-0.65600002 0.69599998 1.762
-0.64399999 0.69499999 1.762
-0.63300002 0.69599998 1.768
-0.62099999 0.69499999 1.7690001
-0.611 0.69700003 1.777
-0.602 0.699 1.785
-0.58999997 0.69800001 1.7869999
-0.579 0.699 1.791
-0.56699997 0.69700003 1.791
-0.55599999 0.69800001 1.796
-0.54400003 0.69700003 1.796
-0.53299999 0.69700003 1.8
-0.52100003 0.69700003 1.802
-0.50999999 0.69700003 1.806
-0.49900001 0.69700003 1.808
-0.48800001 0.69700003 1.812
-0.477 0.69800001 1.817
-0.465 0.69700003 1.8150001
-0.45300001 0.69599998 1.816
-0.44400001 0.699 1.8279999
-0.43099999 0.69599998 1.822
-0.421 0.699 1.832
-0.40799999 0.69499999 1.823
-0.398 0.69800001 1.8329999
-0.38600001 0.69599998 1.829
-0.37400001 0.69499999 1.83
-0.36399999 0.69800001 1.8380001
-0.352 0.69599998 1.835
-0.34099999 0.69599998 1.8380001
-0.33000001 0.69599998 1.841
-0.31900001 0.69700003 1.8430001
-0.30700001 0.69499999 1.841
-0.29699999 0.69800001 1.851
-0.285 0.69599998 1.848
-0.27399999 0.69700003 1.851
-0.26199999 0.69599998 1.85
-0.252 0.699 1.86
-0.23999999 0.69700003 1.8559999
-0.23 0.69999999 1.863
-0.21799999 0.69800001 1.8609999
-0.207 0.699 1.864
-0.19599999 0.69999999 1.867
-0.185 0.70200002 1.874
-0.17299999 0.69999999 1.8710001
-0.162 0.70099998 1.875
-0.15099999 0.70099998 1.875
-0.14 0.70200002 1.877
-0.12800001 0.70099998 1.877
-0.117 0.70300001 1.883
-0.106 0.70099998 1.878
-0.093999997 0.70099998 1.878
-0.082999997 0.704 1.886
-0.071999997 0.70300001 1.885
-0.061000001 0.70499998 1.89
-0.048999999 0.70599997 1.892
-0.037999999 0.70599997 1.892
-0.026000001 0.704 1.8890001
-0.015 0.70599997 1.893
-0.0040000002 0.70499998 1.892
0.0070000002 0.70599997 1.893
0.017999999 0.708 1.9
0.029999999 0.70899999 1.901
0.041000001 0.708 1.898
0.052000001 0.70599997 1.8940001
0.064000003 0.708 1.897
0.075000003 0.70999998 1.904
0.086999997 0.71100003 1.905
0.097999997 0.70999998 1.901
0.11 0.71100003 1.904
0.121 0.70999998 1.902
0.133 0.70999998 1.9
0.145 0.71200001 1.905
0.156 0.71200001 1.903
0.167 0.71100003 1.901
0.17900001 0.71100003 1.9
0.191 0.71200001 1.901
0.20200001 0.71200001 1.899
0.214 0.713 1.901
0.22499999 0.71200001 1.897
0.236 0.71100003 1.893
0.248 0.71200001 1.896
0.259 0.71100003 1.891
0.271 0.71100003 1.891
0.28299999 0.713 1.893
0.294 0.71200001 1.89
0.30500001 0.71200001 1.888
0.317 0.71200001 1.887
0.329 0.71200001 1.885
0.34 0.71200001 1.8839999
0.35299999 0.71499997 1.888
0.36399999 0.71399999 1.8839999
0.37599999 0.71399999 1.883
0.38699999 0.71499997 1.882
0.39899999 0.71499997 1.88
0.41 0.71399999 1.877
0.421 0.713 1.8710001
0.433 0.71399999 1.872
0.44499999 0.71499997 1.8710001
0.45699999 0.71499997 1.87
0.46799999 0.71499997 1.8660001
0.47999999 0.71499997 1.864
0.491 0.71399999 1.859
0.50199997 0.71399999 1.857
0.514 0.71499997 1.855
0.52499998 0.71399999 1.851
0.537 0.71499997 1.85
0.54900002 0.71499997 1.848
0.56 0.71499997 1.844
0.57300001 0.71600002 1.844
0.58399999 0.71600002 1.84
0.59600002 0.71600002 1.837
0.60600001 0.71499997 1.83
0.61799997 0.71499997 1.829
0.63 0.71600002 1.827
0.63999999 0.71399999 1.817
0.653 0.71600002 1.819
0.66600001 0.71700001 1.818
0.67699999 0.71600002 1.814
0.68900001 0.71700001 1.811
0.70200002 0.71799999 1.811
0.71100003 0.71600002 1.801
0.72299999 0.71700001 1.798
0.73699999 0.71799999 1.799
0.74900001 0.71899998 1.795
0.76200002 0.72000003 1.795
0.773 0.72000003 1.79
0.78399998 0.72000003 1.785
0.79799998 0.72100002 1.784
0.80800003 0.72000003 1.777
0.82200003 0.722 1.778
0.83099997 0.72000003 1.768
0.847 0.72299999 1.772
0.85500002 0.72000003 1.7589999
0.866 0.72000003 1.7539999
0.88 0.72100002 1.752
0.88999999 0.72100002 1.7460001
0.90399998 0.722 1.744
0.912 0.72000003 1.733
0.92699999 0.722 1.734
0.94199997 0.72500002 1.735
0.95300001 0.72399998 1.728
0.96499997 0.72399998 1.723
0.97600001 0.72399998 1.717
0.986 0.72299999 1.71
0.99299997 0.72000003 1.696
1.001 0.71700001 1.6849999
1.005 0.71100003 1.665
-0.991 0.71399999 1.64
-0.977 0.71200001 1.641
-0.96499997 0.71100003 1.645
-0.95099998 0.70999998 1.647
-0.94400001 0.71200001 1.658
-0.93099999 0.71100003 1.661
-0.91500002 0.708 1.659
-0.90700001 0.70999998 1.669
-0.89499998 0.70999998 1.6720001
-0.88 0.70700002 1.67
-0.86799997 0.70599997 1.674
-0.85500002 0.70499998 1.676
-0.84500003 0.70599997 1.683
-0.83099997 0.70300001 1.681
-0.81900001 0.70300001 1.684
-0.80599999 0.70099998 1.6849999
-0.79400003 0.69999999 1.687
-0.78299999 0.70099998 1.693
-0.77100003 0.69999999 1.694
-0.764 0.70300001 1.707
-0.75 0.70099998 1.705
-0.73900002 0.70099998 1.711
-0.72399998 0.69700003 1.706
-0.71600002 0.70099998 1.717
-0.70499998 0.69999999 1.721
-0.69400001 0.70099998 1.726
-0.68000001 0.69700003 1.721
-0.66900003 0.69800001 1.726
-0.66100001 0.70099998 1.737
-0.64600003 0.69700003 1.73
-0.63700002 0.699 1.74
-0.62400001 0.69700003 1.739
-0.61299998 0.69800001 1.743
-0.60299999 0.69800001 1.748
-0.59100002 0.69700003 1.749
-0.583 0.70099998 1.763
-0.57200003 0.70099998 1.766
-0.56 0.70099998 1.767
-0.54900002 0.69999999 1.7690001
-0.53899997 0.70200002 1.776
-0.528 0.70200002 1.779
-0.51700002 0.70200002 1.7819999
-0.50599998 0.70200002 1.786
-0.493 0.69999999 1.783
-0.48300001 0.70200002 1.79
-0.472 0.70099998 1.7920001
-0.461 0.70200002 1.796
-0.449 0.69999999 1.793
-0.43799999 0.70099998 1.798
-0.42699999 0.70200002 1.803
-0.41600001 0.70099998 1.803
-0.405 0.70099998 1.8049999
-0.39300001 0.70099998 1.807
-0.382 0.69999999 1.808
-0.37 0.69800001 1.8049999
-0.36000001 0.69999999 1.811
-0.34900001 0.70099998 1.8150001
-0.338 0.70099998 1.818
-0.32699999 0.70200002 1.823
-0.315 0.69999999 1.818
-0.30399999 0.69999999 1.821
-0.29300001 0.70099998 1.824
-0.28200001 0.69999999 1.824
-0.271 0.70200002 1.831
-0.25999999 0.70099998 1.8279999
-0.248 0.69999999 1.8279999
-0.23800001 0.70200002 1.836
-0.227 0.70300001 1.837
-0.21600001 0.70200002 1.837
-0.204 0.70200002 1.8380001
-0.19400001 0.704 1.8430001
-0.183 0.704 1.846
-0.171 0.704 1.846
-0.16 0.704 1.846
-0.149 0.70300001 1.846
-0.138 0.70499998 1.852
-0.127 0.70499998 1.852
-0.116 0.70499998 1.853
-0.105 0.70599997 1.8559999
-0.093000002 0.70599997 1.858
-0.082000002 0.70700002 1.86
-0.071000002 0.70599997 1.858
-0.059999999 0.70700002 1.862
-0.048999999 0.708 1.864
-0.037 0.708 1.865
-0.026000001 0.70999998 1.869
-0.015 0.70999998 1.87
-0.0040000002 0.70999998 1.869
0.0070000002 0.70999998 1.87
0.017999999 0.70899999 1.868
0.028999999 0.71100003 1.872
0.041000001 0.71200001 1.875
0.052000001 0.713 1.877
0.063000001 0.71200001 1.874
0.075000003 0.71399999 1.8789999
0.086000003 0.713 1.876
0.097000003 0.713 1.876
0.108 0.71200001 1.874
0.12 0.71200001 1.873
0.131 0.71399999 1.877
0.14300001 0.71499997 1.88
0.154 0.71600002 1.8789999
0.16599999 0.71600002 1.8789999
0.177 0.71499997 1.876
0.189 0.71899998 1.885
0.2 0.71700001 1.88
0.211 0.71499997 1.872
0.223 0.71600002 1.876
0.235 0.71799999 1.878
0.24600001 0.71700001 1.875
0.257 0.71600002 1.869
0.26899999 0.71799999 1.875
0.28 0.71700001 1.87
0.29100001 0.71700001 1.868
0.303 0.71799999 1.869
0.31299999 0.71499997 1.8609999
0.32499999 0.71700001 1.863
0.33700001 0.71700001 1.8609999
0.34799999 0.71799999 1.8609999
0.359 0.71600002 1.8559999
0.37200001 0.71799999 1.859
0.382 0.71700001 1.855
0.39399999 0.71799999 1.855
0.40700001 0.72000003 1.857
0.41800001 0.71899998 1.852
0.428 0.71799999 1.848
0.43900001 0.71700001 1.8430001
0.45199999 0.71899998 1.846
0.46200001 0.71700001 1.8380001
0.47400001 0.71799999 1.839
0.486 0.71799999 1.836
0.49599999 0.71600002 1.829
0.50800002 0.71700001 1.8279999
0.51899999 0.71799999 1.826
0.53100002 0.71899998 1.825
0.54400003 0.71899998 1.825
0.55500001 0.71899998 1.822
0.565 0.71799999 1.814
0.57700002 0.71799999 1.812
0.58999997 0.72000003 1.8150001
0.59899998 0.71700001 1.804
0.61000001 0.71700001 1.801
0.62300003 0.71899998 1.802
0.634 0.71799999 1.795
0.64600003 0.72000003 1.796
0.65600002 0.71799999 1.788
0.67000002 0.72000003 1.789
0.67900002 0.71799999 1.781
0.69400001 0.72100002 1.785
0.70300001 0.72000003 1.777
0.71700001 0.722 1.778
0.727 0.72000003 1.77
0.74199998 0.72399998 1.776
0.75099999 0.722 1.766
0.76300001 0.722 1.762
0.77600002 0.72399998 1.762
0.78899997 0.72500002 1.761
0.80000001 0.72399998 1.7539999
0.81099999 0.72399998 1.75
0.82300001 0.72399998 1.7460001
0.833 0.72299999 1.738
0.847 0.72500002 1.738
0.85399997 0.72100002 1.725
0.86699998 0.722 1.723
0.87699997 0.72100002 1.716
0.89200002 0.72399998 1.717
0.90700001 0.727 1.719
0.91500002 0.72500002 1.7079999
0.92799997 0.72600001 1.706
0.93800002 0.72500002 1.698
0.95099998 0.72600001 1.6950001
0.95899999 0.72299999 1.683
0.97000003 0.722 1.677
0.98100001 0.72299999 1.6720001
0.98900002 0.72000003 1.66
0.99699998 0.71700001 1.649
-0.97600001 0.71499997 1.612
-0.96600002 0.71499997 1.618
-0.95200002 0.713 1.62
-0.94199997 0.71399999 1.626
-0.93300003 0.71600002 1.636
-0.917 0.71200001 1.632
-0.90799999 0.71399999 1.641
-0.89499998 0.71200001 1.642
-0.87900001 0.708 1.6390001
-0.87400001 0.713 1.655
-0.85600001 0.708 1.647
-0.84500003 0.708 1.652
-0.833 0.70700002 1.655
-0.82200003 0.70700002 1.66
-0.81199998 0.708 1.666
-0.80199999 0.70899999 1.673
-0.79100001 0.70899999 1.676
-0.77899998 0.708 1.679
-0.76700002 0.70700002 1.682
-0.755 0.70700002 1.6849999
-0.74400002 0.70599997 1.689
-0.73000002 0.70300001 1.6849999
-0.72100002 0.70499998 1.694
-0.70700002 0.70300001 1.691
-0.69700003 0.70300001 1.697
-0.685 0.70300001 1.7
-0.67500001 0.704 1.705
-0.66299999 0.70300001 1.707
-0.64899999 0.699 1.702
-0.64300001 0.70499998 1.72
-0.63200003 0.70499998 1.723
-0.61900002 0.70300001 1.721
-0.60900003 0.70300001 1.726
-0.59799999 0.70300001 1.729
-0.58600003 0.70200002 1.729
-0.574 0.70200002 1.732
-0.56599998 0.70499998 1.743
-0.55299997 0.70200002 1.738
-0.542 0.70200002 1.742
-0.53299999 0.70499998 1.753
-0.51999998 0.70200002 1.748
-0.50800002 0.70099998 1.748
-0.49900001 0.704 1.7589999
-0.48800001 0.704 1.762
-0.47600001 0.70200002 1.7589999
-0.46599999 0.70300001 1.765
-0.45500001 0.704 1.7690001
-0.44400001 0.704 1.771
-0.435 0.70700002 1.7819999
-0.42199999 0.70499998 1.778
-0.41 0.70200002 1.775
-0.40099999 0.70499998 1.784
-0.38800001 0.70300001 1.78
-0.37799999 0.704 1.786
-0.36700001 0.704 1.7869999
-0.35499999 0.70300001 1.786
-0.345 0.704 1.79
-0.33500001 0.70599997 1.798
-0.324 0.70499998 1.798
-0.31099999 0.70300001 1.793
-0.30000001 0.70300001 1.795
-0.29100001 0.70700002 1.806
-0.28 0.70599997 1.806
-0.26800001 0.704 1.802
-0.257 0.70499998 1.806
-0.24699999 0.70700002 1.814
-0.235 0.70499998 1.808
-0.22499999 0.70700002 1.8150001
-0.213 0.704 1.811
-0.20200001 0.704 1.8099999
-0.191 0.70599997 1.817
-0.18099999 0.70899999 1.825
-0.169 0.70700002 1.8200001
-0.15899999 0.708 1.824
-0.147 0.70599997 1.821
-0.13600001 0.70599997 1.822
-0.125 0.70700002 1.824
-0.115 0.70899999 1.832
-0.104 0.70999998 1.834
-0.092 0.70899999 1.8329999
-0.081 0.70899999 1.831
-0.07 0.71100003 1.837
-0.059 0.71200001 1.84
-0.048 0.71200001 1.84
-0.037 0.713 1.844
-0.026000001 0.713 1.844
-0.015 0.71200001 1.842
-0.0040000002 0.71399999 1.847
0.0060000001 0.713 1.845
0.017999999 0.71399999 1.846
0.028999999 0.71399999 1.847
0.039999999 0.71499997 1.849
0.050999999 0.71600002 1.852
0.061999999 0.71499997 1.85
0.074000001 0.71799999 1.8559999
0.085000001 0.71600002 1.851
0.096000001 0.71700001 1.853
0.107 0.71700001 1.853
0.119 0.71700001 1.851
0.13 0.71700001 1.852
0.141 0.71700001 1.85
0.152 0.71799999 1.852
0.163 0.71600002 1.846
0.176 0.72100002 1.858
0.18700001 0.72100002 1.8559999
0.198 0.72100002 1.855
0.20900001 0.71899998 1.849
0.22 0.71899998 1.849
0.23199999 0.722 1.854
0.243 0.72100002 1.852
0.25400001 0.72000003 1.847
0.266 0.72299999 1.853
0.278 0.722 1.85
0.28799999 0.71899998 1.841
0.29899999 0.72000003 1.842
0.31099999 0.72100002 1.841
0.322 0.722 1.842
0.33199999 0.71899998 1.832
0.34299999 0.71899998 1.831
0.35600001 0.72100002 1.834
0.368 0.722 1.837
0.37900001 0.722 1.8329999
0.389 0.72000003 1.827
0.40200001 0.72299999 1.831
0.41100001 0.71899998 1.8200001
0.42399999 0.722 1.824
0.43399999 0.72000003 1.817
0.447 0.72299999 1.823
0.458 0.722 1.817
0.47 0.72299999 1.818
0.47999999 0.722 1.812
0.49200001 0.722 1.809
0.50300002 0.72299999 1.809
0.51499999 0.72399998 1.808
0.52499998 0.72100002 1.798
0.53600001 0.72100002 1.795
0.54699999 0.72000003 1.791
0.55900002 0.72100002 1.79
0.56999999 0.72100002 1.786
0.58200002 0.722 1.7869999
0.59299999 0.722 1.783
0.602 0.71899998 1.772
0.616 0.722 1.776
0.625 0.71899998 1.766
0.63800001 0.722 1.768
0.64899999 0.72100002 1.7640001
0.66000003 0.72100002 1.7589999
0.67199999 0.722 1.758
0.68300003 0.722 1.755
0.69499999 0.72299999 1.752
0.70899999 0.72500002 1.7539999
0.71899998 0.72399998 1.748
0.73100001 0.72500002 1.745
0.74199998 0.72399998 1.739
0.75599998 0.727 1.743
0.76599997 0.72500002 1.734
0.77999997 0.72799999 1.7359999
0.78799999 0.72500002 1.725
0.80199999 0.72799999 1.727
0.815 0.72899997 1.724
0.824 0.727 1.715
0.83499998 0.72600001 1.709
0.84500003 0.72600001 1.704
0.85600001 0.72500002 1.698
0.87099999 0.72799999 1.7
0.87900001 0.72500002 1.688
0.89099997 0.72600001 1.6849999
0.90700001 0.73000002 1.689
0.91799998 0.72899997 1.683
0.92900002 0.72899997 1.678
0.94 0.72899997 1.671
0.94999999 0.72799999 1.663
0.96799999 0.73299998 1.67
0.96899998 0.72500002 1.646
0.97500002 0.72100002 1.632
0.97799999 0.71499997 1.613
-0.97000003 0.72100002 1.597
-0.95700002 0.71899998 1.599
-0.94300002 0.71700001 1.599
-0.93000001 0.71600002 1.602
-0.91900003 0.71600002 1.607
-0.90799999 0.71600002 1.612
-0.89499998 0.71499997 1.614
-0.88499999 0.71499997 1.6210001
-0.87 0.71200001 1.619
-0.86199999 0.71399999 1.628
-0.85000002 0.713 1.631
-0.83600003 0.71100003 1.63
-0.82499999 0.71100003 1.6339999
-0.81599998 0.713 1.6440001
-0.80400002 0.71200001 1.646
-0.79500002 0.71399999 1.654
-0.78200001 0.71100003 1.653
-0.76899999 0.70999998 1.655
-0.75800002 0.70999998 1.658
-0.74599999 0.70899999 1.661
-0.73699999 0.71100003 1.669
-0.727 0.71200001 1.674
-0.71600002 0.71100003 1.678
-0.70200002 0.708 1.674
-0.69300002 0.70999998 1.683
-0.67799997 0.70599997 1.676
-0.67000002 0.70999998 1.689
-0.65700001 0.708 1.688
-0.64499998 0.70599997 1.688
-0.63499999 0.70700002 1.694
-0.62400001 0.70700002 1.697
-0.61400002 0.708 1.7029999
-0.60299999 0.708 1.706
-0.58899999 0.704 1.701
-0.58099997 0.70700002 1.711
-0.56900001 0.70599997 1.712
-0.56 0.708 1.72
-0.54799998 0.70700002 1.72
-0.537 0.70700002 1.722
-0.528 0.70899999 1.7309999
-0.51599997 0.70700002 1.73
-0.505 0.708 1.734
-0.49599999 0.70999998 1.743
-0.48300001 0.70700002 1.738
-0.472 0.708 1.742
-0.46200001 0.708 1.7460001
-0.45199999 0.70999998 1.753
-0.44 0.708 1.751
-0.42899999 0.70899999 1.7539999
-0.41800001 0.708 1.753
-0.40599999 0.70700002 1.7539999
-0.396 0.708 1.7589999
-0.38499999 0.70700002 1.7589999
-0.37400001 0.708 1.7640001
-0.36300001 0.708 1.766
-0.352 0.70700002 1.7640001
-0.34099999 0.70700002 1.766
-0.331 0.70899999 1.772
-0.31999999 0.708 1.774
-0.31 0.70999998 1.779
-0.29699999 0.70700002 1.773
-0.287 0.70700002 1.776
-0.27700001 0.70999998 1.786
-0.26499999 0.70700002 1.778
-0.25400001 0.70599997 1.778
-0.243 0.708 1.783
-0.23199999 0.70700002 1.783
-0.221 0.70700002 1.784
-0.211 0.70899999 1.789
-0.2 0.70899999 1.7920001
-0.189 0.70999998 1.795
-0.17900001 0.71100003 1.798
-0.168 0.70999998 1.796
-0.15700001 0.71100003 1.801
-0.146 0.71100003 1.801
-0.13500001 0.71100003 1.803
-0.124 0.71200001 1.806
-0.113 0.71200001 1.807
-0.102 0.713 1.809
-0.092 0.71399999 1.811
-0.079999998 0.713 1.8099999
-0.07 0.71399999 1.813
-0.059 0.71700001 1.821
-0.048 0.71499997 1.817
-0.037 0.71600002 1.819
-0.026000001 0.71799999 1.825
-0.015 0.71499997 1.818
-0.0040000002 0.71700001 1.822
0.0060000001 0.71600002 1.821
0.017000001 0.71600002 1.8200001
0.028999999 0.71899998 1.826
0.039999999 0.71899998 1.826
0.050999999 0.72000003 1.829
0.061999999 0.71899998 1.826
0.072999999 0.722 1.832
0.083999999 0.72100002 1.831
0.094999999 0.72100002 1.83
0.106 0.72100002 1.829
0.118 0.722 1.832
0.12899999 0.72100002 1.829
0.139 0.72000003 1.825
0.15099999 0.722 1.829
0.162 0.72100002 1.826
0.17299999 0.722 1.8279999
0.184 0.722 1.827
0.19599999 0.72500002 1.832
0.207 0.72299999 1.8279999
0.21799999 0.72399998 1.829
0.229 0.722 1.822
0.23999999 0.72399998 1.826
0.25099999 0.722 1.821
0.26300001 0.72500002 1.825
0.273 0.72299999 1.8200001
0.285 0.72299999 1.819
0.29499999 0.722 1.813
0.30700001 0.72299999 1.816
0.31799999 0.72399998 1.816
0.329 0.72299999 1.812
0.34099999 0.72399998 1.811
0.35100001 0.722 1.804
0.36300001 0.72500002 1.809
0.375 0.72600001 1.8099999
0.38699999 0.727 1.812
0.39700001 0.72500002 1.806
0.40799999 0.72600001 1.804
0.419 0.72500002 1.8
0.43099999 0.72600001 1.8
0.442 0.72600001 1.798
0.45300001 0.72500002 1.794
0.465 0.72600001 1.793
0.47499999 0.72500002 1.7869999
0.486 0.72399998 1.784
0.498 0.72600001 1.784
0.509 0.72600001 1.781
0.51999998 0.72500002 1.777
0.53100002 0.72500002 1.773
0.54100001 0.72399998 1.768
0.55199999 0.72399998 1.766
0.56400001 0.72399998 1.763
0.57800001 0.72799999 1.7690001
0.58600003 0.72399998 1.756
0.597 0.72399998 1.753
0.60900003 0.72500002 1.751
0.62199998 0.727 1.7539999
0.63 0.72399998 1.742
0.64300001 0.72500002 1.742
0.65399998 0.72600001 1.739
0.66500002 0.72600001 1.7359999
0.67400002 0.72299999 1.725
0.68900001 0.72799999 1.733
0.70099998 0.72799999 1.73
0.713 0.72899997 1.728
0.722 0.727 1.719
0.73199999 0.72600001 1.7130001
0.74900001 0.73199999 1.722
0.759 0.73000002 1.714
0.76999998 0.73000002 1.71
0.78100002 0.73000002 1.706
0.79100001 0.72899997 1.699
0.80299997 0.72899997 1.6950001
0.81400001 0.72899997 1.691
0.82800001 0.73100001 1.691
0.83600003 0.72899997 1.681
0.84799999 0.72899997 1.677
0.85699999 0.72799999 1.668
0.87199998 0.73100001 1.671
0.88 0.72799999 1.66
0.89300001 0.73000002 1.659
0.90399998 0.73000002 1.654
0.91799998 0.73199999 1.653
0.926 0.72899997 1.643
0.935 0.72799999 1.6339999
0.94199997 0.72399998 1.62
0.95200002 0.72399998 1.614
0.958 0.72000003 1.6
0.95300001 0.708 1.567
-0.95700002 0.722 1.572
-0.94800001 0.72399998 1.58
-0.94 0.72600001 1.591
-0.92299998 0.722 1.586
-0.91100001 0.72000003 1.5880001
-0.903 0.72299999 1.599
-0.88800001 0.72000003 1.597
-0.88 0.722 1.608
-0.86400002 0.71799999 1.602
-0.85500002 0.71899998 1.61
-0.83899999 0.71499997 1.605
-0.829 0.71600002 1.612
-0.81999999 0.71799999 1.6210001
-0.81 0.71799999 1.627
-0.80000001 0.71899998 1.632
-0.787 0.71700001 1.632
-0.77399999 0.71499997 1.632
-0.76300001 0.71600002 1.638
-0.75099999 0.71399999 1.6390001
-0.74000001 0.71399999 1.642
-0.72899997 0.71399999 1.647
-0.72100002 0.71600002 1.656
-0.70999998 0.71600002 1.659
-0.69800001 0.71499997 1.661
-0.68300003 0.71100003 1.655
-0.676 0.71499997 1.668
-0.662 0.71200001 1.664
-0.65100002 0.71100003 1.666
-0.639 0.70999998 1.668
-0.62800002 0.70999998 1.671
-0.61799997 0.71100003 1.676
-0.60600001 0.70999998 1.677
-0.597 0.71200001 1.6849999
-0.58399999 0.70899999 1.682
-0.57700002 0.713 1.6950001
-0.56400001 0.70999998 1.691
-0.55299997 0.71100003 1.6950001
-0.54500002 0.713 1.705
-0.53200001 0.71100003 1.702
-0.52100003 0.71100003 1.706
-0.50999999 0.71100003 1.7079999
-0.49900001 0.71100003 1.71
-0.48899999 0.71200001 1.716
-0.47799999 0.71100003 1.716
-0.46700001 0.71100003 1.7180001
-0.45500001 0.708 1.715
-0.44499999 0.70999998 1.722
-0.435 0.71100003 1.727
-0.42500001 0.71200001 1.7309999
-0.414 0.713 1.735
-0.40200001 0.70999998 1.7309999
-0.391 0.70899999 1.732
-0.38 0.70899999 1.732
-0.37 0.70999998 1.738
-0.359 0.71100003 1.7410001
-0.34799999 0.70999998 1.742
-0.338 0.71100003 1.745
-0.32699999 0.70999998 1.745
-0.315 0.70899999 1.745
-0.30500001 0.71100003 1.751
-0.29499999 0.71200001 1.7539999
-0.28400001 0.70999998 1.753
-0.27399999 0.71399999 1.762
-0.26300001 0.71200001 1.7589999
-0.252 0.713 1.763
-0.241 0.71100003 1.76
-0.23 0.71100003 1.762
-0.219 0.71100003 1.763
-0.20900001 0.713 1.768
-0.198 0.71200001 1.768
-0.18700001 0.713 1.77
-0.177 0.71399999 1.773
-0.16599999 0.713 1.772
-0.155 0.71499997 1.779
-0.14399999 0.71200001 1.771
-0.134 0.71799999 1.7869999
-0.123 0.71399999 1.779
-0.112 0.71600002 1.783
-0.101 0.71499997 1.7819999
-0.090999998 0.71600002 1.786
-0.079999998 0.71600002 1.7869999
-0.068999998 0.71600002 1.785
-0.057999998 0.71799999 1.791
-0.046999998 0.71899998 1.795
-0.035999998 0.71700001 1.789
-0.025 0.71799999 1.793
-0.015 0.72000003 1.7970001
-0.0040000002 0.71899998 1.796
0.0060000001 0.71899998 1.795
0.017000001 0.72299999 1.806
0.028000001 0.72299999 1.806
0.039000001 0.722 1.803
0.050000001 0.722 1.803
0.061000001 0.72399998 1.807
0.071999997 0.72399998 1.808
0.082999997 0.72399998 1.806
0.093999997 0.72299999 1.804
0.105 0.727 1.812
0.116 0.727 1.812
0.127 0.72500002 1.806
0.138 0.72500002 1.806
0.149 0.72600001 1.807
0.16 0.72600001 1.807
0.171 0.72399998 1.801
0.182 0.72500002 1.803
0.193 0.72600001 1.8049999
0.204 0.72500002 1.801
0.21600001 0.72799999 1.807
0.227 0.727 1.802
0.237 0.72600001 1.8
0.249 0.727 1.801
0.25999999 0.727 1.799
0.27000001 0.72600001 1.795
0.28200001 0.72799999 1.798
0.29300001 0.727 1.793
0.303 0.72500002 1.7869999
0.31600001 0.72899997 1.796
0.32600001 0.72799999 1.793
0.33700001 0.727 1.788
0.34799999 0.72799999 1.789
0.36000001 0.72899997 1.788
0.37 0.727 1.781
0.38100001 0.72799999 1.7819999
0.39300001 0.72899997 1.783
0.40400001 0.72799999 1.778
0.41499999 0.72899997 1.778
0.42699999 0.73100001 1.78
0.43700001 0.72899997 1.774
0.44800001 0.72899997 1.772
0.45899999 0.72799999 1.766
0.46799999 0.72600001 1.758
0.47999999 0.72799999 1.76
0.49200001 0.72899997 1.76
0.50199997 0.727 1.753
0.51200002 0.72600001 1.747
0.523 0.72600001 1.745
0.53399998 0.72600001 1.7410001
0.54799998 0.72899997 1.747
0.55900002 0.72899997 1.744
0.56699997 0.72500002 1.732
0.58099997 0.72899997 1.738
0.58999997 0.72799999 1.73
0.60299999 0.73000002 1.732
0.61400002 0.72899997 1.727
0.62300003 0.727 1.719
0.63599998 0.72899997 1.72
0.64600003 0.72799999 1.714
0.65799999 0.72899997 1.712
0.66900003 0.72899997 1.7079999
0.67799997 0.727 1.701
0.69400001 0.73199999 1.7079999
0.70200002 0.72899997 1.698
0.71399999 0.73000002 1.6950001
0.72299999 0.72799999 1.687
0.73699999 0.73100001 1.6900001
0.74699998 0.73000002 1.683
0.759 0.73000002 1.681
0.76999998 0.73000002 1.676
0.78200001 0.73199999 1.675
0.79000002 0.72899997 1.664
0.80199999 0.72899997 1.661
0.81599998 0.73199999 1.6619999
0.82300001 0.72899997 1.651
0.838 0.73199999 1.653
0.85000002 0.73299998 1.651
0.85699999 0.72899997 1.637
0.86900002 0.73000002 1.635
0.87800002 0.72899997 1.626
0.88700002 0.727 1.618
0.90200001 0.73000002 1.62
0.90600002 0.72500002 1.603
0.91799998 0.72600001 1.6
0.92900002 0.72600001 1.595
0.93000001 0.71799999 1.572
0.94 0.71700001 1.566
0.92799997 0.69999999 1.522
-0.057999998 -0.039999999 0.079000004
-0.048999999 -0.034000002 0.066
-0.029999999 -0.02 0.035
-0.022 -0.014 0.022
-0.011 -0.0060000001 0.003
-0.0049999999 -0.001 -0.0060000001
-2.2780001 -1.836 4.125
-2.2449999 -1.832 4.1269999
-2.2049999 -1.822 4.1170001
-2.178 -1.823 4.132
