# .PCD v0.7 - Point Cloud Data file format
VERSION 0.7
FIELDS x y z
SIZE 4 4 4
TYPE F F F
COUNT 1 1 1
WIDTH 1793
HEIGHT 1
VIEWPOINT 0 0 0 1 0 0 0
POINTS 1793
DATA ascii
-1.2690001 0.47299999 3.625
-1.249 0.47400001 3.6389999
-1.222 0.472 3.6300001
-1.193 0.46900001 3.6140001
-1.179 0.47299999 3.645
-1.161 0.47400001 3.6619999
-1.137 0.47299999 3.6600001
-1.117 0.47400001 3.674
-1.091 0.472 3.665
-1.056 0.46599999 3.625
-1.03 0.46399999 3.6159999
-1.01 0.465 3.6229999
-0.98299998 0.46200001 3.608
-0.954 0.458 3.5840001
-0.93400002 0.45899999 3.5929999
-0.87 0.43700001 3.428
-0.80299997 0.41299999 3.243
-0.76300001 0.40200001 3.1600001
-0.75800002 0.40900001 3.221
-0.741 0.41 3.2320001
-0.72299999 0.41100001 3.24
-0.71399999 0.417 3.29
-0.68900001 0.41299999 3.267
-0.66500002 0.41 3.2449999
-0.64899999 0.412 3.266
-0.62900001 0.41100001 3.263
-0.61000001 0.412 3.266
-0.59100002 0.41100001 3.2650001
-0.57099998 0.41 3.2620001
-0.54900002 0.40799999 3.2460001
-0.53500003 0.412 3.279
-0.51300001 0.41 3.267
-0.5 0.414 3.303
-0.47799999 0.412 3.286
-0.463 0.41499999 3.3169999
-0.44 0.412 3.2950001
-0.42500001 0.41600001 3.3280001
-0.40799999 0.41800001 3.3440001
-0.39199999 0.421 3.3710001
-0.375 0.42399999 3.4000001
-0.35299999 0.421 3.3740001
-0.34400001 0.43399999 3.483
-0.31900001 0.426 3.424
-0.292 0.41600001 3.3410001
-0.27599999 0.421 3.381
-0.25600001 0.41999999 3.375
-0.23899999 0.42399999 3.411
-0.21799999 0.421 3.392
-0.199 0.42300001 3.4059999
-0.17900001 0.421 3.3929999
-0.161 0.42300001 3.408
-0.14 0.41999999 3.385
-0.121 0.42199999 3.3970001
-0.102 0.421 3.391
-0.082999997 0.42500001 3.424
-0.064000003 0.426 3.434
-0.044 0.42699999 3.4460001
-0.025 0.42899999 3.461
-0.0049999999 0.42899999 3.46
0.014 0.426 3.4330001
0.033 0.42199999 3.401
0.052000001 0.42199999 3.3989999
0.071000002 0.41999999 3.3859999
0.090999998 0.41999999 3.3870001
0.111 0.42399999 3.415
0.131 0.426 3.434
0.15000001 0.42300001 3.4100001
0.17 0.426 3.4300001
0.192 0.43000001 3.4649999
0.21799999 0.44299999 3.5680001
0.23899999 0.44499999 3.5840001
0.26199999 0.449 3.6129999
0.28299999 0.44999999 3.618
0.30599999 0.45300001 3.6440001
0.329 0.456 3.6689999
0.34999999 0.456 3.6659999
0.37900001 0.465 3.7390001
0.40400001 0.47 3.776
0.42699999 0.47099999 3.783
0.44800001 0.47099999 3.7750001
0.47099999 0.472 3.783
0.491 0.47099999 3.7739999
0.51499999 0.47299999 3.7869999
0.537 0.47299999 3.7820001
0.56300002 0.47600001 3.8080001
0.58499998 0.477 3.8110001
0.60500002 0.47499999 3.7920001
0.62800002 0.477 3.8
0.65499997 0.47999999 3.826
0.68000001 0.48199999 3.8369999
0.70300001 0.48300001 3.8380001
0.72500002 0.48199999 3.832
0.74900001 0.484 3.842
0.76899999 0.48300001 3.8269999
0.792 0.48300001 3.8269999
0.81199998 0.48199999 3.8110001
0.83999997 0.48500001 3.8329999
0.86500001 0.486 3.8399999
0.88999999 0.48800001 3.849
0.91799998 0.491 3.869
0.94300002 0.49200001 3.8710001
0.96399999 0.49200001 3.862
0.99000001 0.493 3.868
1.018 0.49599999 3.8829999
1.043 0.49700001 3.8889999
1.064 0.49599999 3.8759999
1.0880001 0.49700001 3.8740001
1.1059999 0.495 3.8529999
1.1390001 0.49900001 3.882
1.1670001 0.50099999 3.891
1.191 0.50199997 3.8900001
1.2180001 0.50300002 3.8959999
1.2589999 0.50999999 3.9449999
1.2819999 0.50999999 3.938
1.302 0.509 3.9189999
1.325 0.509 3.9119999
1.357 0.51200002 3.928
1.38 0.51200002 3.9200001
1.414 0.51599997 3.9430001
1.4400001 0.51700002 3.9419999
1.456 0.514 3.9119999
1.48 0.514 3.9070001
1.512 0.51700002 3.9189999
1.536 0.51700002 3.9119999
1.562 0.51800001 3.9100001
1.601 0.523 3.937
1.637 0.52600002 3.9579999
1.659 0.52600002 3.9449999
1.675 0.523 3.9170001
1.711 0.52700001 3.9360001
1.743 0.52899998 3.9430001
1.779 0.53299999 3.9590001
1.795 0.52999997 3.9319999
1.8279999 0.53299999 3.941
1.862 0.53600001 3.95
1.9 0.53899997 3.9679999
1.914 0.537 3.9360001
1.942 0.537 3.931
1.98 0.54100001 3.948
2.0009999 0.54000002 3.928
2.0369999 0.54299998 3.9389999
2.0739999 0.546 3.951
2.1110001 0.54900002 3.9619999
2.1830001 0.56099999 4.0370002
2.26 0.574 4.119
2.339 0.58700001 4.1999998
2.385 0.59200001 4.2220001
-2.0569999 0.53600001 3.648
-2.059 0.54299998 3.7060001
-2.0220001 0.53899997 3.6930001
-2.003 0.54000002 3.7130001
-1.997 0.54500002 3.7579999
-1.978 0.546 3.777
-1.977 0.55299997 3.8340001
-1.919 0.54400003 3.779
-1.875 0.53799999 3.7479999
-1.844 0.53600001 3.743
-1.8329999 0.53899997 3.78
-1.816 0.54100001 3.8050001
-1.793 0.542 3.816
-1.753 0.537 3.79
-1.724 0.53500003 3.7869999
-1.691 0.53200001 3.777
-1.675 0.53399998 3.803
-1.637 0.52999997 3.7780001
-1.6059999 0.52700001 3.7690001
-1.562 0.51999998 3.7279999
-1.495 0.505 3.628
-1.444 0.49599999 3.566
-1.4220001 0.49599999 3.5739999
-1.401 0.49599999 3.5840001
-1.381 0.49700001 3.5969999
-1.34 0.48899999 3.552
-1.325 0.49200001 3.5780001
-1.2819999 0.484 3.526
-1.263 0.48500001 3.5369999
-1.248 0.48699999 3.563
-1.233 0.49000001 3.5880001
-1.201 0.486 3.5650001
-1.186 0.48800001 3.589
-1.16 0.486 3.582
-1.1210001 0.479 3.5320001
-1.1 0.479 3.5380001
-1.0779999 0.47799999 3.5409999
-1.056 0.47799999 3.543
-1.031 0.47600001 3.536
-0.99800003 0.47099999 3.5
-0.977 0.47 3.5020001
-0.958 0.47099999 3.5139999
-0.93599999 0.47 3.5139999
-0.90499997 0.465 3.4779999
-0.85500002 0.44999999 3.368
-0.76899999 0.414 3.105
-0.74299997 0.41 3.0739999
-0.73500001 0.41600001 3.1229999
-0.73000002 0.42300001 3.1849999
-0.71499997 0.42500001 3.2030001
-0.69599998 0.42500001 3.2049999
-0.676 0.42399999 3.201
-0.65799999 0.42500001 3.2090001
-0.63999999 0.42500001 3.217
-0.616 0.421 3.1919999
-0.59600002 0.41999999 3.187
-0.57200003 0.417 3.161
-0.55500001 0.41800001 3.1730001
-0.53600001 0.417 3.1689999
-0.51999998 0.41800001 3.184
-0.505 0.421 3.2090001
-0.48800001 0.42300001 3.2260001
-0.46000001 0.41499999 3.1630001
-0.449 0.421 3.2130001
-0.43099999 0.42199999 3.223
-0.417 0.426 3.256
-0.40200001 0.43000001 3.2909999
-0.38600001 0.43399999 3.322
-0.368 0.435 3.3310001
-0.36000001 0.449 3.444
-0.33199999 0.43799999 3.358
-0.30500001 0.428 3.279
-0.28799999 0.43000001 3.3010001
-0.27200001 0.435 3.3380001
-0.25099999 0.43099999 3.3069999
-0.234 0.435 3.339
-0.214 0.433 3.3299999
-0.19400001 0.43000001 3.303
-0.175 0.43000001 3.306
-0.156 0.42899999 3.303
-0.139 0.435 3.3510001
-0.123 0.447 3.4389999
-0.103 0.44800001 3.4460001
-0.083999999 0.449 3.4549999
-0.064999998 0.45100001 3.477
-0.045000002 0.45500001 3.5020001
-0.025 0.454 3.5009999
-0.0049999999 0.454 3.4990001
0.014 0.45199999 3.483
0.032000002 0.43599999 3.359
0.050999999 0.43099999 3.323
0.07 0.43099999 3.3169999
0.089000002 0.43099999 3.319
0.109 0.43399999 3.3440001
0.127 0.433 3.336
0.147 0.43399999 3.3410001
0.16599999 0.43599999 3.3559999
0.185 0.43599999 3.3529999
0.20999999 0.447 3.441
0.236 0.45899999 3.527
0.25600001 0.46000001 3.5339999
0.27900001 0.46399999 3.569
0.30000001 0.465 3.5739999
0.31900001 0.46200001 3.55
0.33899999 0.46200001 3.546
0.36300001 0.46599999 3.579
0.38999999 0.47400001 3.638
0.41800001 0.48300001 3.7
0.44499999 0.48899999 3.747
0.46399999 0.486 3.724
0.48800001 0.48899999 3.743
0.50599998 0.486 3.7190001
0.52999997 0.48800001 3.7309999
0.55199999 0.48899999 3.734
0.57700002 0.49200001 3.756
0.597 0.491 3.743
0.62300003 0.49399999 3.7620001
0.64499998 0.49399999 3.763
0.66600001 0.49399999 3.7550001
0.68800002 0.49399999 3.7550001
0.71399999 0.49700001 3.7739999
0.73199999 0.49399999 3.7479999
0.76099998 0.5 3.7839999
0.78100002 0.498 3.7709999
0.80299997 0.498 3.7650001
0.829 0.50099999 3.7820001
0.85299999 0.50199997 3.7869999
0.87699997 0.50300002 3.789
0.898 0.50300002 3.7820001
0.92900002 0.50800002 3.8139999
0.94999999 0.50700003 3.802
0.97299999 0.50700003 3.799
0.995 0.50700003 3.793
1.022 0.509 3.8050001
1.048 0.51099998 3.816
1.066 0.509 3.7950001
1.099 0.514 3.825
1.118 0.51200002 3.8069999
1.146 0.51499999 3.8169999
1.173 0.51700002 3.826
1.202 0.51999998 3.842
1.222 0.51800001 3.8269999
1.257 0.52399999 3.859
1.2869999 0.52600002 3.8710001
1.294 0.51999998 3.8180001
1.322 0.52200001 3.8239999
1.352 0.52499998 3.8369999
1.383 0.528 3.8529999
1.411 0.52999997 3.859
1.438 0.53100002 3.8599999
1.459 0.52999997 3.848
1.483 0.52999997 3.842
1.516 0.53399998 3.858
1.548 0.537 3.8710001
1.5650001 0.53399998 3.846
1.591 0.53500003 3.8440001
1.619 0.537 3.846
1.651 0.54000002 3.858
1.683 0.542 3.8670001
1.707 0.542 3.858
1.74 0.54500002 3.8699999
1.775 0.54900002 3.8829999
1.793 0.54699999 3.862
1.821 0.54799998 3.859
1.85 0.54900002 3.8599999
1.89 0.55400002 3.8829999
1.909 0.55299997 3.862
1.942 0.55500001 3.8670001
1.977 0.55800003 3.8789999
2.02 0.56300002 3.9030001
2.043 0.56300002 3.8900001
2.0769999 0.565 3.895
2.1429999 0.57599998 3.96
2.2639999 0.602 4.1230001
2.3239999 0.611 4.171
2.3770001 0.61699998 4.204
-2.0280001 0.55199999 3.5929999
-2.0280001 0.55800003 3.6459999
-1.972 0.54900002 3.599
-1.974 0.55599999 3.655
-1.9680001 0.56099999 3.6989999
-1.965 0.56699997 3.75
-1.927 0.56300002 3.734
-1.88 0.55599999 3.698
-1.8049999 0.54100001 3.605
-1.79 0.54299998 3.632
-1.786 0.54900002 3.6789999
-1.745 0.54299998 3.651
-1.748 0.551 3.717
-1.71 0.54699999 3.6949999
-1.681 0.54500002 3.6900001
-1.64 0.53899997 3.658
-1.635 0.54500002 3.7079999
-1.585 0.53500003 3.654
-1.536 0.52600002 3.6010001
-1.472 0.51200002 3.51
-1.433 0.50599998 3.4760001
-1.41 0.505 3.48
-1.393 0.50700003 3.4979999
-1.3660001 0.505 3.4890001
-1.337 0.50199997 3.4779999
-1.318 0.50300002 3.49
-1.295 0.50199997 3.4920001
-1.272 0.50099999 3.4949999
-1.251 0.50099999 3.5009999
-1.225 0.49900001 3.494
-1.2079999 0.50099999 3.513
-1.1720001 0.495 3.474
-1.166 0.50099999 3.5250001
-1.136 0.49700001 3.506
-1.104 0.49200001 3.4760001
-1.0880001 0.49399999 3.4979999
-1.056 0.48899999 3.4660001
-1.026 0.48500001 3.4400001
-1.008 0.486 3.454
-0.98400003 0.484 3.448
-0.96100003 0.48300001 3.441
-0.926 0.47600001 3.3940001
-0.91100001 0.47799999 3.4159999
-0.884 0.47499999 3.398
-0.847 0.465 3.3329999
-0.78100002 0.43900001 3.148
-0.73799998 0.42500001 3.05
-0.736 0.435 3.125
-0.70999998 0.43000001 3.0929999
-0.69499999 0.43099999 3.1099999
-0.67799997 0.433 3.1210001
-0.66399997 0.435 3.142
-0.65200001 0.43900001 3.1789999
-0.625 0.433 3.1359999
-0.61400002 0.43799999 3.178
-0.58499998 0.43099999 3.125
-0.565 0.42899999 3.1170001
-0.546 0.428 3.1140001
-0.523 0.42500001 3.089
-0.51099998 0.43000001 3.1300001
-0.486 0.42399999 3.0869999
-0.47 0.42500001 3.1010001
-0.45500001 0.428 3.125
-0.44499999 0.43599999 3.187
-0.433 0.44299999 3.2379999
-0.41299999 0.44100001 3.2249999
-0.391 0.43700001 3.2030001
-0.38 0.44600001 3.266
-0.36199999 0.447 3.276
-0.34599999 0.45100001 3.3050001
-0.32800001 0.45100001 3.312
-0.30700001 0.449 3.2939999
-0.28200001 0.44 3.2309999
-0.26199999 0.43700001 3.214
-0.24600001 0.44100001 3.24
-0.226 0.43799999 3.221
-0.20999999 0.44299999 3.257
-0.19 0.44100001 3.244
-0.17200001 0.44100001 3.2460001
-0.152 0.43700001 3.2190001
-0.134 0.43799999 3.2290001
-0.119 0.45100001 3.323
-0.103 0.46599999 3.431
-0.082999997 0.465 3.4289999
-0.064000003 0.46399999 3.4189999
-0.044 0.46700001 3.4460001
-0.025 0.46799999 3.4530001
-0.0049999999 0.46599999 3.4389999
0.014 0.46799999 3.4530001
0.032000002 0.45699999 3.3710001
0.050000001 0.442 3.2539999
0.068000004 0.44 3.2390001
0.086000003 0.43799999 3.2279999
0.105 0.44 3.24
0.124 0.44 3.244
0.142 0.43900001 3.233
0.162 0.44299999 3.2590001
0.178 0.43700001 3.2149999
0.2 0.44400001 3.2679999
0.223 0.45300001 3.3329999
0.245 0.458 3.3710001
0.26199999 0.45500001 3.3429999
0.28400001 0.45899999 3.3770001
0.30399999 0.461 3.385
0.322 0.45899999 3.3710001
0.34299999 0.461 3.381
0.36700001 0.46700001 3.4230001
0.391 0.472 3.4649999
0.43399999 0.49900001 3.658
0.46000001 0.50400001 3.6919999
0.48100001 0.50300002 3.687
0.5 0.50099999 3.6689999
0.52100003 0.50199997 3.6700001
0.54500002 0.50400001 3.6860001
0.56800002 0.50599998 3.691
0.58999997 0.50599998 3.6930001
0.61400002 0.509 3.711
0.634 0.50800002 3.698
0.65499997 0.50700003 3.6919999
0.676 0.50700003 3.6849999
0.70200002 0.50999999 3.7079999
0.72600001 0.51200002 3.717
0.74400002 0.50999999 3.6930001
0.773 0.51499999 3.727
0.79400003 0.514 3.721
0.81699997 0.51599997 3.7249999
0.83600003 0.514 3.7060001
0.85699999 0.51300001 3.7
0.889 0.51899999 3.74
0.912 0.51999998 3.7379999
0.93300003 0.51999998 3.7320001
0.95200002 0.51800001 3.7160001
0.97500002 0.51899999 3.714
1.006 0.523 3.744
1.025 0.52200001 3.7260001
1.054 0.52499998 3.7460001
1.084 0.52899998 3.7679999
1.095 0.52399999 3.727
1.128 0.52899998 3.7550001
1.1619999 0.53399998 3.7880001
1.187 0.53500003 3.789
1.204 0.53299999 3.766
1.223 0.53200001 3.75
1.256 0.53600001 3.776
1.285 0.53899997 3.7869999
1.307 0.53899997 3.779
1.3150001 0.53299999 3.7309999
1.337 0.53299999 3.7219999
1.373 0.53799999 3.7509999
1.403 0.54100001 3.763
1.433 0.54400003 3.776
1.452 0.542 3.7590001
1.4809999 0.54500002 3.767
1.51 0.54699999 3.7739999
1.531 0.546 3.7609999
1.5549999 0.546 3.7550001
1.584 0.54900002 3.7609999
1.614 0.551 3.7679999
1.643 0.55299997 3.773
1.666 0.55299997 3.763
1.701 0.55699998 3.78
1.724 0.55599999 3.7690001
1.765 0.56199998 3.7980001
1.794 0.56400001 3.8
1.829 0.56699997 3.8139999
1.8430001 0.56400001 3.783
1.89 0.57099998 3.819
1.9119999 0.57099998 3.8050001
1.942 0.57200003 3.8069999
1.977 0.57599998 3.8169999
2.0109999 0.57800001 3.8239999
2.046 0.58099997 3.8340001
2.063 0.579 3.809
2.1289999 0.59100002 3.8729999
2.2520001 0.61799997 4.0370002
2.332 0.63200003 4.1209998
-1.977 0.56099999 3.5
-1.9299999 0.55400002 3.467
-1.9119999 0.55500001 3.4849999
-1.914 0.56199998 3.5409999
-1.9349999 0.57499999 3.635
-1.908 0.574 3.638
-1.835 0.55900002 3.5510001
-1.829 0.56400001 3.5929999
-1.811 0.565 3.6129999
-1.788 0.565 3.6240001
-1.767 0.56599998 3.6370001
-1.701 0.55199999 3.5569999
-1.698 0.55800003 3.6070001
-1.668 0.55599999 3.599
-1.658 0.56 3.638
-1.637 0.56099999 3.6489999
-1.567 0.54400003 3.5510001
-1.489 0.52499998 3.431
-1.444 0.51599997 3.382
-1.415 0.51300001 3.3710001
-1.396 0.514 3.3829999
-1.3789999 0.51499999 3.398
-1.354 0.51300001 3.3959999
-1.334 0.514 3.4059999
-1.303 0.50999999 3.385
-1.291 0.51300001 3.4170001
-1.271 0.514 3.425
-1.252 0.514 3.438
-1.23 0.514 3.441
-1.202 0.51099998 3.425
-1.175 0.50800002 3.414
-1.1670001 0.51300001 3.457
-1.133 0.50800002 3.425
-1.115 0.509 3.438
-1.097 0.50999999 3.451
-1.0650001 0.505 3.4219999
-1.028 0.49599999 3.3710001
-1.01 0.498 3.3840001
-0.98900002 0.49700001 3.3870001
-0.96399999 0.49399999 3.3729999
-0.94199997 0.49399999 3.3729999
-0.921 0.493 3.3740001
-0.88999999 0.48699999 3.336
-0.87400001 0.48899999 3.3540001
-0.83099997 0.47600001 3.2690001
-0.76499999 0.44800001 3.0840001
-0.74199998 0.44499999 3.0639999
-0.727 0.447 3.0810001
-0.71799999 0.45300001 3.125
-0.69499999 0.44999999 3.109
-0.68000001 0.45199999 3.1270001
-0.662 0.45199999 3.1300001
-0.63999999 0.44999999 3.118
-0.62199998 0.44999999 3.1210001
-0.58600003 0.43599999 3.029
-0.56300002 0.43200001 3.007
-0.55000001 0.43599999 3.0350001
-0.53200001 0.435 3.033
-0.51300001 0.435 3.0309999
-0.49599999 0.435 3.033
-0.47799999 0.43399999 3.0350001
-0.454 0.428 2.994
-0.43900001 0.43000001 3.0090001
-0.43000001 0.43900001 3.076
-0.42500001 0.45300001 3.175
-0.405 0.44999999 3.158
-0.38800001 0.45100001 3.1689999
-0.368 0.44999999 3.161
-0.347 0.447 3.138
-0.33199999 0.44999999 3.165
-0.317 0.45500001 3.2019999
-0.303 0.46200001 3.2539999
-0.278 0.45100001 3.178
-0.25799999 0.449 3.1600001
-0.23899999 0.44600001 3.141
-0.221 0.44600001 3.1459999
-0.20100001 0.442 3.1170001
-0.183 0.442 3.119
-0.16599999 0.44299999 3.128
-0.147 0.44 3.1040001
-0.13 0.44499999 3.141
-0.113 0.44800001 3.1630001
-0.097999997 0.45899999 3.2460001
-0.079000004 0.456 3.2249999
-0.059999999 0.45500001 3.2119999
-0.041000001 0.454 3.211
-0.023 0.456 3.2249999
-0.0049999999 0.456 3.221
0.012 0.44999999 3.1789999
0.030999999 0.454 3.211
0.048 0.44499999 3.1459999
0.066 0.442 3.125
0.085000001 0.44800001 3.1619999
0.104 0.45300001 3.197
0.121 0.447 3.158
0.141 0.45300001 3.2
0.15800001 0.45199999 3.187
0.177 0.454 3.2019999
0.19400001 0.45100001 3.1830001
0.211 0.447 3.151
0.228 0.44600001 3.1440001
0.25 0.45199999 3.187
0.26699999 0.44999999 3.1700001
0.28799999 0.45500001 3.204
0.30700001 0.456 3.2060001
0.329 0.46200001 3.247
0.34599999 0.45899999 3.2249999
0.37099999 0.46700001 3.2839999
0.40200001 0.48199999 3.3829999
0.44100001 0.50400001 3.5380001
0.47099999 0.514 3.609
0.48800001 0.51099998 3.582
0.50999999 0.51099998 3.585
0.53100002 0.51200002 3.5869999
0.55400002 0.514 3.6010001
0.57599998 0.51499999 3.602
0.59899998 0.51700002 3.6159999
0.61900002 0.51599997 3.6059999
0.64600003 0.52100003 3.638
0.662 0.51800001 3.608
0.685 0.51899999 3.615
0.70999998 0.523 3.635
0.72799999 0.51999998 3.6129999
0.75800002 0.52600002 3.6530001
0.78200001 0.528 3.661
0.80000001 0.52600002 3.6440001
0.82300001 0.52700001 3.6459999
0.84399998 0.52700001 3.6400001
0.87099999 0.52999997 3.661
0.89399999 0.53100002 3.6630001
0.91500002 0.53100002 3.6559999
0.93800002 0.53200001 3.6570001
0.96100003 0.53299999 3.6570001
0.98699999 0.53600001 3.6719999
1.011 0.537 3.675
1.04 0.54100001 3.6960001
1.064 0.542 3.698
1.082 0.53899997 3.677
1.112 0.54400003 3.6989999
1.131 0.542 3.684
1.154 0.54299998 3.6830001
1.189 0.54900002 3.7160001
1.206 0.54699999 3.6960001
1.234 0.54900002 3.7079999
1.257 0.55000001 3.7019999
1.2819999 0.551 3.7019999
1.299 0.54900002 3.6830001
1.302 0.54100001 3.622
1.327 0.542 3.622
1.363 0.54799998 3.6530001
1.3890001 0.54900002 3.6570001
1.424 0.55400002 3.6819999
1.45 0.55599999 3.684
1.477 0.55699998 3.688
1.489 0.55400002 3.654
1.5190001 0.55599999 3.665
1.55 0.55900002 3.677
1.568 0.55800003 3.6559999
1.595 0.55900002 3.6589999
1.615 0.55800003 3.6429999
1.649 0.56199998 3.661
1.677 0.56400001 3.664
1.7180001 0.56999999 3.694
1.7460001 0.57200003 3.6949999
1.775 0.574 3.697
1.809 0.57700002 3.71
1.849 0.583 3.7349999
1.868 0.58099997 3.714
1.909 0.58700001 3.74
1.927 0.58499998 3.7179999
1.969 0.58999997 3.7409999
1.99 0.58899999 3.7249999
1.977 0.579 3.6459999
1.961 0.56699997 3.563
2.069 0.59200001 3.7049999
2.2420001 0.634 3.957
-1.903 0.56099999 3.365
-1.865 0.55599999 3.345
-1.8609999 0.56199998 3.388
-1.855 0.56699997 3.4289999
-1.806 0.55900002 3.388
-1.809 0.56599998 3.4449999
-1.771 0.56099999 3.424
-1.772 0.56800002 3.4779999
-1.776 0.57700002 3.54
-1.751 0.57599998 3.5450001
-1.7130001 0.57099998 3.523
-1.696 0.57300001 3.5439999
-1.6619999 0.56900001 3.5280001
-1.653 0.57300001 3.5639999
-1.642 0.57700002 3.598
-1.5549999 0.55400002 3.4630001
-1.483 0.53600001 3.3559999
-1.448 0.53100002 3.3329999
-1.42 0.528 3.322
-1.395 0.52600002 3.319
-1.39 0.53200001 3.3640001
-1.358 0.528 3.345
-1.345 0.53100002 3.369
-1.308 0.52399999 3.3369999
-1.283 0.523 3.332
-1.2690001 0.52499998 3.355
-1.243 0.523 3.3469999
-1.2180001 0.52100003 3.3410001
-1.199 0.52100003 3.3510001
-1.177 0.51999998 3.3499999
-1.16 0.52200001 3.3659999
-1.1339999 0.51899999 3.3559999
-1.119 0.52100003 3.3770001
-1.097 0.52100003 3.3789999
-1.08 0.52200001 3.3940001
-1.049 0.51700002 3.365
-1.017 0.51099998 3.3310001
-0.99199998 0.50800002 3.3199999
-0.96700001 0.50599998 3.309
-0.94300002 0.50300002 3.2969999
-0.92000002 0.50099999 3.29
-0.89700001 0.5 3.2820001
-0.87400001 0.49700001 3.273
-0.85000002 0.495 3.26
-0.80900002 0.48199999 3.178
-0.75800002 0.46200001 3.0510001
-0.73799998 0.461 3.0469999
-0.72000003 0.461 3.049
-0.69800001 0.458 3.036
-0.685 0.461 3.0610001
-0.66900003 0.463 3.0739999
-0.65399998 0.465 3.092
-0.62199998 0.454 3.0250001
-0.60799998 0.45699999 3.049
-0.57099998 0.442 2.95
-0.551 0.44 2.941
-0.53200001 0.43900001 2.931
-0.51300001 0.43700001 2.921
-0.49900001 0.44 2.9430001
-0.48300001 0.44100001 2.9519999
-0.45699999 0.43200001 2.8940001
-0.44600001 0.43799999 2.937
-0.42500001 0.43399999 2.915
-0.41100001 0.43700001 2.9360001
-0.40400001 0.44800001 3.0109999
-0.38699999 0.44800001 3.017
-0.37099999 0.449 3.0280001
-0.35299999 0.449 3.0239999
-0.33399999 0.447 3.016
-0.31900001 0.44999999 3.04
-0.30399999 0.454 3.063
-0.285 0.45199999 3.0510001
-0.26699999 0.45100001 3.049
-0.24699999 0.447 3.023
-0.23100001 0.44800001 3.0309999
-0.212 0.44499999 3.0090001
-0.19499999 0.44499999 3.0150001
-0.18000001 0.45100001 3.056
-0.161 0.447 3.0320001
-0.142 0.442 2.9979999
-0.125 0.44299999 3.0039999
-0.108 0.44600001 3.023
-0.092 0.44999999 3.052
-0.074000001 0.449 3.043
-0.056000002 0.44499999 3.02
-0.039000001 0.447 3.033
-0.022 0.45100001 3.0580001
-0.0049999999 0.44999999 3.053
0.012 0.44800001 3.0369999
0.028999999 0.449 3.046
0.046 0.44600001 3.0280001
0.064000003 0.447 3.0350001
0.081 0.44800001 3.04
0.1 0.454 3.076
0.117 0.45100001 3.056
0.134 0.44999999 3.0469999
0.152 0.45100001 3.0539999
0.169 0.45199999 3.0599999
0.18799999 0.45300001 3.0699999
0.20299999 0.449 3.043
0.223 0.45300001 3.0639999
0.241 0.454 3.072
0.259 0.456 3.0829999
0.27900001 0.458 3.098
0.29499999 0.456 3.0780001
0.31299999 0.456 3.082
0.336 0.463 3.128
0.35299999 0.46200001 3.1210001
0.375 0.46799999 3.1559999
0.40799999 0.48500001 3.2709999
0.44800001 0.509 3.431
0.48300001 0.52600002 3.5439999
0.50199997 0.52499998 3.5320001
0.52100003 0.523 3.5150001
0.542 0.52399999 3.5220001
0.56400001 0.52600002 3.53
0.58399999 0.52499998 3.523
0.60500002 0.52600002 3.523
0.62900001 0.52899998 3.5409999
0.64600003 0.52600002 3.5179999
0.66799998 0.52700001 3.5239999
0.68699998 0.52499998 3.51
0.71200001 0.52899998 3.53
0.73900002 0.53399998 3.5569999
0.75400001 0.52999997 3.526
0.778 0.53200001 3.54
0.801 0.53399998 3.5469999
0.82499999 0.53600001 3.556
0.85799998 0.54400003 3.605
0.87 0.53799999 3.563
0.89499998 0.54100001 3.573
0.91900003 0.542 3.5810001
0.94 0.542 3.576
0.96899998 0.54699999 3.6010001
0.98699999 0.54500002 3.582
1.013 0.54799998 3.5969999
1.041 0.551 3.6129999
1.069 0.55500001 3.6300001
1.081 0.55000001 3.595
1.108 0.55299997 3.6059999
1.1289999 0.55299997 3.6010001
1.153 0.55400002 3.602
1.178 0.55500001 3.6040001
1.204 0.55800003 3.6129999
1.2359999 0.56199998 3.638
1.249 0.55800003 3.605
1.274 0.56 3.608
1.283 0.55500001 3.566
1.301 0.55299997 3.549
1.329 0.55599999 3.5580001
1.354 0.55699998 3.562
1.38 0.55900002 3.5669999
1.409 0.56199998 3.5780001
1.433 0.56300002 3.573
1.455 0.56300002 3.5680001
1.482 0.565 3.572
1.507 0.56599998 3.5699999
1.54 0.56999999 3.5880001
1.568 0.57200003 3.5940001
1.5880001 0.57099998 3.5799999
1.626 0.57700002 3.6070001
1.633 0.57200003 3.5650001
1.679 0.57999998 3.6070001
1.706 0.58099997 3.6059999
1.738 0.58499998 3.618
1.766 0.58600003 3.618
1.795 0.588 3.6210001
1.832 0.59299999 3.6389999
1.863 0.59600002 3.6459999
1.897 0.59899998 3.6570001
1.92 0.59899998 3.645
1.942 0.59899998 3.632
1.947 0.59299999 3.5880001
1.948 0.58700001 3.5369999
2.0009999 0.59600002 3.5799999
2.063 0.60699999 3.638
-1.834 0.56199998 3.2390001
-1.8559999 0.57499999 3.326
-1.794 0.56300002 3.263
-1.75 0.55599999 3.2309999
-1.721 0.55299997 3.2249999
-1.729 0.56199998 3.289
-1.761 0.57999998 3.401
-1.751 0.58399999 3.434
-1.6950001 0.57200003 3.375
-1.692 0.57800001 3.4230001
-1.682 0.58200002 3.4549999
-1.654 0.57999998 3.451
-1.622 0.57700002 3.4400001
-1.592 0.57300001 3.4289999
-1.534 0.56 3.359
-1.464 0.542 3.256
-1.434 0.53799999 3.2420001
-1.425 0.542 3.2750001
-1.404 0.542 3.2820001
-1.385 0.54299998 3.2939999
-1.342 0.53399998 3.2449999
-1.322 0.53399998 3.2509999
-1.316 0.54000002 3.296
-1.2819999 0.53399998 3.266
-1.271 0.53799999 3.2969999
-1.233 0.52999997 3.256
-1.22 0.53299999 3.28
-1.2 0.53299999 3.2880001
-1.186 0.53600001 3.3110001
-1.161 0.53299999 3.3039999
-1.1440001 0.53500003 3.3180001
-1.126 0.53600001 3.3310001
-1.1059999 0.53500003 3.335
-1.084 0.53500003 3.336
-1.056 0.53100002 3.316
-1.025 0.52499998 3.2869999
-1.005 0.52499998 3.2909999
-0.97500002 0.51899999 3.26
-0.949 0.51599997 3.244
-0.92500001 0.51300001 3.23
-0.90399998 0.51200002 3.2279999
-0.87699997 0.50700003 3.2049999
-0.86699998 0.51300001 3.244
-0.83700001 0.50599998 3.2060001
-0.78500003 0.486 3.0799999
-0.72899997 0.46200001 2.931
-0.69700003 0.45199999 2.875
-0.66600001 0.44299999 2.816
-0.64700001 0.44100001 2.812
-0.64499998 0.45100001 2.878
-0.63099998 0.454 2.898
-0.61799997 0.456 2.915
-0.597 0.45300001 2.901
-0.57300001 0.44800001 2.868
-0.55299997 0.44499999 2.8540001
-0.53799999 0.44600001 2.865
-0.51800001 0.44400001 2.8499999
-0.5 0.442 2.845
-0.48699999 0.44499999 2.868
-0.46599999 0.44100001 2.8429999
-0.45199999 0.44400001 2.8610001
-0.43700001 0.44600001 2.878
-0.419 0.44400001 2.8659999
-0.40000001 0.44100001 2.8499999
-0.38699999 0.44600001 2.882
-0.37099999 0.447 2.892
-0.354 0.44600001 2.8900001
-0.34 0.44999999 2.915
-0.32499999 0.45199999 2.9289999
-0.308 0.45199999 2.931
-0.289 0.44800001 2.908
-0.27399999 0.45100001 2.9289999
-0.25600001 0.44800001 2.914
-0.241 0.45300001 2.9449999
-0.222 0.449 2.918
-0.206 0.45100001 2.9330001
-0.189 0.44800001 2.918
-0.171 0.44600001 2.905
-0.15700001 0.45500001 2.9630001
-0.139 0.45100001 2.937
-0.123 0.45300001 2.9519999
-0.106 0.45199999 2.95
-0.088 0.447 2.9159999
-0.071999997 0.45199999 2.947
-0.055 0.45199999 2.948
-0.037999999 0.449 2.9289999
-0.021 0.449 2.9319999
-0.0040000002 0.447 2.914
0.011 0.449 2.9289999
0.028000001 0.45300001 2.9519999
0.045000002 0.45300001 2.957
0.061999999 0.45100001 2.9430001
0.079000004 0.454 2.9590001
0.096000001 0.45300001 2.954
0.112 0.44999999 2.931
0.12899999 0.449 2.9289999
0.146 0.45199999 2.947
0.164 0.45500001 2.9660001
0.182 0.456 2.971
0.198 0.454 2.9549999
0.214 0.45300001 2.9460001
0.233 0.456 2.97
0.249 0.454 2.9530001
0.26899999 0.46000001 2.9909999
0.285 0.458 2.977
0.303 0.46000001 2.987
0.32600001 0.46799999 3.0369999
0.34599999 0.47099999 3.056
0.36700001 0.47499999 3.0810001
0.391 0.484 3.1359999
0.41600001 0.49200001 3.184
0.45300001 0.51200002 3.3169999
0.498 0.54000002 3.4960001
0.51700002 0.53899997 3.4860001
0.53399998 0.53600001 3.467
0.55800003 0.54000002 3.4890001
0.57599998 0.53799999 3.471
0.59299999 0.53500003 3.4519999
0.616 0.53799999 3.4630001
0.63599998 0.53799999 3.4619999
0.65899998 0.54000002 3.4719999
0.67500001 0.53600001 3.4460001
0.69599998 0.53799999 3.4519999
0.72000003 0.54100001 3.467
0.74299997 0.542 3.4719999
0.76599997 0.54400003 3.4820001
0.787 0.54500002 3.48
0.80900002 0.546 3.4849999
0.82999998 0.546 3.4820001
0.85299999 0.54799998 3.4879999
0.87599999 0.55000001 3.494
0.89499998 0.54900002 3.484
0.917 0.55000001 3.484
0.93800002 0.55000001 3.484
0.96600002 0.55400002 3.5039999
0.98799998 0.55500001 3.5039999
1.011 0.55699998 3.5079999
1.0369999 0.55900002 3.5190001
1.056 0.55800003 3.5079999
1.077 0.55800003 3.5009999
1.096 0.55699998 3.4909999
1.123 0.56099999 3.506
1.1390001 0.55800003 3.484
1.175 0.565 3.5220001
1.192 0.56300002 3.5039999
1.224 0.56800002 3.529
1.24 0.56599998 3.5079999
1.267 0.56900001 3.517
1.275 0.56300002 3.4749999
1.2920001 0.56099999 3.457
1.317 0.56300002 3.4619999
1.35 0.56800002 3.484
1.374 0.56900001 3.4849999
1.408 0.57499999 3.5090001
1.423 0.57200003 3.4849999
1.451 0.57499999 3.494
1.483 0.579 3.5109999
1.498 0.57599998 3.4879999
1.523 0.57700002 3.487
1.559 0.583 3.51
1.602 0.59100002 3.549
1.6059999 0.58399999 3.5009999
1.641 0.58899999 3.52
1.664 0.58899999 3.5139999
1.687 0.58999997 3.5079999
1.721 0.59399998 3.523
1.758 0.59899998 3.543
1.819 0.61199999 3.6099999
1.847 0.61299998 3.6099999
1.852 0.60799998 3.566
1.8710001 0.60699999 3.549
1.905 0.61000001 3.5599999
1.949 0.61699998 3.5869999
1.934 0.60500002 3.5079999
1.9579999 0.60500002 3.4990001
1.956 0.59799999 3.4449999
-1.765 0.56099999 3.1140001
-1.7589999 0.56599998 3.1489999
-1.71 0.55699998 3.1070001
-1.716 0.565 3.164
-1.725 0.57499999 3.2279999
-1.75 0.58999997 3.326
-1.7130001 0.58499998 3.3050001
-1.677 0.57999998 3.2850001
-1.632 0.57099998 3.2449999
-1.628 0.57700002 3.289
-1.655 0.59399998 3.3959999
-1.6 0.58200002 3.335
-1.546 0.56999999 3.2739999
-1.497 0.56 3.221
-1.4529999 0.551 3.177
-1.42 0.54500002 3.154
-1.395 0.54400003 3.152
-1.3940001 0.551 3.2019999
-1.3609999 0.54500002 3.178
-1.3279999 0.54000002 3.154
-1.321 0.54500002 3.191
-1.299 0.54400003 3.191
-1.281 0.54500002 3.2019999
-1.274 0.55000001 3.2420001
-1.2460001 0.54699999 3.2279999
-1.232 0.55000001 3.2509999
-1.199 0.54299998 3.221
-1.188 0.54699999 3.2520001
-1.1670001 0.54699999 3.2550001
-1.143 0.54500002 3.2490001
-1.114 0.54000002 3.227
-1.094 0.54000002 3.2320001
-1.0779999 0.542 3.2490001
-1.054 0.53899997 3.24
-1.029 0.53600001 3.2279999
-1.001 0.53200001 3.204
-0.97500002 0.528 3.187
-0.95700002 0.52899998 3.198
-0.93099999 0.52499998 3.178
-0.912 0.52399999 3.181
-0.89099997 0.523 3.1800001
-0.86900002 0.52200001 3.1730001
-0.84100002 0.51599997 3.142
-0.824 0.51700002 3.152
-0.787 0.505 3.0869999
-0.71600002 0.47 2.875
-0.662 0.44600001 2.7279999
-0.64300001 0.44299999 2.7160001
-0.62900001 0.44499999 2.7279999
-0.62 0.44999999 2.7650001
-0.59799999 0.44600001 2.74
-0.58499998 0.44800001 2.7579999
-0.56999999 0.449 2.7679999
-0.55199999 0.447 2.76
-0.542 0.45300001 2.7950001
-0.52499998 0.45199999 2.7939999
-0.50700003 0.45100001 2.7880001
-0.484 0.44400001 2.7490001
-0.472 0.44800001 2.777
-0.45699999 0.449 2.7850001
-0.43799999 0.447 2.7739999
-0.42500001 0.449 2.7909999
-0.40700001 0.44800001 2.7850001
-0.38699999 0.44299999 2.7590001
-0.375 0.44800001 2.7909999
-0.35800001 0.44600001 2.7820001
-0.34400001 0.449 2.802
-0.32800001 0.44999999 2.809
-0.31299999 0.45199999 2.8210001
-0.29800001 0.454 2.836
-0.27900001 0.44800001 2.802
-0.26300001 0.449 2.8110001
-0.24699999 0.44999999 2.8150001
-0.23199999 0.45199999 2.8280001
-0.21600001 0.45300001 2.836
-0.2 0.45300001 2.842
-0.185 0.45500001 2.8540001
-0.169 0.45699999 2.868
-0.152 0.45500001 2.852
-0.13500001 0.45500001 2.8540001
-0.12 0.46000001 2.8900001
-0.103 0.456 2.8640001
-0.086999997 0.458 2.878
-0.071000002 0.45899999 2.885
-0.052999999 0.45300001 2.846
-0.037 0.45699999 2.8699999
-0.021 0.458 2.8770001
-0.0040000002 0.454 2.8540001
0.011 0.45699999 2.872
0.027000001 0.45500001 2.859
0.044 0.46000001 2.888
0.061000001 0.46200001 2.9030001
0.077 0.458 2.8770001
0.094999999 0.465 2.9200001
0.111 0.46200001 2.902
0.127 0.46000001 2.8859999
0.14399999 0.46200001 2.9000001
0.15899999 0.456 2.8629999
0.176 0.45899999 2.881
0.192 0.45699999 2.868
0.207 0.45500001 2.849
0.228 0.46399999 2.905
0.24600001 0.46599999 2.9159999
0.26100001 0.46399999 2.9030001
0.28 0.46599999 2.918
0.30199999 0.47499999 2.9690001
0.32699999 0.486 3.039
0.345 0.48699999 3.043
0.36700001 0.49399999 3.086
0.38699999 0.49700001 3.1010001
0.412 0.505 3.154
0.44299999 0.51999998 3.2409999
0.47 0.52999997 3.3010001
0.505 0.546 3.404
0.52700001 0.54900002 3.414
0.54500002 0.54699999 3.4030001
0.56400001 0.546 3.395
0.58399999 0.54699999 3.3970001
0.60500002 0.54799998 3.3989999
0.62300003 0.54699999 3.3889999
0.64600003 0.54900002 3.401
0.66600001 0.55000001 3.401
0.685 0.54900002 3.392
0.71200001 0.55500001 3.424
0.73199999 0.55500001 3.4200001
0.75300002 0.55500001 3.418
0.778 0.55900002 3.441
0.79299998 0.55599999 3.414
0.81099999 0.55400002 3.402
0.83499998 0.55699998 3.411
0.85900003 0.55900002 3.424
0.87199998 0.55500001 3.391
0.89499998 0.55699998 3.3970001
0.91900003 0.55900002 3.4089999
0.94700003 0.56400001 3.4319999
0.96799999 0.56400001 3.4289999
0.98799998 0.56400001 3.424
1.0039999 0.56199998 3.4030001
1.026 0.56300002 3.404
1.046 0.56300002 3.4000001
1.08 0.56999999 3.438
1.098 0.56900001 3.4230001
1.117 0.56800002 3.4130001
1.1390001 0.56900001 3.4130001
1.173 0.57499999 3.4460001
1.1950001 0.57599998 3.444
1.207 0.57200003 3.4119999
1.2359999 0.57599998 3.427
1.2589999 0.57700002 3.428
1.275 0.57499999 3.408
1.299 0.57599998 3.411
1.325 0.579 3.418
1.359 0.58399999 3.4430001
1.3839999 0.58600003 3.4460001
1.399 0.583 3.4230001
1.429 0.58700001 3.437
1.454 0.58899999 3.4389999
1.482 0.59100002 3.447
1.506 0.59299999 3.4460001
1.523 0.59100002 3.427
1.552 0.59399998 3.437
1.597 0.60299999 3.4779999
1.602 0.597 3.4349999
1.627 0.59799999 3.4319999
1.664 0.60399997 3.457
1.699 0.60799998 3.474
1.747 0.61699998 3.517
1.7869999 0.62400001 3.5439999
1.807 0.62300003 3.529
1.831 0.62300003 3.5220001
1.849 0.62199998 3.5020001
1.887 0.62699997 3.5220001
1.932 0.634 3.553
1.937 0.62900001 3.51
1.946 0.62400001 3.474
1.96 0.62099999 3.448
-1.738 0.57300001 3.063
-1.7130001 0.57099998 3.063
-1.6950001 0.57200003 3.075
-1.7 0.57999998 3.132
-1.712 0.59100002 3.2019999
-1.693 0.59200001 3.214
-1.664 0.58899999 3.207
-1.624 0.58200002 3.177
-1.636 0.59399998 3.2520001
-1.633 0.60000002 3.296
-1.589 0.59100002 3.257
-1.535 0.579 3.1960001
-1.465 0.56 3.098
-1.439 0.55699998 3.092
-1.398 0.54900002 3.052
-1.38 0.54900002 3.062
-1.364 0.55000001 3.076
-1.347 0.551 3.089
-1.317 0.54699999 3.0710001
-1.298 0.54699999 3.0799999
-1.281 0.54799998 3.0899999
-1.2640001 0.54900002 3.1029999
-1.244 0.54799998 3.108
-1.2309999 0.551 3.1289999
-1.21 0.55000001 3.132
-1.196 0.55199999 3.151
-1.166 0.54699999 3.1289999
-1.145 0.54699999 3.131
-1.138 0.55199999 3.1700001
-1.125 0.55500001 3.1930001
-1.094 0.55000001 3.165
-1.073 0.54900002 3.168
-1.044 0.54400003 3.1429999
-1.022 0.542 3.138
-0.99000001 0.53500003 3.102
-0.97299999 0.53600001 3.1140001
-0.95499998 0.53600001 3.119
-0.94199997 0.53899997 3.1429999
-0.91799998 0.53600001 3.132
-0.88800001 0.52899998 3.096
-0.875 0.53200001 3.118
-0.86000001 0.53500003 3.1370001
-0.829 0.52700001 3.096
-0.80699998 0.52499998 3.085
-0.773 0.514 3.0280001
-0.69300002 0.472 2.779
-0.63800001 0.44499999 2.6259999
-0.62800002 0.449 2.651
-0.60900003 0.44600001 2.638
-0.597 0.449 2.6570001
-0.57499999 0.44400001 2.6340001
-0.57200003 0.454 2.6949999
-0.55500001 0.45300001 2.691
-0.53600001 0.44999999 2.6789999
-0.52700001 0.456 2.7130001
-0.505 0.45100001 2.6849999
-0.49000001 0.45100001 2.6900001
-0.47600001 0.45300001 2.7060001
-0.45699999 0.44999999 2.688
-0.44100001 0.449 2.687
-0.426 0.44999999 2.6930001
-0.412 0.45199999 2.707
-0.39399999 0.44800001 2.688
-0.377 0.44800001 2.687
-0.36000001 0.44499999 2.675
-0.34799999 0.44999999 2.7030001
-0.33399999 0.45300001 2.7219999
-0.31999999 0.454 2.7320001
-0.30399999 0.454 2.734
-0.287 0.45199999 2.7249999
-0.27500001 0.458 2.763
-0.25799999 0.456 2.7479999
-0.242 0.456 2.7509999
-0.227 0.458 2.7679999
-0.212 0.46000001 2.78
-0.19400001 0.45500001 2.75
-0.18099999 0.46200001 2.7950001
-0.164 0.46000001 2.783
-0.148 0.46000001 2.7820001
-0.131 0.456 2.7579999
-0.117 0.46200001 2.793
-0.098999999 0.456 2.7579999
-0.085000001 0.463 2.8010001
-0.068000004 0.45899999 2.7809999
-0.052999999 0.46599999 2.8239999
-0.037 0.46700001 2.826
-0.021 0.465 2.8150001
-0.0040000002 0.45899999 2.779
0.011 0.461 2.793
0.027000001 0.465 2.8169999
0.043000001 0.465 2.8180001
0.059999999 0.46900001 2.8399999
0.075999998 0.46799999 2.8310001
0.093000002 0.47099999 2.8540001
0.109 0.472 2.8599999
0.124 0.465 2.8150001
0.14 0.465 2.812
0.155 0.461 2.7880001
0.171 0.461 2.789
0.18799999 0.46399999 2.802
0.205 0.46599999 2.8139999
0.223 0.46900001 2.835
0.23899999 0.47 2.836
0.255 0.46799999 2.8269999
0.27900001 0.48199999 2.9059999
0.29800001 0.48500001 2.927
0.32100001 0.495 2.983
0.34799999 0.509 3.0680001
0.366 0.50999999 3.0710001
0.384 0.50999999 3.0710001
0.40000001 0.50800002 3.0550001
0.42699999 0.51899999 3.1210001
0.44600001 0.52100003 3.131
0.46399999 0.52100003 3.1270001
0.5 0.54000002 3.2409999
0.53200001 0.55400002 3.3199999
0.55400002 0.55599999 3.332
0.574 0.55599999 3.3310001
0.59399998 0.55800003 3.336
0.61400002 0.55900002 3.3369999
0.63599998 0.56 3.345
0.65600002 0.56099999 3.345
0.67500001 0.56 3.3380001
0.69599998 0.56199998 3.342
0.72100002 0.56599998 3.3659999
0.74199998 0.56699997 3.369
0.76300001 0.56800002 3.3710001
0.77999997 0.56599998 3.3559999
0.80199999 0.56800002 3.3610001
0.82300001 0.56900001 3.362
0.84200001 0.56800002 3.352
0.86000001 0.56699997 3.342
0.88099998 0.56800002 3.3429999
0.90600002 0.57099998 3.3570001
0.926 0.57099998 3.352
0.94999999 0.574 3.3640001
0.963 0.56999999 3.335
0.98400003 0.56999999 3.332
1.011 0.57499999 3.352
1.031 0.57499999 3.346
1.054 0.57599998 3.3499999
1.072 0.57499999 3.3399999
1.095 0.57700002 3.342
1.117 0.57800001 3.342
1.1440001 0.58099997 3.3559999
1.165 0.58200002 3.3540001
1.187 0.583 3.3510001
1.212 0.58499998 3.359
1.243 0.58999997 3.3800001
1.25 0.58399999 3.339
1.278 0.58700001 3.3510001
1.301 0.58899999 3.3529999
1.326 0.59100002 3.3570001
1.357 0.59500003 3.375
1.369 0.59200001 3.3469999
1.403 0.597 3.3710001
1.432 0.60100001 3.3840001
1.446 0.59799999 3.3610001
1.484 0.60500002 3.392
1.499 0.60299999 3.3699999
1.527 0.60500002 3.3770001
1.562 0.611 3.4000001
1.579 0.60900003 3.381
1.604 0.611 3.381
1.64 0.616 3.402
1.678 0.62199998 3.428
1.698 0.62199998 3.415
1.75 0.63300002 3.4660001
1.78 0.63599998 3.473
1.785 0.63 3.4300001
1.817 0.63300002 3.438
1.8430001 0.63499999 3.4360001
1.8710001 0.63700002 3.4360001
1.901 0.639 3.4400001
1.936 0.64300001 3.4530001
1.97 0.64700001 3.4619999
-1.669 0.56900001 2.9360001
-1.679 0.579 2.9979999
-1.6950001 0.59200001 3.072
-1.67 0.58999997 3.072
-1.6569999 0.59200001 3.0940001
-1.647 0.59600002 3.122
-1.627 0.59600002 3.132
-1.603 0.59399998 3.132
-1.598 0.60000002 3.1719999
-1.5779999 0.60000002 3.181
-1.539 0.59299999 3.1500001
-1.446 0.56400001 3.006
-1.3890001 0.54900002 2.9330001
-1.396 0.56 2.997
-1.378 0.56 3.007
-1.354 0.55800003 3.0020001
-1.335 0.55800003 3.0090001
-1.304 0.55299997 2.9879999
-1.289 0.55400002 3.0039999
-1.273 0.55500001 3.016
-1.2539999 0.55500001 3.023
-1.237 0.55599999 3.0339999
-1.2079999 0.551 3.0139999
-1.2079999 0.55900002 3.0669999
-1.194 0.56199998 3.0880001
-1.17 0.56 3.0810001
-1.152 0.56 3.0880001
-1.12 0.55299997 3.059
-1.107 0.55599999 3.079
-1.0930001 0.55800003 3.099
-1.068 0.55500001 3.0880001
-1.035 0.54799998 3.05
-1.013 0.546 3.0450001
-0.99199998 0.54400003 3.0439999
-0.97299999 0.54400003 3.0469999
-0.95999998 0.54699999 3.0680001
-0.93699998 0.54400003 3.0580001
-0.91399997 0.54100001 3.046
-0.903 0.546 3.0780001
-0.875 0.54000002 3.0469999
-0.85699999 0.54000002 3.052
-0.84600002 0.54500002 3.0840001
-0.81300002 0.53500003 3.0320001
-0.787 0.52899998 3.0050001
-0.75599998 0.52100003 2.9590001
-0.653 0.46000001 2.618
-0.62400001 0.44999999 2.562
-0.60500002 0.447 2.549
-0.59899998 0.454 2.592
-0.57999998 0.45100001 2.5799999
-0.56900001 0.45500001 2.6010001
-0.55500001 0.456 2.6129999
-0.53600001 0.45300001 2.5969999
-0.52499998 0.456 2.619
-0.50800002 0.45500001 2.612
-0.493 0.45500001 2.618
-0.479 0.456 2.6270001
-0.46200001 0.454 2.619
-0.447 0.45500001 2.622
-0.43200001 0.45500001 2.6300001
-0.41999999 0.45899999 2.6530001
-0.40599999 0.46000001 2.6619999
-0.389 0.458 2.651
-0.373 0.458 2.655
-0.35800001 0.458 2.655
-0.345 0.46200001 2.6800001
-0.324 0.45300001 2.631
-0.31099999 0.458 2.658
-0.29699999 0.45899999 2.6659999
-0.27900001 0.456 2.6500001
-0.264 0.45500001 2.648
-0.25 0.458 2.6659999
-0.234 0.45699999 2.6619999
-0.221 0.461 2.6860001
-0.205 0.461 2.6889999
-0.19 0.46200001 2.6960001
-0.177 0.46700001 2.7249999
-0.15899999 0.46200001 2.694
-0.14399999 0.46399999 2.7090001
-0.12899999 0.46399999 2.711
-0.114 0.46599999 2.72
-0.097999997 0.46700001 2.727
-0.082999997 0.47 2.7479999
-0.067000002 0.47 2.7449999
-0.050999999 0.46700001 2.7309999
-0.035999998 0.47099999 2.7550001
-0.021 0.48199999 2.8180001
-0.0040000002 0.477 2.7869999
0.011 0.47999999 2.8069999
0.027000001 0.48199999 2.8199999
0.043000001 0.47799999 2.796
0.059 0.484 2.8280001
0.075999998 0.48500001 2.8380001
0.092 0.486 2.8440001
0.108 0.48199999 2.816
0.121 0.472 2.756
0.13600001 0.46700001 2.7279999
0.152 0.46799999 2.733
0.16599999 0.46399999 2.711
0.184 0.47 2.7409999
0.20100001 0.47299999 2.76
0.214 0.46799999 2.7260001
0.23199999 0.472 2.7509999
0.24699999 0.47 2.737
0.26300001 0.47 2.7390001
0.285 0.48100001 2.7980001
0.31099999 0.49700001 2.892
0.33399999 0.50700003 2.948
0.36000001 0.51899999 3.016
0.382 0.52600002 3.0550001
0.38999999 0.51300001 2.9790001
0.396 0.49900001 2.8940001
0.40400001 0.48800001 2.8280001
0.42199999 0.49000001 2.8399999
0.44100001 0.49399999 2.8570001
0.47400001 0.50999999 2.9519999
0.53500003 0.55599999 3.2130001
0.56 0.56199998 3.25
0.579 0.56300002 3.25
0.602 0.56699997 3.2690001
0.62300003 0.56900001 3.276
0.64200002 0.56800002 3.2709999
0.662 0.56900001 3.2709999
0.68400002 0.57099998 3.283
0.70999998 0.57700002 3.312
0.73199999 0.579 3.3210001
0.74699998 0.57599998 3.2980001
0.76700002 0.57599998 3.2950001
0.78799999 0.57700002 3.299
0.80800003 0.57800001 3.296
0.829 0.579 3.299
0.84399998 0.57599998 3.279
0.87099999 0.58099997 3.3
0.89700001 0.58499998 3.3210001
0.91299999 0.583 3.302
0.93099999 0.58200002 3.293
0.96100003 0.588 3.323
0.977 0.58600003 3.306
0.99299997 0.58399999 3.2909999
1.0190001 0.588 3.306
1.048 0.59299999 3.3269999
1.0599999 0.588 3.2969999
1.076 0.58700001 3.2820001
1.094 0.58600003 3.2690001
1.119 0.58899999 3.2809999
1.148 0.59299999 3.3010001
1.1619999 0.58999997 3.277
1.182 0.59100002 3.273
1.204 0.59200001 3.273
1.224 0.59200001 3.2650001
1.249 0.59399998 3.2739999
1.274 0.597 3.279
1.2920001 0.59500003 3.266
1.3200001 0.59899998 3.2809999
1.353 0.60500002 3.3050001
1.378 0.60699999 3.309
1.401 0.60799998 3.3080001
1.425 0.61000001 3.3069999
1.459 0.61500001 3.3299999
1.467 0.61000001 3.2950001
1.495 0.61400002 3.3039999
1.51 0.611 3.2820001
1.545 0.61699998 3.306
1.577 0.62099999 3.319
1.607 0.625 3.3310001
1.633 0.62699997 3.332
1.6720001 0.634 3.359
1.676 0.62699997 3.316
1.72 0.63599998 3.3510001
1.758 0.64200002 3.3729999
1.766 0.63700002 3.3380001
1.801 0.64200002 3.3540001
1.817 0.63999999 3.3340001
1.862 0.648 3.3670001
1.881 0.64700001 3.352
1.9349999 0.65799999 3.398
-1.675 0.59100002 2.9449999
-1.683 0.60000002 3.003
-1.654 0.597 2.9949999
-1.622 0.59200001 2.9809999
-1.605 0.59299999 2.994
-1.614 0.60399997 3.0569999
-1.582 0.59899998 3.0409999
-1.581 0.60600001 3.086
-1.553 0.60299999 3.0780001
-1.493 0.58700001 3.0050001
-1.427 0.56800002 2.918
-1.4119999 0.56999999 2.9319999
-1.381 0.56400001 2.9130001
-1.369 0.56699997 2.934
-1.35 0.56699997 2.941
-1.332 0.56699997 2.9489999
-1.311 0.56599998 2.951
-1.262 0.55299997 2.888
-1.262 0.56 2.9360001
-1.238 0.55800003 2.9300001
-1.221 0.55900002 2.9389999
-1.2079999 0.56099999 2.9579999
-1.189 0.56099999 2.964
-1.186 0.56800002 3.0079999
-1.171 0.56999999 3.0250001
-1.148 0.56800002 3.02
-1.125 0.565 3.013
-1.105 0.56400001 3.013
-1.09 0.56599998 3.029
-1.0650001 0.56300002 3.016
-1.035 0.55599999 2.9890001
-1.023 0.55900002 3.0109999
-0.99299997 0.55299997 2.9820001
-0.98000002 0.55599999 3.003
-0.95499998 0.55199999 2.9860001
-0.94400001 0.55599999 3.013
-0.917 0.55000001 2.9879999
-0.898 0.55000001 2.9909999
-0.87699997 0.54799998 2.984
-0.86199999 0.55000001 2.9979999
-0.83999997 0.54699999 2.99
-0.81300002 0.54100001 2.96
-0.79799998 0.54299998 2.973
-0.773 0.537 2.9489999
-0.74400002 0.52899998 2.9089999
-0.65200001 0.47499999 2.6110001
-0.60600001 0.45199999 2.4890001
-0.59299999 0.45300001 2.4979999
-0.58499998 0.458 2.529
-0.56699997 0.456 2.52
-0.55599999 0.45899999 2.539
-0.542 0.46000001 2.549
-0.53399998 0.46599999 2.5829999
-0.51200002 0.46000001 2.552
-0.498 0.461 2.5610001
-0.48300001 0.461 2.5610001
-0.46900001 0.46200001 2.5710001
-0.45500001 0.463 2.5780001
-0.435 0.458 2.553
-0.42300001 0.46000001 2.569
-0.40799999 0.461 2.575
-0.396 0.465 2.5969999
-0.37900001 0.461 2.5810001
-0.36399999 0.46200001 2.5840001
-0.34799999 0.46000001 2.579
-0.333 0.461 2.585
-0.31999999 0.46399999 2.6010001
-0.308 0.46799999 2.6289999
-0.294 0.47 2.6389999
-0.27700001 0.46700001 2.6270001
-0.26199999 0.46700001 2.6240001
-0.25 0.472 2.6570001
-0.234 0.47099999 2.6530001
-0.21799999 0.47099999 2.652
-0.206 0.479 2.697
-0.189 0.47299999 2.6670001
-0.171 0.46799999 2.6400001
-0.15700001 0.47099999 2.6559999
-0.142 0.47099999 2.6559999
-0.126 0.47 2.6500001
-0.112 0.472 2.6670001
-0.097000003 0.47499999 2.681
-0.081 0.47099999 2.661
-0.066 0.47299999 2.6730001
-0.050000001 0.47099999 2.6619999
-0.035 0.46799999 2.6440001
-0.02 0.48100001 2.717
-0.0040000002 0.486 2.7490001
0.011 0.48899999 2.7620001
0.026000001 0.48899999 2.7639999
0.041999999 0.486 2.747
0.057999998 0.486 2.7479999
0.074000001 0.486 2.747
0.090000004 0.48800001 2.7550001
0.106 0.48899999 2.7620001
0.12 0.48500001 2.7360001
0.133 0.47299999 2.6719999
0.147 0.47 2.652
0.163 0.47 2.652
0.178 0.47 2.651
0.19400001 0.472 2.661
0.20900001 0.472 2.6570001
0.226 0.47400001 2.671
0.243 0.47799999 2.6900001
0.255 0.472 2.6559999
0.27200001 0.47600001 2.675
0.28999999 0.47999999 2.697
0.31200001 0.48899999 2.747
0.32499999 0.48500001 2.7260001
0.33899999 0.48199999 2.7060001
0.352 0.479 2.688
0.359 0.46799999 2.6210001
0.36899999 0.461 2.582
0.38600001 0.46399999 2.5940001
0.39700001 0.45899999 2.566
0.412 0.45899999 2.563
0.465 0.5 2.7909999
0.54900002 0.56999999 3.181
0.56999999 0.57200003 3.194
0.59200001 0.57499999 3.2079999
0.616 0.58099997 3.234
0.63099998 0.57700002 3.2119999
0.65200001 0.57999998 3.2219999
0.67199999 0.57999998 3.22
0.69199997 0.58099997 3.223
0.71200001 0.58200002 3.227
0.73199999 0.583 3.2260001
0.75599998 0.58700001 3.244
0.773 0.58499998 3.2320001
0.79500002 0.588 3.2409999
0.81800002 0.58999997 3.25
0.84600002 0.597 3.2820001
0.86000001 0.59299999 3.2579999
0.87699997 0.59100002 3.2420001
0.89300001 0.58899999 3.227
0.91399997 0.59100002 3.23
0.93699998 0.59299999 3.2390001
0.95899999 0.59500003 3.244
0.97899997 0.59500003 3.24
0.99199998 0.59100002 3.2119999
1.013 0.59200001 3.2130001
1.036 0.59500003 3.22
1.053 0.59399998 3.2090001
1.0829999 0.59899998 3.234
1.107 0.602 3.2420001
1.127 0.602 3.237
1.148 0.60299999 3.2360001
1.166 0.602 3.223
1.1799999 0.59899998 3.2019999
1.1950001 0.597 3.1860001
1.216 0.59799999 3.1830001
1.242 0.60100001 3.194
1.2640001 0.60299999 3.194
1.293 0.60699999 3.21
1.319 0.61000001 3.2179999
1.351 0.61500001 3.2390001
1.365 0.61199999 3.217
1.3940001 0.616 3.2309999
1.419 0.61900002 3.2360001
1.428 0.61400002 3.2030001
1.455 0.61699998 3.2119999
1.482 0.62 3.217
1.512 0.62400001 3.23
1.539 0.62699997 3.2360001
1.564 0.62900001 3.237
1.5829999 0.62800002 3.2249999
1.596 0.625 3.2030001
1.617 0.625 3.1949999
1.669 0.63800001 3.2479999
1.693 0.639 3.2449999
1.716 0.63999999 3.2390001
1.7460001 0.64300001 3.2479999
1.781 0.648 3.2639999
1.804 0.64899999 3.2579999
1.855 0.66000003 3.302
1.908 0.671 3.346
-1.648 0.60000002 2.8929999
-1.624 0.59799999 2.8929999
-1.613 0.60100001 2.9170001
-1.585 0.59799999 2.9089999
-1.585 0.60500002 2.954
-1.569 0.60600001 2.9660001
-1.5420001 0.60299999 2.96
-1.489 0.58999997 2.9030001
-1.45 0.58099997 2.869
-1.397 0.56699997 2.8069999
-1.385 0.56999999 2.8269999
-1.373 0.57200003 2.8469999
-1.351 0.56999999 2.8469999
-1.335 0.57099998 2.859
-1.322 0.57300001 2.8759999
-1.304 0.57300001 2.8840001
-1.273 0.56800002 2.8629999
-1.261 0.56999999 2.8829999
-1.234 0.56599998 2.869
-1.22 0.56800002 2.885
-1.196 0.565 2.8770001
-1.181 0.56599998 2.888
-1.171 0.56999999 2.915
-1.151 0.56900001 2.9170001
-1.132 0.56900001 2.921
-1.125 0.574 2.954
-1.0930001 0.56699997 2.925
-1.087 0.57300001 2.961
-1.067 0.57200003 2.9630001
-1.046 0.57099998 2.96
-1.0140001 0.56300002 2.924
-1.01 0.56999999 2.9690001
-0.98100001 0.56400001 2.9430001
-0.958 0.56099999 2.931
-0.93599999 0.55900002 2.924
-0.926 0.56300002 2.9519999
-0.89899999 0.55800003 2.928
-0.87599999 0.55400002 2.914
-0.85900003 0.55400002 2.9189999
-0.838 0.55199999 2.911
-0.81999999 0.551 2.914
-0.79400003 0.54500002 2.8859999
-0.77200001 0.542 2.8710001
-0.75 0.53899997 2.8599999
-0.727 0.53399998 2.8369999
-0.64499998 0.48500001 2.5799999
-0.60000002 0.463 2.4619999
-0.58499998 0.46200001 2.4630001
-0.57300001 0.46399999 2.4749999
-0.56 0.465 2.4860001
-0.54900002 0.46799999 2.5039999
-0.54000002 0.47299999 2.5339999
-0.52399999 0.47299999 2.5339999
-0.509 0.472 2.533
-0.495 0.47299999 2.5409999
-0.479 0.472 2.536
-0.46000001 0.46700001 2.516
-0.449 0.472 2.5409999
-0.426 0.463 2.4960001
-0.41299999 0.46399999 2.506
-0.39899999 0.465 2.5120001
-0.38499999 0.46599999 2.52
