# .PCD v0.7 - Point Cloud Data file format
VERSION 0.7
FIELDS x y z
SIZE 4 4 4
TYPE F F F
COUNT 1 1 1
WIDTH 1766
HEIGHT 1
VIEWPOINT 0 0 0 1 0 0 0
POINTS 1766
DATA ascii
-0.63200003 0.52700001 3.2609999
-0.61400002 0.528 3.27
-0.597 0.52999997 3.2850001
-0.57599998 0.528 3.277
-0.55500001 0.52700001 3.273
-0.537 0.528 3.2780001
-0.51700002 0.52700001 3.2739999
-0.49599999 0.52499998 3.267
-0.479 0.52700001 3.2820001
-0.461 0.528 3.29
-0.442 0.528 3.2920001
-0.42399999 0.52999997 3.3050001
-0.405 0.52899998 3.3010001
-0.38699999 0.52999997 3.313
-0.36700001 0.52899998 3.3099999
-0.34900001 0.53100002 3.3239999
-0.33000001 0.52999997 3.3199999
-0.29499999 0.50300002 3.151
-0.25600001 0.46599999 2.9170001
-0.237 0.46200001 2.891
-0.22 0.461 2.888
-0.204 0.461 2.8900001
-0.18700001 0.461 2.8870001
-0.171 0.463 2.901
-0.16 0.479 3.003
-0.15000001 0.50300002 3.1589999
-0.131 0.50099999 3.1459999
-0.113 0.50199997 3.154
-0.096000001 0.50599998 3.1789999
-0.078000002 0.50599998 3.181
-0.059 0.50599998 3.1830001
-0.041000001 0.50800002 3.1919999
-0.023 0.50599998 3.1830001
-0.0049999999 0.50700003 3.1849999
0.012 0.50599998 3.1789999
0.030999999 0.50599998 3.1789999
0.048999999 0.50700003 3.188
0.067000002 0.50599998 3.1789999
0.085000001 0.50599998 3.177
0.104 0.50800002 3.191
0.122 0.50700003 3.1849999
0.14 0.50700003 3.184
0.15700001 0.50300002 3.1600001
0.167 0.47799999 3.0020001
0.175 0.456 2.8599999
0.191 0.454 2.8469999
0.207 0.45500001 2.8499999
0.22400001 0.456 2.8540001
0.23999999 0.45500001 2.848
0.25600001 0.45500001 2.848
0.27200001 0.454 2.8410001
0.28999999 0.456 2.849
0.31900001 0.47499999 2.9719999
0.36000001 0.509 3.181
0.38 0.51099998 3.1919999
0.39899999 0.51099998 3.1930001
0.41800001 0.51200002 3.1949999
0.43700001 0.51300001 3.197
0.45500001 0.51200002 3.1919999
0.47400001 0.51300001 3.197
0.493 0.51300001 3.1930001
0.51099998 0.514 3.1930001
0.53100002 0.51499999 3.1960001
0.54900002 0.514 3.1889999
0.56999999 0.51599997 3.2019999
0.58899999 0.51700002 3.204
0.60699999 0.51599997 3.194
0.62599999 0.51700002 3.194
0.64300001 0.51499999 3.1830001
0.662 0.51599997 3.1830001
0.68199998 0.51700002 3.1860001
0.66000003 0.48699999 2.9990001
0.639 0.46000001 2.8239999
0.64899999 0.45500001 2.7939999
0.667 0.456 2.796
0.68400002 0.45699999 2.7939999
0.69999999 0.456 2.7880001
0.72000003 0.45899999 2.799
0.80199999 0.49900001 3.043
0.89700001 0.546 3.326
0.926 0.551 3.3570001
0.949 0.55299997 3.3610001
0.97299999 0.55500001 3.3710001
0.98799998 0.55299997 3.3510001
1.011 0.55400002 3.3540001
1.038 0.55900002 3.3740001
1.059 0.55900002 3.369
1.0829999 0.56099999 3.3770001
1.108 0.56300002 3.385
1.131 0.565 3.3870001
1.161 0.56900001 3.4100001
1.182 0.56999999 3.4059999
1.2079999 0.57200003 3.415
1.228 0.57200003 3.4059999
1.245 0.57099998 3.391
1.265 0.56999999 3.3800001
1.295 0.57499999 3.4000001
1.318 0.57599998 3.3989999
1.351 0.58099997 3.4219999
1.368 0.579 3.4059999
1.392 0.57999998 3.405
1.421 0.58399999 3.418
1.451 0.58700001 3.431
1.4680001 0.58600003 3.414
1.4910001 0.58600003 3.4100001
1.513 0.58700001 3.404
1.551 0.59299999 3.434
1.582 0.597 3.4449999
1.601 0.59600002 3.4330001
1.619 0.59500003 3.4159999
1.655 0.60000002 3.438
1.683 0.60299999 3.4419999
1.7309999 0.61199999 3.4860001
1.762 0.61500001 3.494
1.795 0.61900002 3.506
1.8200001 0.61900002 3.4990001
1.85 0.62199998 3.5039999
1.876 0.62300003 3.5020001
1.915 0.62900001 3.5209999
1.936 0.62800002 3.5079999
1.938 0.62199998 3.46
1.934 0.61400002 3.404
-1.723 0.56800002 3.036
-1.699 0.56599998 3.0369999
-1.7029999 0.574 3.0910001
-1.714 0.58499998 3.1570001
-1.7130001 0.59200001 3.204
-1.6950001 0.59200001 3.217
-1.674 0.59200001 3.2249999
-1.646 0.58999997 3.221
-1.6390001 0.59500003 3.256
-1.641 0.60299999 3.313
-1.592 0.59299999 3.2639999
-1.543 0.58200002 3.2119999
-1.4630001 0.55900002 3.0929999
-1.431 0.55400002 3.0739999
-1.41 0.55400002 3.079
-1.391 0.55400002 3.0869999
-1.37 0.55299997 3.0910001
-1.347 0.551 3.089
-1.327 0.551 3.095
-1.3 0.54799998 3.0829999
-1.281 0.54799998 3.0910001
-1.2690001 0.551 3.115
-1.251 0.551 3.1240001
-1.2359999 0.55299997 3.142
-1.211 0.551 3.1340001
-1.197 0.55299997 3.1530001
-1.176 0.55199999 3.1570001
-1.16 0.55400002 3.1719999
-1.136 0.551 3.164
-1.1289999 0.55699998 3.204
-1.104 0.55400002 3.194
-1.084 0.55400002 3.2
-1.054 0.54900002 3.1730001
-1.036 0.54900002 3.181
-1.017 0.54900002 3.188
-0.99000001 0.54500002 3.1670001
-0.972 0.546 3.1760001
-0.95499998 0.54699999 3.188
-0.93800002 0.54799998 3.1989999
-0.91900003 0.54799998 3.2030001
-0.90200001 0.54900002 3.2160001
-0.88200003 0.54900002 3.2179999
-0.86400002 0.54900002 3.2279999
-0.84500003 0.54900002 3.2309999
-0.82599998 0.54900002 3.2349999
-0.80699998 0.55000001 3.243
-0.78500003 0.54799998 3.234
-0.75999999 0.54299998 3.2119999
-0.74199998 0.54299998 3.2179999
-0.71799999 0.54000002 3.2019999
-0.69300002 0.53600001 3.1789999
-0.67799997 0.53799999 3.1989999
-0.662 0.54000002 3.2149999
-0.63999999 0.53799999 3.2030001
-0.62300003 0.53899997 3.211
-0.60399997 0.53799999 3.2130001
-0.58399999 0.53799999 3.2119999
-0.56199998 0.53500003 3.198
-0.54500002 0.53600001 3.2049999
-0.52600002 0.53600001 3.2090001
-0.509 0.53799999 3.223
-0.491 0.53799999 3.2279999
-0.47099999 0.537 3.2249999
-0.454 0.53899997 3.237
-0.435 0.53799999 3.233
-0.417 0.53899997 3.2460001
-0.398 0.53899997 3.2460001
-0.37900001 0.53899997 3.2460001
-0.359 0.537 3.2379999
-0.34 0.53600001 3.2349999
-0.31999999 0.53299999 3.2190001
-0.28999999 0.514 3.1029999
-0.25600001 0.48199999 2.9130001
-0.237 0.479 2.891
-0.221 0.479 2.891
-0.204 0.479 2.8959999
-0.18700001 0.479 2.895
-0.17200001 0.48199999 2.9130001
-0.15899999 0.495 2.993
-0.147 0.51099998 3.092
-0.12899999 0.50999999 3.0869999
-0.112 0.51300001 3.109
-0.093999997 0.51499999 3.119
-0.075999998 0.51599997 3.125
-0.059 0.51599997 3.1259999
-0.041000001 0.51599997 3.125
-0.023 0.51700002 3.1329999
-0.0049999999 0.51499999 3.1199999
0.012 0.51599997 3.128
0.029999999 0.51599997 3.125
0.048 0.51700002 3.131
0.066 0.51599997 3.1259999
0.083999999 0.51599997 3.125
0.102 0.51599997 3.1270001
0.12 0.51700002 3.1289999
0.138 0.51700002 3.128
0.155 0.514 3.1110001
0.16599999 0.493 2.9860001
0.175 0.47400001 2.865
0.191 0.47099999 2.849
0.208 0.472 2.8529999
0.22400001 0.472 2.852
0.241 0.472 2.8529999
0.25600001 0.47099999 2.845
0.27200001 0.47099999 2.8410001
0.28999999 0.472 2.848
0.31900001 0.491 2.9619999
0.35299999 0.51700002 3.1170001
0.37400001 0.52100003 3.1400001
0.39300001 0.52200001 3.1429999
0.412 0.523 3.1470001
0.43000001 0.523 3.1470001
0.449 0.52399999 3.151
0.46700001 0.52399999 3.1470001
0.486 0.52499998 3.1470001
0.50400001 0.52399999 3.1429999
0.52200001 0.52399999 3.1389999
0.54000002 0.52399999 3.1370001
0.56 0.52600002 3.1429999
0.57800001 0.52499998 3.138
0.597 0.52700001 3.142
0.61500001 0.52600002 3.1370001
0.63200003 0.52499998 3.1259999
0.64899999 0.52399999 3.118
0.671 0.52700001 3.1300001
0.65200001 0.49900001 2.9590001
0.63800001 0.47600001 2.8180001
0.64999998 0.47299999 2.796
0.66900003 0.47400001 2.8
0.685 0.47400001 2.796
0.70300001 0.47499999 2.7980001
0.72299999 0.477 2.809
0.81099999 0.523 3.075
0.88499999 0.55800003 3.279
0.91100001 0.56199998 3.3
0.93300003 0.56400001 3.3039999
0.94999999 0.56199998 3.2880001
0.97100002 0.56300002 3.289
0.99299997 0.56400001 3.2909999
1.017 0.56699997 3.302
1.041 0.56900001 3.309
1.0650001 0.57200003 3.3180001
1.0829999 0.57099998 3.3069999
1.108 0.57300001 3.3150001
1.132 0.57499999 3.322
1.16 0.579 3.3369999
1.177 0.57800001 3.322
1.2029999 0.58099997 3.335
1.226 0.58200002 3.336
1.245 0.58099997 3.3239999
1.268 0.583 3.326
1.293 0.58499998 3.332
1.318 0.58700001 3.335
1.3430001 0.58899999 3.3410001
1.372 0.59299999 3.355
1.4 0.59600002 3.3629999
1.425 0.59799999 3.3670001
1.4450001 0.59799999 3.358
1.469 0.59899998 3.3559999
1.494 0.60100001 3.359
1.52 0.602 3.3610001
1.553 0.60699999 3.3789999
1.5779999 0.60900003 3.3789999
1.6 0.60900003 3.3729999
1.628 0.61199999 3.3789999
1.6670001 0.61799997 3.404
1.701 0.62300003 3.4219999
1.739 0.62900001 3.444
1.772 0.63300002 3.457
1.795 0.63300002 3.448
1.816 0.63300002 3.437
1.839 0.63300002 3.4289999
1.8839999 0.64099997 3.46
1.911 0.64300001 3.4590001
1.92 0.63800001 3.424
1.9529999 0.64200002 3.4330001
-1.6799999 0.57300001 2.9560001
-1.677 0.579 2.9960001
-1.688 0.58899999 3.059
-1.684 0.59500003 3.099
-1.67 0.597 3.118
-1.638 0.59299999 3.1059999
-1.636 0.59899998 3.1489999
-1.612 0.59799999 3.1500001
-1.602 0.602 3.1800001
-1.576 0.59899998 3.177
-1.5089999 0.58099997 3.089
-1.455 0.56800002 3.0250001
-1.418 0.56099999 2.9949999
-1.403 0.56199998 3.0109999
-1.374 0.55800003 2.9979999
-1.36 0.56 3.0150001
-1.337 0.55900002 3.0139999
-1.313 0.55599999 3.0090001
-1.291 0.55500001 3.007
-1.276 0.55699998 3.0239999
-1.257 0.55599999 3.03
-1.244 0.55900002 3.052
-1.227 0.56 3.062
-1.207 0.55900002 3.066
-1.196 0.56300002 3.0910001
-1.175 0.56199998 3.092
-1.154 0.56099999 3.0929999
-1.135 0.56099999 3.0999999
-1.115 0.56 3.1029999
-1.092 0.55800003 3.098
-1.073 0.55800003 3.1029999
-1.05 0.55599999 3.096
-1.026 0.55299997 3.0829999
-1.01 0.55400002 3.0969999
-0.986 0.551 3.0880001
-0.96899998 0.55199999 3.0969999
-0.95099998 0.55299997 3.105
-0.93300003 0.55299997 3.1110001
-0.91799998 0.55500001 3.1300001
-0.90600002 0.55900002 3.1559999
-0.884 0.55699998 3.1500001
-0.86900002 0.55900002 3.1670001
-0.85299999 0.56099999 3.184
-0.83099997 0.55900002 3.175
-0.81599998 0.56099999 3.1930001
-0.79900002 0.56300002 3.2049999
-0.77899998 0.56199998 3.2060001
-0.75400001 0.55800003 3.1860001
-0.73500001 0.55699998 3.187
-0.713 0.55500001 3.177
-0.69099998 0.55199999 3.1630001
-0.66900003 0.54900002 3.1489999
-0.648 0.54699999 3.1429999
-0.63300002 0.55000001 3.165
-0.60900003 0.54500002 3.138
-0.59299999 0.54699999 3.152
-0.56999999 0.54299998 3.1329999
-0.55299997 0.54500002 3.1429999
-0.53200001 0.542 3.1289999
-0.514 0.54100001 3.1289999
-0.49599999 0.542 3.135
-0.479 0.54299998 3.1459999
-0.45899999 0.54100001 3.1370001
-0.442 0.542 3.1440001
-0.42699999 0.546 3.171
-0.40799999 0.546 3.1719999
-0.38999999 0.546 3.174
-0.37 0.54400003 3.1630001
-0.34999999 0.54100001 3.151
-0.33199999 0.542 3.155
-0.31200001 0.53899997 3.1389999
-0.287 0.52600002 3.0639999
-0.25600001 0.49900001 2.9089999
-0.23800001 0.49599999 2.892
-0.221 0.495 2.8889999
-0.204 0.495 2.8889999
-0.18700001 0.495 2.8900001
-0.171 0.49700001 2.902
-0.15800001 0.509 2.9719999
-0.14399999 0.51800001 3.027
-0.127 0.51999998 3.04
-0.11 0.52100003 3.0450001
-0.092 0.52200001 3.052
-0.075000003 0.52399999 3.063
-0.057999998 0.52399999 3.0680001
-0.039999999 0.52399999 3.066
-0.022 0.523 3.062
-0.0049999999 0.52399999 3.0669999
0.012 0.52399999 3.066
0.028999999 0.52399999 3.0650001
0.046999998 0.523 3.062
0.064999998 0.52399999 3.0680001
0.082000002 0.523 3.0580001
0.1 0.52399999 3.063
0.118 0.52499998 3.069
0.13500001 0.52499998 3.0669999
0.152 0.52200001 3.05
0.164 0.50700003 2.9590001
0.175 0.49000001 2.8610001
0.191 0.48899999 2.852
0.207 0.48800001 2.848
0.22400001 0.48800001 2.849
0.241 0.48899999 2.852
0.257 0.48800001 2.846
0.273 0.48899999 2.848
0.29100001 0.491 2.859
0.31900001 0.50999999 2.967
0.34799999 0.52700001 3.069
0.36700001 0.52899998 3.0739999
0.38600001 0.52999997 3.082
0.40400001 0.53200001 3.0880001
0.42199999 0.53200001 3.086
0.44 0.53200001 3.085
0.458 0.53200001 3.0829999
0.477 0.53200001 3.0840001
0.495 0.53299999 3.082
0.51300001 0.53299999 3.082
0.53100002 0.53399998 3.0829999
0.54900002 0.53299999 3.0780001
0.56800002 0.53500003 3.0829999
0.58600003 0.53500003 3.082
0.60699999 0.537 3.0899999
0.61900002 0.53200001 3.0610001
0.63599998 0.53200001 3.0539999
0.65600002 0.53299999 3.059
0.64499998 0.51099998 2.9260001
0.639 0.493 2.8210001
0.65399998 0.49200001 2.809
0.66900003 0.49000001 2.7980001
0.685 0.491 2.796
0.70300001 0.491 2.796
0.72600001 0.49599999 2.8169999
0.81900001 0.54699999 3.105
0.87599999 0.57200003 3.243
0.89300001 0.56999999 3.2320001
0.917 0.57300001 3.2420001
0.94300002 0.57800001 3.263
0.96100003 0.57599998 3.2509999
0.98400003 0.579 3.26
1.008 0.58099997 3.2679999
1.0319999 0.58399999 3.276
1.053 0.58499998 3.277
1.071 0.58399999 3.266
1.0880001 0.583 3.253
1.1109999 0.58399999 3.257
1.136 0.58700001 3.266
1.1569999 0.588 3.263
1.174 0.58600003 3.25
1.201 0.58999997 3.263
1.22 0.58999997 3.256
1.2410001 0.58999997 3.2520001
1.2690001 0.59399998 3.266
1.29 0.59500003 3.2609999
1.308 0.59399998 3.25
1.347 0.602 3.29
1.37 0.60399997 3.29
1.392 0.60500002 3.286
1.415 0.60500002 3.283
1.443 0.60900003 3.2950001
1.472 0.61199999 3.3039999
1.489 0.611 3.289
1.508 0.61000001 3.277
1.543 0.616 3.3010001
1.575 0.62 3.316
1.605 0.62400001 3.326
1.625 0.62400001 3.316
1.656 0.62800002 3.3269999
1.679 0.62800002 3.322
1.72 0.63599998 3.3510001
1.751 0.639 3.3599999
1.762 0.63499999 3.3299999
1.7970001 0.63999999 3.346
1.823 0.64200002 3.345
1.839 0.63999999 3.325
1.882 0.648 3.3540001
1.914 0.65100002 3.3610001
-1.676 0.59100002 2.947
-1.669 0.59500003 2.9779999
-1.654 0.597 2.9949999
-1.6210001 0.59200001 2.9779999
-1.599 0.59100002 2.983
-1.6109999 0.60299999 3.0510001
-1.603 0.60699999 3.0810001
-1.587 0.60799998 3.0969999
-1.543 0.59899998 3.0580001
-1.485 0.58399999 2.9890001
-1.432 0.56999999 2.9260001
-1.4119999 0.56999999 2.9330001
-1.395 0.56999999 2.9419999
-1.373 0.56900001 2.944
-1.347 0.56599998 2.9349999
-1.324 0.56400001 2.9319999
-1.3150001 0.56800002 2.9590001
-1.291 0.565 2.954
-1.262 0.56099999 2.9360001
-1.243 0.56 2.9419999
-1.228 0.56199998 2.957
-1.22 0.56699997 2.9890001
-1.201 0.56599998 2.993
-1.177 0.56400001 2.987
-1.1720001 0.56999999 3.026
-1.158 0.57200003 3.0450001
-1.1339999 0.56999999 3.0369999
-1.11 0.56699997 3.0280001
-1.085 0.56300002 3.0150001
-1.071 0.56599998 3.0339999
-1.052 0.565 3.0369999
-1.0319999 0.565 3.04
-1.0089999 0.56199998 3.0320001
-0.98900002 0.56099999 3.0309999
-0.97000003 0.56099999 3.0339999
-0.95499998 0.56300002 3.05
-0.93099999 0.55900002 3.0350001
-0.91299999 0.55900002 3.0420001
-0.89399999 0.55800003 3.0409999
-0.88 0.56099999 3.0599999
-0.866 0.56400001 3.0829999
-0.847 0.56300002 3.0829999
-0.824 0.56 3.0710001
-0.80500001 0.55900002 3.0699999
-0.78799999 0.56 3.079
-0.76499999 0.55699998 3.0680001
-0.74800003 0.55800003 3.075
-0.73299998 0.56 3.0910001
-0.71499997 0.56 3.096
-0.69300002 0.55800003 3.0840001
-0.67400002 0.55699998 3.082
-0.65700001 0.55800003 3.092
-0.639 0.55800003 3.0969999
-0.62 0.55699998 3.096
-0.602 0.55699998 3.098
-0.579 0.55299997 3.0780001
-0.55900002 0.55000001 3.0669999
-0.54400003 0.55299997 3.085
-0.52600002 0.55299997 3.086
-0.50599998 0.551 3.0799999
-0.48899999 0.55199999 3.086
-0.46900001 0.55000001 3.076
-0.45199999 0.551 3.085
-0.43399999 0.551 3.089
-0.417 0.55199999 3.096
-0.398 0.551 3.0929999
-0.38 0.55000001 3.089
-0.36199999 0.551 3.095
-0.34400001 0.55000001 3.096
-0.32499999 0.54799998 3.0840001
-0.30599999 0.54500002 3.0699999
-0.28200001 0.53399998 3.0079999
-0.25400001 0.51300001 2.888
-0.237 0.51099998 2.878
-0.22 0.51099998 2.8829999
-0.204 0.51200002 2.8859999
-0.18700001 0.51099998 2.885
-0.171 0.51300001 2.8959999
-0.15700001 0.52200001 2.9449999
-0.142 0.52700001 2.9790001
-0.125 0.528 2.984
-0.108 0.528 2.9849999
-0.090999998 0.52899998 2.9909999
-0.074000001 0.53100002 3.0009999
-0.056000002 0.53200001 3.006
-0.039000001 0.53100002 3.003
-0.022 0.53100002 3.003
-0.0049999999 0.53100002 3
0.012 0.52999997 2.997
0.028999999 0.53100002 3
0.046 0.52999997 2.9979999
0.063000001 0.53100002 3.0020001
0.079999998 0.52999997 2.9979999
0.097999997 0.53100002 3.0009999
0.115 0.53200001 3.0050001
0.132 0.53100002 3.0009999
0.149 0.53100002 2.997
0.162 0.51800001 2.9219999
0.176 0.50700003 2.8610001
0.191 0.505 2.849
0.208 0.505 2.8499999
0.22400001 0.50599998 2.8510001
0.241 0.50599998 2.852
0.25600001 0.50400001 2.8399999
0.273 0.505 2.845
0.29100001 0.50700003 2.855
0.317 0.523 2.941
0.34200001 0.53500003 3.01
0.36000001 0.53600001 3.013
0.37799999 0.537 3.0150001
0.39500001 0.537 3.0139999
0.41299999 0.53799999 3.0179999
0.43099999 0.53799999 3.0139999
0.449 0.53899997 3.0179999
0.46700001 0.54000002 3.02
0.48500001 0.54000002 3.0209999
0.50400001 0.542 3.027
0.51999998 0.54000002 3.017
0.54000002 0.54299998 3.027
0.55900002 0.54299998 3.029
0.57599998 0.54400003 3.026
0.59299999 0.54299998 3.0179999
0.61199999 0.54400003 3.02
0.62699997 0.54100001 3.0050001
0.64200002 0.54000002 2.9909999
0.63999999 0.52399999 2.9000001
0.63800001 0.509 2.812
0.65399998 0.50800002 2.806
0.66900003 0.50700003 2.7950001
0.68699998 0.50800002 2.7980001
0.70300001 0.50800002 2.793
0.72899997 0.51499999 2.8280001
0.81999999 0.56599998 3.105
0.85799998 0.579 3.174
0.87599999 0.57800001 3.164
0.903 0.58399999 3.1900001
0.92900002 0.588 3.21
0.94800001 0.588 3.2060001
0.96799999 0.58899999 3.204
0.98299998 0.58600003 3.1849999
1.008 0.58899999 3.197
1.029 0.59100002 3.198
1.05 0.59200001 3.2
1.066 0.58999997 3.184
1.091 0.59299999 3.1949999
1.114 0.59500003 3.1989999
1.141 0.59899998 3.214
1.156 0.597 3.1960001
1.174 0.59600002 3.1860001
1.1900001 0.59500003 3.1719999
1.217 0.59799999 3.184
1.24 0.60000002 3.187
1.267 0.60399997 3.2
1.291 0.60600001 3.2030001
1.321 0.61000001 3.2219999
1.339 0.61000001 3.211
1.363 0.61199999 3.2130001
1.383 0.61199999 3.2060001
1.4069999 0.61299998 3.2079999
1.431 0.616 3.211
1.45 0.61500001 3.1989999
1.476 0.61699998 3.2049999
1.503 0.62 3.2119999
1.528 0.62199998 3.214
1.551 0.62400001 3.211
1.5829999 0.62800002 3.227
1.602 0.62800002 3.2149999
1.632 0.63099998 3.224
1.655 0.63200003 3.221
1.686 0.63599998 3.2320001
1.724 0.64300001 3.256
1.744 0.64300001 3.2449999
1.779 0.64700001 3.26
1.796 0.64600003 3.244
1.8279999 0.64999998 3.2539999
1.892 0.66500002 3.319
-1.648 0.60000002 2.8940001
-1.641 0.60399997 2.924
-1.6059999 0.59899998 2.905
-1.589 0.59899998 2.9159999
-1.5930001 0.60799998 2.967
-1.59 0.61400002 3.007
-1.541 0.602 2.9590001
-1.5039999 0.59600002 2.9330001
-1.456 0.583 2.881
-1.42 0.57599998 2.8540001
-1.393 0.57300001 2.8440001
-1.388 0.57800001 2.8800001
-1.365 0.57599998 2.8770001
-1.345 0.57499999 2.8789999
-1.311 0.56900001 2.8529999
-1.301 0.57200003 2.878
-1.286 0.57300001 2.891
-1.262 0.57099998 2.885
-1.245 0.57099998 2.8940001
-1.229 0.57200003 2.905
-1.209 0.57099998 2.9059999
-1.189 0.56999999 2.9089999
-1.175 0.57200003 2.924
-1.15 0.56900001 2.915
-1.14 0.57300001 2.941
-1.126 0.57499999 2.957
-1.1109999 0.57599998 2.9719999
-1.087 0.57300001 2.9619999
-1.074 0.57599998 2.983
-1.0549999 0.57599998 2.9860001
-1.0319999 0.57300001 2.977
-1.012 0.57200003 2.9779999
-0.99199998 0.56999999 2.974
-0.97299999 0.56999999 2.9779999
-0.95099998 0.56800002 2.971
-0.93199998 0.56699997 2.973
-0.912 0.56599998 2.97
-0.898 0.56800002 2.9879999
-0.87699997 0.56599998 2.9820001
-0.86299998 0.56800002 2.9979999
-0.84399998 0.56800002 3.0009999
-0.82200003 0.565 2.99
-0.80299997 0.56400001 2.9879999
-0.78399998 0.56300002 2.9879999
-0.76999998 0.565 3.006
-0.75099999 0.565 3.007
-0.73199999 0.56400001 3.0039999
-0.71499997 0.565 3.0139999
-0.69700003 0.56400001 3.016
-0.67299998 0.55900002 2.993
-0.65499997 0.55900002 2.993
-0.64099997 0.56199998 3.0109999
-0.62099999 0.56 3.0039999
-0.60500002 0.56199998 3.0179999
-0.58600003 0.56 3.01
-0.56400001 0.55599999 2.994
-0.54799998 0.55699998 3.0009999
-0.52899998 0.55599999 2.9990001
-0.51300001 0.55699998 3.007
-0.49599999 0.55699998 3.013
-0.47600001 0.55500001 3.0009999
-0.458 0.55400002 2.9990001
-0.442 0.55599999 3.0120001
-0.42399999 0.55500001 3.0109999
-0.40599999 0.55500001 3.013
-0.389 0.55500001 3.016
-0.37 0.55400002 3.0090001
-0.35299999 0.55299997 3.007
-0.33500001 0.55299997 3.006
-0.31400001 0.54699999 2.9790001
-0.296 0.546 2.971
-0.27599999 0.53899997 2.9360001
-0.25400001 0.528 2.878
-0.235 0.52499998 2.8610001
-0.219 0.52600002 2.8670001
-0.20200001 0.52399999 2.8599999
-0.186 0.52499998 2.868
-0.17 0.52700001 2.8800001
-0.155 0.53100002 2.8989999
-0.139 0.53299999 2.914
-0.122 0.53399998 2.918
-0.105 0.53500003 2.925
-0.089000002 0.537 2.934
-0.071999997 0.537 2.9349999
-0.055 0.53600001 2.9289999
-0.037999999 0.53600001 2.9300001
-0.021 0.53600001 2.931
-0.0049999999 0.537 2.9360001
0.011 0.537 2.9360001
0.028000001 0.537 2.937
0.045000002 0.53799999 2.9419999
0.061999999 0.53799999 2.9400001
0.079000004 0.53799999 2.941
0.096000001 0.53799999 2.9419999
0.113 0.53799999 2.9430001
0.13 0.53799999 2.941
0.146 0.537 2.934
0.161 0.53100002 2.9030001
0.175 0.523 2.858
0.191 0.52100003 2.845
0.207 0.52100003 2.842
0.223 0.51999998 2.8380001
0.23999999 0.52100003 2.8399999
0.257 0.52100003 2.8399999
0.273 0.52200001 2.8410001
0.29100001 0.52399999 2.852
0.315 0.537 2.924
0.336 0.54400003 2.957
0.35299999 0.54400003 2.957
0.37 0.54400003 2.9549999
0.389 0.546 2.9660001
0.40599999 0.546 2.964
0.42399999 0.54699999 2.9660001
0.44100001 0.54699999 2.9619999
0.45899999 0.54699999 2.964
0.47799999 0.55000001 2.974
0.495 0.54900002 2.97
0.51099998 0.54799998 2.96
0.53100002 0.551 2.974
0.55000001 0.55199999 2.977
0.56699997 0.55199999 2.974
0.583 0.551 2.9619999
0.60000002 0.551 2.96
0.61900002 0.55199999 2.9619999
0.63499999 0.551 2.9549999
0.63700002 0.53799999 2.881
0.639 0.52600002 2.813
0.65399998 0.52499998 2.8050001
0.67000002 0.52399999 2.796
0.68699998 0.52499998 2.7950001
0.70200002 0.52399999 2.789
0.73199999 0.53399998 2.836
0.81199998 0.579 3.073
0.84299999 0.58700001 3.1140001
0.85799998 0.58499998 3.099
0.88099998 0.588 3.1099999
0.90600002 0.59200001 3.1270001
0.92799997 0.59399998 3.1329999
0.94300002 0.59200001 3.118
0.96100003 0.59200001 3.1099999
0.986 0.59500003 3.1240001
1.008 0.59799999 3.1289999
1.03 0.59899998 3.1329999
1.052 0.60100001 3.1370001
1.072 0.602 3.135
1.091 0.602 3.131
1.114 0.60399997 3.1359999
1.141 0.60900003 3.1530001
1.16 0.60799998 3.1440001
1.175 0.60699999 3.1289999
1.197 0.60799998 3.1289999
1.217 0.60799998 3.1259999
1.24 0.61000001 3.1289999
1.267 0.61400002 3.141
1.291 0.616 3.1459999
1.317 0.61900002 3.155
1.3329999 0.61799997 3.138
1.362 0.62199998 3.154
1.377 0.62 3.1370001
1.403 0.62300003 3.1440001
1.424 0.62400001 3.1400001
1.456 0.62900001 3.1570001
1.472 0.62699997 3.142
1.506 0.63300002 3.164
1.531 0.63499999 3.165
1.559 0.639 3.174
1.577 0.63800001 3.1619999
1.599 0.639 3.1570001
1.619 0.639 3.148
1.648 0.64200002 3.1559999
1.688 0.64999998 3.1830001
1.712 0.65100002 3.181
1.751 0.65799999 3.2060001
1.776 0.66000003 3.204
1.817 0.667 3.23
1.876 0.68099999 3.2869999
-1.591 0.597 2.789
-1.5779999 0.59899998 2.8069999
-1.553 0.597 2.8050001
-1.567 0.61000001 2.8729999
-1.551 0.611 2.8859999
-1.515 0.60399997 2.862
-1.457 0.588 2.793
-1.415 0.57800001 2.753
-1.393 0.57599998 2.7539999
-1.383 0.579 2.776
-1.3609999 0.57700002 2.7750001
-1.345 0.57800001 2.786
-1.339 0.583 2.8180001
-1.313 0.579 2.8069999
-1.293 0.57800001 2.809
-1.266 0.574 2.7969999
-1.261 0.57999998 2.8310001
-1.237 0.57700002 2.8239999
-1.222 0.57800001 2.8369999
-1.1950001 0.574 2.822
-1.178 0.574 2.8280001
-1.159 0.57300001 2.832
-1.138 0.57099998 2.829
-1.126 0.57499999 2.8510001
-1.114 0.57700002 2.8710001
-1.101 0.57999998 2.888
-1.08 0.57800001 2.8859999
-1.0650001 0.579 2.898
-1.044 0.57700002 2.895
-1.027 0.57800001 2.902
-1.008 0.57700002 2.904
-0.98500001 0.574 2.892
-0.96399999 0.57200003 2.888
-0.949 0.57300001 2.901
-0.93199998 0.57300001 2.9070001
-0.91500002 0.574 2.9130001
-0.88800001 0.56800002 2.8889999
-0.87699997 0.57200003 2.914
-0.86199999 0.57300001 2.925
-0.84200001 0.57200003 2.924
-0.81900001 0.56800002 2.9070001
-0.80400002 0.56999999 2.9200001
-0.78500003 0.56800002 2.9170001
-0.76099998 0.56400001 2.898
-0.75099999 0.56900001 2.9289999
-0.73000002 0.56599998 2.918
-0.72000003 0.57200003 2.9530001
-0.69499999 0.56599998 2.927
-0.67799997 0.56599998 2.931
-0.662 0.56699997 2.937
-0.63999999 0.56300002 2.921
-0.62400001 0.56400001 2.931
-0.60600001 0.56400001 2.931
-0.59299999 0.56800002 2.9530001
-0.57200003 0.56400001 2.9389999
-0.55500001 0.565 2.944
-0.53500003 0.56099999 2.928
-0.51899999 0.56300002 2.941
-0.50099999 0.56099999 2.934
-0.484 0.56099999 2.938
-0.46799999 0.56300002 2.95
-0.44999999 0.56199998 2.9460001
-0.43200001 0.56099999 2.9430001
-0.414 0.55900002 2.9360001
-0.39700001 0.56 2.9430001
-0.38 0.55900002 2.9400001
-0.36300001 0.55900002 2.9419999
-0.34400001 0.55599999 2.9300001
-0.32699999 0.55599999 2.9300001
-0.308 0.55199999 2.911
-0.289 0.55000001 2.898
-0.271 0.546 2.8800001
-0.252 0.54100001 2.8529999
-0.234 0.53799999 2.839
-0.21699999 0.537 2.835
-0.2 0.53600001 2.8310001
-0.184 0.53600001 2.835
-0.169 0.53799999 2.8469999
-0.152 0.53799999 2.8469999
-0.13600001 0.54000002 2.8570001
-0.12 0.54100001 2.8610001
-0.104 0.54100001 2.8659999
-0.086999997 0.54100001 2.862
-0.07 0.54100001 2.8659999
-0.054000001 0.54299998 2.878
-0.037999999 0.54299998 2.875
-0.021 0.54400003 2.881
-0.0049999999 0.54299998 2.8759999
0.011 0.54400003 2.881
0.028000001 0.54299998 2.878
0.044 0.54400003 2.881
0.061000001 0.54400003 2.8840001
0.077 0.54400003 2.8800001
0.093999997 0.54299998 2.875
0.11 0.54299998 2.8729999
0.127 0.54299998 2.8759999
0.14300001 0.54100001 2.8610001
0.15899999 0.53899997 2.849
0.17399999 0.53600001 2.832
0.19 0.53600001 2.8329999
0.206 0.53399998 2.8199999
0.223 0.53600001 2.829
0.23899999 0.53600001 2.829
0.25600001 0.53600001 2.8299999
0.273 0.537 2.835
0.28999999 0.53799999 2.839
0.31 0.546 2.8759999
0.33000001 0.55000001 2.9000001
0.347 0.551 2.9000001
0.366 0.55400002 2.9130001
0.382 0.55299997 2.9059999
0.40000001 0.55400002 2.9119999
0.41600001 0.55400002 2.908
0.433 0.55400002 2.9059999
0.45100001 0.55500001 2.9119999
0.46900001 0.55599999 2.914
0.48500001 0.55599999 2.9089999
0.505 0.55800003 2.9200001
0.52399999 0.56 2.928
0.54000002 0.56 2.9219999
0.55599999 0.55900002 2.914
0.57300001 0.55800003 2.9089999
0.58999997 0.55900002 2.908
0.60799998 0.55900002 2.908
0.62300003 0.55699998 2.8940001
0.63 0.54900002 2.846
0.63700002 0.54100001 2.803
0.653 0.54100001 2.7980001
0.671 0.542 2.8
0.68699998 0.54100001 2.793
0.70300001 0.54100001 2.79
0.73299998 0.551 2.835
0.79799998 0.58600003 3.016
0.81699997 0.58700001 3.016
0.84200001 0.59200001 3.0380001
0.86299998 0.59399998 3.0409999
0.88099998 0.59399998 3.0380001
0.90600002 0.59899998 3.0580001
0.92299998 0.59799999 3.046
0.94700003 0.602 3.0610001
0.96700001 0.60299999 3.0610001
0.986 0.60299999 3.059
1.007 0.60500002 3.062
1.0319999 0.60799998 3.075
1.051 0.60900003 3.0710001
1.073 0.611 3.076
1.0930001 0.611 3.073
1.119 0.61500001 3.0869999
1.145 0.62 3.102
1.16 0.61799997 3.086
1.181 0.61900002 3.0840001
1.2029999 0.62 3.086
1.222 0.62 3.0799999
1.243 0.62099999 3.0780001
1.27 0.625 3.0899999
1.286 0.62400001 3.0769999
1.311 0.62699997 3.0829999
1.334 0.62900001 3.086
1.353 0.62900001 3.079
1.38 0.63200003 3.089
1.403 0.634 3.089
1.42 0.63300002 3.075
1.443 0.634 3.076
1.471 0.63800001 3.0869999
1.494 0.63999999 3.086
1.5140001 0.63999999 3.0780001
1.538 0.64200002 3.0799999
1.559 0.64300001 3.0739999
1.585 0.64499998 3.0769999
1.608 0.64700001 3.075
1.637 0.64999998 3.0840001
1.663 0.653 3.086
1.698 0.65899998 3.105
1.73 0.66299999 3.1170001
1.773 0.67199999 3.148
1.837 0.68800002 3.214
-1.554 0.602 2.7219999
-1.545 0.60500002 2.7460001
-1.523 0.60299999 2.7460001
-1.5039999 0.60299999 2.753
-1.472 0.597 2.734
-1.436 0.58899999 2.707
-1.402 0.583 2.684
-1.39 0.58499998 2.7019999
-1.37 0.58399999 2.7049999
-1.348 0.58200002 2.7019999
-1.334 0.583 2.717
-1.311 0.57999998 2.711
-1.2920001 0.57999998 2.7149999
-1.283 0.58399999 2.74
-1.258 0.57999998 2.73
-1.247 0.583 2.75
-1.219 0.57800001 2.734
-1.202 0.57800001 2.74
-1.193 0.58200002 2.767
-1.174 0.58099997 2.7690001
-1.156 0.58099997 2.7739999
-1.137 0.57999998 2.7750001
-1.127 0.583 2.7980001
-1.107 0.58200002 2.7980001
-1.086 0.57999998 2.793
-1.068 0.57999998 2.799
-1.052 0.57999998 2.8080001
-1.041 0.58399999 2.829
-1.029 0.58700001 2.8499999
-1 0.57999998 2.8239999
-0.97899997 0.57700002 2.8150001
-0.963 0.57800001 2.826
-0.94300002 0.57700002 2.822
-0.926 0.57599998 2.826
-0.90600002 0.574 2.822
-0.88700002 0.574 2.822
-0.87699997 0.57800001 2.8499999
-0.85699999 0.57599998 2.8429999
-0.83999997 0.57599998 2.849
-0.82200003 0.57499999 2.849
-0.801 0.57300001 2.842
-0.78500003 0.57300001 2.849
-0.76700002 0.57200003 2.848
-0.75099999 0.57300001 2.8570001
-0.73199999 0.57099998 2.8510001
-0.713 0.56999999 2.8469999
-0.69499999 0.56900001 2.846
-0.68099999 0.57099998 2.8610001
-0.66299999 0.57099998 2.8610001
-0.64499998 0.56999999 2.8599999
-0.62599999 0.56800002 2.855
-0.61199999 0.56999999 2.8699999
-0.59399998 0.56999999 2.8699999
-0.579 0.57099998 2.878
-0.56099999 0.56999999 2.8789999
-0.542 0.56699997 2.8659999
-0.523 0.56599998 2.862
-0.509 0.56800002 2.8759999
-0.48899999 0.565 2.8610001
-0.47299999 0.565 2.8670001
-0.45699999 0.56699997 2.8759999
-0.44100001 0.56699997 2.881
-0.42199999 0.565 2.8729999
-0.40700001 0.56699997 2.8829999
-0.38999999 0.56599998 2.8829999
-0.373 0.56699997 2.8889999
-0.35800001 0.56900001 2.902
-0.33899999 0.565 2.8829999
-0.322 0.565 2.8829999
-0.303 0.56 2.8610001
-0.285 0.55699998 2.849
-0.26699999 0.55500001 2.839
-0.249 0.551 2.819
-0.23100001 0.54799998 2.802
-0.214 0.546 2.7950001
-0.198 0.546 2.799
-0.182 0.546 2.7969999
-0.16599999 0.54500002 2.7939999
-0.15000001 0.546 2.802
-0.134 0.546 2.7980001
-0.118 0.546 2.803
-0.102 0.54799998 2.812
-0.085000001 0.54799998 2.812
-0.068999998 0.54699999 2.8080001
-0.052999999 0.54699999 2.8099999
-0.037 0.54699999 2.8080001
-0.021 0.54799998 2.8150001
-0.0040000002 0.54900002 2.819
0.011 0.54900002 2.8199999
0.027000001 0.55000001 2.823
0.043000001 0.54900002 2.819
0.059999999 0.55000001 2.8210001
0.075999998 0.54900002 2.8199999
0.092 0.55000001 2.8239999
0.108 0.55000001 2.823
0.125 0.55000001 2.8239999
0.141 0.55000001 2.819
0.15700001 0.55000001 2.822
0.17299999 0.54900002 2.812
0.189 0.54799998 2.809
0.205 0.54900002 2.8110001
0.221 0.54799998 2.8050001
0.237 0.54699999 2.802
0.25400001 0.54900002 2.806
0.271 0.54900002 2.809
0.287 0.54900002 2.8080001
0.30399999 0.55199999 2.819
0.32100001 0.55299997 2.8210001
0.34 0.55699998 2.8410001
0.35600001 0.55599999 2.8380001
0.37400001 0.55800003 2.8440001
0.38999999 0.55699998 2.839
0.40799999 0.55900002 2.846
0.42399999 0.55900002 2.845
0.44299999 0.56099999 2.8529999
0.45899999 0.56099999 2.8499999
0.477 0.56300002 2.855
0.495 0.56400001 2.859
0.51099998 0.56400001 2.8559999
0.52899998 0.565 2.8599999
0.54500002 0.56400001 2.852
0.56 0.56300002 2.8440001
0.57800001 0.565 2.848
0.59399998 0.56300002 2.8369999
0.61000001 0.56300002 2.832
0.62400001 0.56 2.8169999
0.634 0.55500001 2.786
0.65100002 0.55500001 2.7839999
0.667 0.55500001 2.7780001
0.685 0.55599999 2.783
0.69999999 0.55500001 2.7750001
0.73000002 0.56599998 2.822
0.77600002 0.588 2.9289999
0.80199999 0.59399998 2.957
0.82300001 0.597 2.9660001
0.84600002 0.60100001 2.98
0.86299998 0.60000002 2.974
0.88300002 0.60100001 2.9749999
0.90499997 0.60500002 2.9860001
0.92900002 0.60900003 3.0009999
0.94999999 0.61000001 3.003
0.96799999 0.61000001 2.9990001
0.98699999 0.611 2.9960001
1.0140001 0.616 3.017
1.036 0.61799997 3.0220001
1.056 0.62 3.0239999
1.0779999 0.62199998 3.029
1.099 0.62300003 3.03
1.125 0.62699997 3.0439999
1.15 0.63099998 3.0550001
1.165 0.62900001 3.0380001
1.1900001 0.63300002 3.05
1.205 0.63 3.0320001
1.22 0.62900001 3.0179999
1.235 0.62699997 3.003
1.2539999 0.62699997 2.997
1.288 0.63499999 3.0250001
1.304 0.63300002 3.0120001
1.323 0.63300002 3.006
1.339 0.63200003 2.993
1.358 0.63200003 2.9860001
1.392 0.639 3.0120001
1.418 0.64300001 3.0190001
1.4299999 0.63999999 2.997
1.45 0.63999999 2.99
1.478 0.64399999 3.0009999
1.499 0.64499998 2.997
1.52 0.64600003 2.9920001
1.553 0.65100002 3.0109999
1.5700001 0.64999998 2.9979999
1.598 0.65399998 3.006
1.618 0.65399998 2.9990001
1.648 0.65899998 3.01
1.676 0.662 3.0150001
1.739 0.67900002 3.082
1.7920001 0.69199997 3.131
-1.512 0.60299999 2.6429999
-1.505 0.60699999 2.6700001
-1.475 0.602 2.6559999
-1.443 0.59600002 2.638
-1.4119999 0.58999997 2.619
-1.391 0.588 2.619
-1.375 0.588 2.6289999
-1.354 0.58700001 2.628
-1.34 0.588 2.642
-1.318 0.58600003 2.6389999
-1.298 0.58499998 2.6400001
-1.277 0.58200002 2.638
-1.2690001 0.58600003 2.6630001
-1.24 0.58099997 2.6459999
-1.226 0.58200002 2.6570001
-1.22 0.58700001 2.688
-1.206 0.58899999 2.701
-1.183 0.58600003 2.694
-1.165 0.58499998 2.697
-1.148 0.58499998 2.7030001
-1.1289999 0.58399999 2.704
-1.105 0.57999998 2.694
-1.096 0.58399999 2.7179999
-1.0700001 0.579 2.7
-1.063 0.58499998 2.7320001
-1.051 0.58700001 2.7490001
-1.022 0.58099997 2.724
-1.012 0.58399999 2.7460001
-0.99400002 0.583 2.7479999
-0.97899997 0.58399999 2.7590001
-0.96399999 0.58600003 2.7690001
-0.94 0.58099997 2.7539999
-0.921 0.57999998 2.7539999
-0.90899998 0.583 2.7720001
-0.88599998 0.579 2.7579999
-0.86900002 0.579 2.7620001
-0.85399997 0.579 2.77
-0.83700001 0.579 2.7739999
-0.81999999 0.579 2.779
-0.80400002 0.579 2.783
-0.787 0.579 2.7880001
-0.76999998 0.579 2.7909999
-0.75300002 0.579 2.793
-0.73400003 0.57700002 2.786
-0.72100002 0.57999998 2.8039999
-0.69800001 0.57499999 2.786
-0.68199998 0.57499999 2.7909999
-0.66500002 0.574 2.79
-0.648 0.574 2.7920001
-0.63 0.57300001 2.7880001
-0.61500001 0.574 2.8
-0.60000002 0.57599998 2.8099999
-0.58200002 0.57499999 2.8080001
-0.56599998 0.574 2.8099999
-0.54400003 0.56999999 2.789
-0.52999997 0.57200003 2.803
-0.514 0.57300001 2.8099999
-0.49900001 0.574 2.8169999
-0.48199999 0.57300001 2.8169999
-0.463 0.56900001 2.802
-0.44800001 0.57200003 2.819
-0.43099999 0.57099998 2.8150001
-0.414 0.56999999 2.8110001
-0.398 0.57099998 2.8169999
-0.38100001 0.56999999 2.8139999
-0.366 0.57099998 2.825
-0.35100001 0.574 2.8410001
-0.33199999 0.57099998 2.825
-0.315 0.56999999 2.822
-0.29699999 0.56599998 2.806
-0.28 0.56400001 2.7969999
-0.26300001 0.56400001 2.7950001
-0.245 0.55900002 2.7739999
-0.228 0.55699998 2.7650001
-0.212 0.55599999 2.7639999
-0.19599999 0.55500001 2.7590001
-0.18000001 0.55599999 2.7650001
-0.164 0.55599999 2.7650001
-0.147 0.55299997 2.7520001
-0.132 0.55500001 2.76
-0.116 0.55500001 2.7609999
-0.1 0.55500001 2.7609999
-0.083999999 0.55299997 2.7550001
-0.068000004 0.55400002 2.756
-0.052000001 0.55299997 2.756
-0.035999998 0.55400002 2.7579999
-0.02 0.55599999 2.7690001
-0.0040000002 0.55400002 2.7609999
0.0099999998 0.55299997 2.756
0.026000001 0.55500001 2.763
0.041999999 0.55500001 2.7650001
0.057999998 0.55500001 2.7650001
0.074000001 0.55299997 2.753
0.090000004 0.55599999 2.7679999
0.106 0.55599999 2.7690001
0.122 0.55699998 2.77
0.138 0.55699998 2.7709999
0.154 0.55500001 2.763
0.171 0.55699998 2.7709999
0.18700001 0.55699998 2.7709999
0.20200001 0.55599999 2.7639999
0.219 0.55699998 2.7679999
0.235 0.55800003 2.7690001
0.25099999 0.55800003 2.7690001
0.26800001 0.56 2.776
0.28400001 0.55900002 2.773
0.30000001 0.56 2.773
0.31600001 0.56 2.7709999
0.333 0.56099999 2.777
0.34999999 0.56199998 2.7809999
0.366 0.56300002 2.7839999
0.382 0.56199998 2.7780001
0.398 0.56300002 2.779
0.41600001 0.565 2.7880001
0.43200001 0.56400001 2.7820001
0.44999999 0.56599998 2.79
0.465 0.565 2.7809999
0.48300001 0.56699997 2.79
0.5 0.56800002 2.79
0.51599997 0.56800002 2.7850001
0.53299999 0.56900001 2.7880001
0.55000001 0.56900001 2.7880001
0.56599998 0.56900001 2.786
0.58600003 0.57200003 2.796
0.60100001 0.57099998 2.7869999
0.61699998 0.56999999 2.7809999
0.63 0.56800002 2.7639999
0.64399999 0.56599998 2.753
0.66399997 0.56900001 2.766
0.68000001 0.56900001 2.7609999
0.69800001 0.56999999 2.763
0.727 0.57999998 2.8069999
0.75700003 0.59100002 2.855
0.78100002 0.59600002 2.875
0.80500001 0.60100001 2.8970001
0.82800001 0.60500002 2.9119999
0.84600002 0.60600001 2.9100001
0.86199999 0.60500002 2.9030001
0.88499999 0.60799998 2.915
0.90499997 0.61000001 2.9189999
0.92799997 0.61400002 2.9319999
0.94599998 0.61400002 2.9260001
0.96799999 0.61699998 2.937
0.99299997 0.62099999 2.951
1.0089999 0.62099999 2.9419999
1.027 0.62 2.9360001
1.0470001 0.62199998 2.938
1.071 0.625 2.948
1.098 0.63099998 2.9679999
1.123 0.634 2.9790001
1.137 0.63200003 2.9630001
1.156 0.63300002 2.9579999
1.178 0.63499999 2.9619999
1.194 0.63300002 2.9489999
1.207 0.63099998 2.931
1.233 0.63499999 2.9430001
1.265 0.64200002 2.9690001
1.285 0.64300001 2.9649999
1.3 0.64099997 2.95
1.327 0.64499998 2.9630001
1.3329999 0.639 2.927
1.363 0.64499998 2.944
1.382 0.64499998 2.9389999
1.402 0.64600003 2.9349999
1.425 0.648 2.9360001
1.451 0.65100002 2.9419999
1.466 0.64899999 2.927
1.499 0.65600002 2.947
1.522 0.65799999 2.948
1.544 0.65899998 2.9449999
1.574 0.66299999 2.957
1.598 0.66600001 2.9579999
1.622 0.66799998 2.9579999
1.66 0.67500001 2.983
1.722 0.69300002 3.05
1.765 0.70099998 3.079
-1.501 0.616 2.622
-1.459 0.60500002 2.5840001
-1.4220001 0.597 2.5569999
-1.392 0.59100002 2.54
-1.383 0.59500003 2.563
-1.372 0.597 2.5810001
-1.344 0.59200001 2.566
-1.3380001 0.59600002 2.5929999
-1.317 0.59500003 2.5929999
-1.294 0.59200001 2.5880001
-1.278 0.59200001 2.595
-1.255 0.58899999 2.5899999
-1.232 0.58600003 2.5829999
-1.223 0.58899999 2.6040001
-1.211 0.59100002 2.6210001
-1.192 0.58999997 2.6229999
-1.171 0.588 2.619
-1.1619999 0.59200001 2.6429999
-1.138 0.588 2.631
-1.122 0.588 2.638
-1.108 0.58899999 2.6500001
-1.087 0.58700001 2.645
-1.0650001 0.58399999 2.6370001
-1.0549999 0.588 2.6600001
-1.04 0.58899999 2.6700001
-1.026 0.58999997 2.6819999
-1.003 0.58600003 2.6689999
-0.99000001 0.588 2.6830001
-0.96899998 0.58499998 2.677
-0.95200002 0.58499998 2.6800001
-0.93800002 0.58600003 2.691
-0.92299998 0.58700001 2.7019999
-0.90499997 0.58600003 2.701
-0.88499999 0.58399999 2.6960001
-0.87 0.58499998 2.704
-0.852 0.58399999 2.704
-0.83399999 0.58200002 2.7019999
-0.81900001 0.583 2.7119999
-0.79900002 0.58099997 2.704
-0.78600001 0.583 2.72
-0.76800001 0.58200002 2.7179999
-0.75599998 0.58499998 2.7360001
-0.74299997 0.58700001 2.7509999
-0.722 0.58399999 2.7390001
-0.708 0.58600003 2.7509999
-0.685 0.57999998 2.7279999
-0.66900003 0.57999998 2.7320001
-0.64999998 0.57800001 2.7249999
-0.63499999 0.579 2.7320001
-0.62 0.57999998 2.7409999
-0.60399997 0.58099997 2.7479999
-0.58600003 0.579 2.743
-0.56900001 0.57800001 2.7409999
-0.55299997 0.57800001 2.7460001
-0.53500003 0.57599998 2.74
-0.52100003 0.57800001 2.7509999
-0.50300002 0.57599998 2.743
-0.486 0.57499999 2.7420001
-0.47 0.57499999 2.744
-0.454 0.57499999 2.7460001
-0.43700001 0.574 2.7449999
-0.41999999 0.57300001 2.7420001
-0.405 0.574 2.7479999
-0.38999999 0.57599998 2.7590001
-0.373 0.574 2.753
-0.35800001 0.57599998 2.7639999
-0.34299999 0.57700002 2.773
-0.32600001 0.57599998 2.767
-0.30899999 0.57499999 2.763
-0.29300001 0.574 2.7620001
-0.27599999 0.57300001 2.757
-0.259 0.56900001 2.74
-0.243 0.56999999 2.7460001
-0.226 0.56800002 2.737
-0.20999999 0.56599998 2.73
-0.19400001 0.56599998 2.7279999
-0.177 0.56300002 2.7190001
-0.162 0.565 2.727
-0.146 0.56400001 2.724
-0.13 0.56300002 2.72
-0.114 0.56300002 2.72
-0.098999999 0.56300002 2.72
-0.082999997 0.56300002 2.723
-0.067000002 0.56199998 2.714
-0.050999999 0.56199998 2.7190001
-0.035999998 0.56199998 2.7160001
-0.02 0.56199998 2.7160001
-0.0040000002 0.56199998 2.72
0.0099999998 0.56400001 2.7290001
0.026000001 0.56099999 2.714
0.041999999 0.56300002 2.72
0.057 0.56300002 2.72
0.072999999 0.56400001 2.7249999
0.089000002 0.56300002 2.7219999
0.105 0.56300002 2.7219999
0.121 0.565 2.73
0.13600001 0.56400001 2.724
0.152 0.565 2.727
0.168 0.565 2.7279999
0.184 0.56599998 2.7320001
0.2 0.56699997 2.737
0.21600001 0.56599998 2.7320001
0.23199999 0.56599998 2.7309999
0.248 0.56699997 2.73
0.26300001 0.56699997 2.7279999
0.27900001 0.56699997 2.73
0.296 0.56900001 2.7379999
0.31200001 0.56800002 2.7320001
0.32800001 0.56900001 2.734
0.34400001 0.56999999 2.7360001
0.36000001 0.56900001 2.7320001
0.37599999 0.56900001 2.7309999
0.39199999 0.56999999 2.734
0.40900001 0.57099998 2.733
0.42500001 0.57099998 2.7320001
0.442 0.57200003 2.7360001
0.45699999 0.57200003 2.7309999
0.47299999 0.57099998 2.727
0.49000001 0.57300001 2.7320001
0.50700003 0.574 2.7360001
0.523 0.574 2.7309999
0.54000002 0.57499999 2.734
0.55500001 0.574 2.7290001
0.57200003 0.57499999 2.727
0.58899999 0.57599998 2.7309999
0.60399997 0.57499999 2.72
0.62099999 0.57599998 2.723
0.63800001 0.57700002 2.723
0.65399998 0.57700002 2.721
0.67400002 0.57999998 2.7309999
0.69400001 0.583 2.744
0.71600002 0.588 2.7639999
0.741 0.59500003 2.7920001
0.76599997 0.60100001 2.8169999
0.78600001 0.60399997 2.825
0.81 0.60900003 2.8469999
0.82599998 0.60900003 2.839
0.84899998 0.61299998 2.855
0.866 0.61299998 2.849
0.884 0.61299998 2.848
0.90600002 0.61699998 2.858
0.92900002 0.62099999 2.872
0.94800001 0.62199998 2.8729999
0.96799999 0.62300003 2.8740001
0.99000001 0.62599999 2.8840001
1.007 0.62599999 2.875
1.027 0.62800002 2.878
1.044 0.62699997 2.8699999
1.072 0.634 2.8940001
1.0930001 0.63499999 2.8959999
1.109 0.634 2.8859999
1.127 0.63499999 2.881
1.15 0.63800001 2.8870001
1.1670001 0.63700002 2.8800001
1.187 0.63800001 2.8789999
1.215 0.64300001 2.895
1.242 0.648 2.9100001
1.2589999 0.648 2.902
1.276 0.64700001 2.892
1.303 0.65200001 2.9059999
1.321 0.65200001 2.8970001
1.34 0.65200001 2.8929999
1.368 0.65700001 2.905
1.3789999 0.65399998 2.8829999
1.406 0.65799999 2.8929999
1.427 0.65799999 2.8889999
1.46 0.66500002 2.9119999
1.493 0.67199999 2.9319999
1.505 0.66900003 2.9100001
1.524 0.66900003 2.902
1.564 0.67799997 2.9349999
1.58 0.67699999 2.9200001
1.594 0.67500001 2.902
1.64 0.68599999 2.944
1.707 0.70599997 3.0179999
1.752 0.71700001 3.0539999
-1.4299999 0.60299999 2.4920001
-1.413 0.60299999 2.5
-1.387 0.59899998 2.4909999
-1.372 0.59899998 2.5
-1.359 0.60000002 2.513
-1.349 0.60299999 2.533
-1.331 0.60299999 2.5380001
-1.312 0.60100001 2.54
-1.293 0.60000002 2.543
-1.2690001 0.597 2.5339999
-1.262 0.60100001 2.5599999
-1.234 0.59500003 2.5420001
-1.219 0.59600002 2.552
-1.204 0.597 2.562
-1.189 0.597 2.5710001
-1.175 0.59799999 2.582
-1.156 0.597 2.582
-1.136 0.59500003 2.5799999
-1.1210001 0.59500003 2.5880001
-1.101 0.59299999 2.585
-1.08 0.59100002 2.579
-1.066 0.59200001 2.592
-1.05 0.59200001 2.598
-1.035 0.59299999 2.605
-1.017 0.59200001 2.6070001
-1 0.59100002 2.6099999
-0.98000002 0.588 2.6040001
-0.963 0.588 2.6059999
-0.94800001 0.588 2.6140001
-0.93800002 0.59200001 2.6370001
-0.91500002 0.588 2.622
-0.90100002 0.58899999 2.6329999
-0.88200003 0.58700001 2.6289999
-0.87 0.58999997 2.645
-0.85699999 0.59200001 2.6589999
-0.83600003 0.58899999 2.6500001
-0.82300001 0.59100002 2.6630001
-0.80400002 0.58899999 2.6589999
-0.78399998 0.58600003 2.6489999
-0.773 0.58899999 2.6689999
-0.75599998 0.58899999 2.671
-0.73900002 0.588 2.671
-0.72100002 0.58600003 2.6659999
-0.70700002 0.588 2.678
-0.69199997 0.588 2.684
-0.67500001 0.588 2.6860001
-0.65700001 0.58600003 2.6819999
-0.64200002 0.58700001 2.6889999
-0.625 0.58600003 2.688
-0.60900003 0.58600003 2.6900001
-0.59299999 0.58600003 2.694
-0.574 0.58200002 2.6789999
-0.55800003 0.583 2.6849999
-0.54299998 0.583 2.6889999
-0.52700001 0.583 2.6930001
-0.509 0.58099997 2.687
-0.49399999 0.58200002 2.6919999
-0.477 0.57999998 2.6849999
-0.46200001 0.58099997 2.694
-0.44499999 0.579 2.687
-0.43000001 0.57999998 2.694
-0.41299999 0.579 2.691
-0.398 0.57999998 2.698
-0.382 0.57999998 2.6989999
-0.36700001 0.58099997 2.707
-0.352 0.58099997 2.711
-0.336 0.58099997 2.711
-0.32100001 0.58399999 2.724
-0.303 0.579 2.7049999
-0.287 0.579 2.707
-0.27200001 0.58099997 2.7149999
-0.25600001 0.579 2.707
-0.23899999 0.57700002 2.701
-0.22400001 0.57700002 2.7019999
-0.208 0.57700002 2.704
-0.191 0.574 2.6919999
-0.176 0.574 2.6900001
-0.161 0.57499999 2.697
-0.145 0.574 2.6919999
-0.12899999 0.574 2.6930001
-0.113 0.57300001 2.6889999
-0.097999997 0.57300001 2.6889999
-0.082000002 0.57099998 2.6830001
-0.066 0.57200003 2.6860001
-0.050999999 0.57200003 2.6860001
-0.035 0.57300001 2.6889999
-0.02 0.57300001 2.6900001
-0.0040000002 0.57300001 2.691
0.0099999998 0.57300001 2.6930001
0.026000001 0.57300001 2.6930001
0.041000001 0.57099998 2.6830001
0.057 0.57300001 2.691
0.071999997 0.57300001 2.691
0.088 0.57300001 2.6900001
0.104 0.57499999 2.698
0.119 0.574 2.6949999
0.13500001 0.57300001 2.688
0.15000001 0.57300001 2.6889999
0.16599999 0.574 2.6919999
0.182 0.574 2.6900001
0.198 0.57499999 2.6949999
0.213 0.574 2.6900001
0.229 0.57599998 2.7
0.245 0.57700002 2.701
0.26100001 0.57700002 2.6989999
0.27700001 0.57700002 2.701
0.29100001 0.574 2.6849999
0.30700001 0.57599998 2.6900001
0.322 0.57499999 2.6849999
0.33899999 0.57700002 2.691
0.35600001 0.57800001 2.697
0.37099999 0.57700002 2.6900001
0.38600001 0.57700002 2.688
0.403 0.579 2.6930001
0.419 0.579 2.694
0.43399999 0.579 2.687
0.45100001 0.57999998 2.6930001
0.46700001 0.57999998 2.6919999
0.48300001 0.57999998 2.688
0.5 0.58099997 2.6919999
0.51499999 0.58099997 2.687
0.53200001 0.58200002 2.6889999
0.54799998 0.583 2.691
0.56300002 0.58200002 2.681
0.579 0.58200002 2.6819999
0.597 0.58399999 2.6849999
0.61400002 0.58499998 2.688
0.62900001 0.58499998 2.6819999
0.64499998 0.58399999 2.677
0.66399997 0.58700001 2.687
0.685 0.59200001 2.704
0.704 0.59399998 2.7119999
0.72600001 0.59899998 2.73
0.74800003 0.60399997 2.75
0.76599997 0.60500002 2.75
0.79000002 0.611 2.773
0.80699998 0.611 2.7690001
0.82999998 0.616 2.786
0.85000002 0.61799997 2.7920001
0.86699998 0.61799997 2.789
0.88499999 0.61900002 2.789
0.903 0.62 2.7869999
0.92299998 0.62199998 2.7909999
0.94400001 0.625 2.8
0.96100003 0.625 2.793
0.98900002 0.63200003 2.8210001
1.006 0.63200003 2.8150001
1.029 0.63499999 2.8239999
1.049 0.63700002 2.826
1.0700001 0.63999999 2.832
1.09 0.64099997 2.8329999
1.104 0.639 2.8169999
1.1289999 0.64399999 2.832
1.143 0.64099997 2.816
1.163 0.64300001 2.8180001
1.183 0.64399999 2.816
1.201 0.64499998 2.8110001
1.232 0.65200001 2.836
1.265 0.66000003 2.8640001
1.278 0.65700001 2.845
1.299 0.65899998 2.8440001
1.3200001 0.66000003 2.8440001
1.337 0.66000003 2.836
1.364 0.66399997 2.8469999
1.3839999 0.66500002 2.8440001
1.403 0.66600001 2.839
1.429 0.66900003 2.845
1.462 0.676 2.868
1.492 0.68099999 2.881
1.507 0.68000001 2.8670001
1.535 0.68400002 2.8759999
1.554 0.685 2.869
1.586 0.69099998 2.885
1.62 0.69700003 2.904
1.676 0.713 2.9590001
1.7359999 0.73000002 3.0209999
-1.395 0.60399997 2.428
-1.37 0.60000002 2.4189999
-1.355 0.60100001 2.4289999
-1.339 0.60100001 2.4360001
-1.326 0.602 2.4489999
-1.295 0.59500003 2.428
-1.3 0.60500002 2.4760001
-1.272 0.59899998 2.4579999
-1.266 0.60399997 2.4860001
-1.253 0.60500002 2.4979999
-1.223 0.59799999 2.477
-1.219 0.60399997 2.507
-1.188 0.597 2.484
-1.1799999 0.60000002 2.506
-1.16 0.59799999 2.5039999
-1.141 0.597 2.503
-1.128 0.59799999 2.516
-1.1160001 0.60000002 2.5309999
-1.095 0.59799999 2.526
-1.077 0.59600002 2.526
-1.063 0.597 2.536
-1.043 0.59500003 2.5320001
-1.029 0.59600002 2.5420001
-1.013 0.59600002 2.5450001
-0.99699998 0.59600002 2.552
-0.98100001 0.59500003 2.556
-0.96200001 0.59399998 2.5539999
-0.94300002 0.59200001 2.55
-0.92799997 0.59200001 2.5569999
-0.91399997 0.59299999 2.566
-0.89700001 0.59200001 2.5669999
-0.87900001 0.59100002 2.5650001
-0.86699998 0.59299999 2.582
-0.84899998 0.59100002 2.5769999
-0.83200002 0.58999997 2.5769999
-0.81900001 0.59200001 2.5910001
-0.80400002 0.59299999 2.599
-0.79000002 0.59399998 2.608
-0.76599997 0.588 2.5829999
-0.75300002 0.58999997 2.596
-0.74199998 0.59299999 2.6170001
-0.72399998 0.59200001 2.6140001
-0.71200001 0.59399998 2.6289999
-0.69199997 0.59100002 2.6170001
-0.67799997 0.59299999 2.6289999
-0.66100001 0.59100002 2.625
-0.64600003 0.59100002 2.631
-0.62900001 0.58999997 2.6289999
-0.61299998 0.58999997 2.6329999
-0.59899998 0.59200001 2.645
-0.58200002 0.58999997 2.6389999
-0.56400001 0.588 2.6289999
-0.54900002 0.58899999 2.6389999
-0.53299999 0.588 2.6370001
-0.51800001 0.58899999 2.6429999
-0.5 0.58600003 2.6340001
-0.486 0.588 2.6459999
-0.46900001 0.58600003 2.6400001
-0.454 0.58600003 2.641
-0.43700001 0.58399999 2.6340001
